# .PCD v0.7 - Point Cloud Data file format
VERSION 0.7
FIELDS x y z
SIZE 4 4 4
TYPE F F F
COUNT 1 1 1
WIDTH 521
HEIGHT 1
VIEWPOINT 0 0 0 1 0 0 0
POINTS 521
DATA ascii
0.32331735 -0.041605197 0.087615959
0.32406256 -0.037369631 0.08673992
0.3253988 -0.039016753 0.087048531
0.3232815 -0.032987475 0.089181766
0.32236362 -0.04545499 0.092368573
0.32267365 -0.042724743 0.092707507
0.32398295 -0.037767921 0.092206508
0.32452548 -0.033007272 0.090991311
0.3256647 -0.033581421 0.092606425
0.33333701 -0.010925065 0.093689337
0.33297661 -0.0090663126 0.09303996
0.3459954 -0.083491802 0.099817961
0.33528551 -0.077071428 0.098895118
0.33587077 -0.074802287 0.098910138
0.32779232 -0.061797313 0.098658785
0.32264328 -0.055589259 0.099269614
0.32219788 -0.052622944 0.098515317
0.3214651 -0.04795301 0.097266547
0.32137206 -0.042297676 0.09855219
0.32194492 -0.036250517 0.098123662
0.32261717 -0.03165032 0.097619765
0.32388842 -0.027351331 0.097469807
0.32525811 -0.025548521 0.09890455
0.32446307 -0.023007624 0.098448128
0.3256948 -0.021611996 0.098844469
0.32665613 -0.017464975 0.099097371
0.33211061 -0.011787704 0.098601773
0.33323523 -0.0081654051 0.097992443
0.34791335 -0.08555685 0.10245366
0.34307027 -0.080832005 0.10390361
0.34782219 -0.083462358 0.10195518
0.33778769 -0.077233315 0.10236884
0.34207106 -0.078928754 0.10435694
0.33254221 -0.07249631 0.10326253
0.33721694 -0.074536651 0.10275479
0.32873684 -0.066629127 0.10462269
0.33137539 -0.069427446 0.10427844
0.32720116 -0.061997693 0.10339458
0.32408896 -0.056981977 0.10210554
0.32569677 -0.059026036 0.10316204
0.32348546 -0.052675724 0.1028116
0.32224607 -0.04756419 0.10205816
0.32141295 -0.042388301 0.1024593
0.3215338 -0.037391338 0.10292704
0.32272989 -0.032718174 0.10262209
0.3242631 -0.027401598 0.10243317
0.32460237 -0.023457797 0.10175123
0.32571077 -0.021720057 0.10262987
0.32728651 -0.017528266 0.10257795
0.32920074 -0.014360356 0.10170254
0.33274457 -0.011831819 0.10243879
0.33412957 -0.0083336886 0.10229515
0.3353053 -0.0064194798 0.10214031
0.33737168 -0.0035143811 0.10422178
0.34306958 -0.00090016145 0.10390303
0.34421504 0.0010909662 0.10257989
0.34563702 0.0025261443 0.10305263
0.34832311 -0.086088002 0.10851815
0.35098627 -0.086422503 0.10952657
0.34363741 -0.080614366 0.10639846
0.34752432 -0.083737336 0.10867211
0.33897275 -0.07611654 0.10733963
0.34126207 -0.078177132 0.10630838
0.33379662 -0.071453825 0.10712215
0.33643839 -0.073204473 0.10712891
0.34045139 -0.074631333 0.10692723
0.32908094 -0.066178814 0.10736518
0.33173263 -0.068348952 0.10828965
0.32716626 -0.062332518 0.10771145
0.32483369 -0.056177504 0.10651806
0.32578003 -0.058192667 0.10712756
0.32363182 -0.052580833 0.10741443
0.3221252 -0.047477424 0.10800514
0.32172871 -0.042196654 0.10760996
0.32292601 -0.037429061 0.10757089
0.32302615 -0.032389324 0.1079092
0.32330194 -0.027780175 0.10790851
0.32483354 -0.024241541 0.10651789
0.32624328 -0.021837348 0.1073866
0.32786933 -0.017704902 0.10760019
0.33018374 -0.015881518 0.10988685
0.32941392 -0.014358749 0.10521746
0.33146438 -0.012761648 0.1078594
0.33421218 -0.0083637517 0.10801282
0.3361831 -0.005960633 0.10770326
0.33739287 -0.004188606 0.10731208
0.34242982 -0.0019335013 0.10733421
0.34551564 -0.00098432228 0.10738295
0.34482515 0.00075831561 0.10677633
0.346028 0.0016637589 0.10766663
0.35118973 -0.086075351 0.11170194
0.34406951 -0.080716714 0.11143672
0.34771752 -0.08211989 0.11197928
0.3509306 -0.084067844 0.11295896
0.33950877 -0.076726571 0.11009237
0.34273893 -0.077506959 0.11289579
0.33466482 -0.070850566 0.11337971
0.33565378 -0.072428189 0.11215111
0.33128884 -0.0671281 0.11291472
0.32804033 -0.062131796 0.11261513
0.33069229 -0.063568674 0.11388314
0.32434401 -0.056747731 0.1129852
0.32604849 -0.059657872 0.11202209
0.32365617 -0.052634407 0.1127755
0.32273763 -0.04750295 0.11290956
0.32258454 -0.042659298 0.11242999
0.3226136 -0.037707448 0.11233227
0.3235122 -0.032766547 0.11285051
0.3244738 -0.027565844 0.11233635
0.32561994 -0.025481895 0.11253297
0.32470515 -0.02470254 0.11039831
0.32656106 -0.022531375 0.11210259
0.32859993 -0.018075584 0.1126989
0.33039391 -0.015535017 0.11240089
0.33266908 -0.012368525 0.11195442
0.33487558 -0.0095405877 0.11267751
0.33697766 -0.0072063943 0.11249251
0.33899933 -0.0045693042 0.11319432
0.34269446 -0.0025036584 0.11344554
0.34602448 -0.0010003945 0.11049202
0.3459101 0.00021758676 0.11039154
0.35586122 -0.085650161 0.11913338
0.34836027 -0.081992462 0.11748794
0.35107931 -0.083346568 0.11803839
0.35586122 -0.083366446 0.11913338
0.34498638 -0.0787955 0.11889753
0.34589118 -0.078703046 0.11654622
0.33427235 -0.071154281 0.11806343
0.33681181 -0.073002383 0.11837158
0.33240446 -0.06741707 0.11752038
0.33561325 -0.069445848 0.11998084
0.32745421 -0.060696423 0.11946863
0.33143699 -0.063076355 0.11737696
0.32656088 -0.057343081 0.11757464
0.32371277 -0.051266961 0.11668098
0.32582912 -0.052899599 0.118041
0.32391694 -0.047961388 0.11717132
0.3250421 -0.046756845 0.11868066
0.32374001 -0.042068392 0.11670488
0.32504213 -0.042364743 0.11868066
0.3235077 -0.037635051 0.11617525
0.32563597 -0.036805164 0.11847634
0.32435471 -0.032216888 0.11563651
0.32544297 -0.03301027 0.11781263
0.3243708 -0.028726816 0.11714021
0.32541451 -0.026687866 0.11802708
0.32724214 -0.022492561 0.11745828
0.32907245 -0.018890847 0.11720423
0.33081004 -0.016645389 0.11797979
0.33304289 -0.012949253 0.11723249
0.3361007 -0.01099191 0.11807969
0.33798319 -0.0082826456 0.11707123
0.34109914 -0.0059832707 0.1187363
0.34292305 -0.0036499151 0.11735114
0.34645548 -0.001084262 0.11825193
0.3565475 0.0029580481 0.11973628
0.35734206 -0.085481107 0.12331822
0.36376902 -0.085996434 0.12408365
0.36688432 -0.085577391 0.1248237
0.34826756 -0.081221856 0.12177998
0.35335693 -0.081417523 0.12210973
0.35672238 -0.08325088 0.12307285
0.36278814 -0.083866797 0.12444209
0.36678663 -0.084056638 0.12454773
0.34389836 -0.076530352 0.12185158
0.34769383 -0.078187786 0.12254912
0.3514902 -0.079363227 0.12407855
0.33783981 -0.071827956 0.12247912
0.34175646 -0.073769577 0.12304816
0.34566069 -0.074955702 0.12481406
0.33366144 -0.06679523 0.12211928
0.33661735 -0.06885244 0.12259336
0.3289977 -0.060691312 0.12104639
0.3320424 -0.063061684 0.12288127
0.32882553 -0.057291638 0.12235928
0.33032089 -0.058150001 0.12464908
0.32747442 -0.052511062 0.1224812
0.32440183 -0.048499655 0.12078032
0.32597941 -0.047448244 0.12252107
0.32588392 -0.042445101 0.12186767
0.32615396 -0.037568398 0.12276319
0.32661724 -0.032592289 0.12295473
0.32729831 -0.027711028 0.12236919
0.33032137 -0.02554151 0.1237621
0.32911497 -0.023090195 0.12147564
0.33054036 -0.021998022 0.1230671
0.32965255 -0.019865092 0.12006873
0.33235911 -0.017606122 0.12271263
0.33380732 -0.013933249 0.12202454
0.3369498 -0.011912694 0.12303413
0.33924839 -0.0092232348 0.12184317
0.3421267 -0.0070609557 0.1229249
0.34606734 -0.0056978078 0.12437268
0.34465569 -0.0041543469 0.12126911
0.34787634 -0.0024149069 0.1222554
0.35133642 -0.00069535058 0.12397675
0.35551265 -0.00012957305 0.12415141
0.34803319 0.00051127002 0.12157407
0.35238662 0.0011564186 0.12188929
0.35774416 0.0019500449 0.12303362
0.36065793 0.0033218637 0.12467822
0.35830051 -0.081326619 0.1270442
0.36060241 -0.081188798 0.12995374
0.34863278 -0.076696396 0.12687039
0.35157612 -0.077764198 0.12845775
0.35650912 -0.079754576 0.12787908
0.36060241 -0.079831719 0.12995374
0.33927044 -0.070184879 0.12718681
0.3422828 -0.071859553 0.12717095
0.34704381 -0.074496768 0.12802576
0.334411 -0.065810665 0.12717727
0.33769771 -0.067605115 0.12762919
0.34091961 -0.068909861 0.12970038
0.33348593 -0.062210068 0.1273866
0.33641869 -0.063972488 0.12950669
0.32966027 -0.055498961 0.12539977
0.33195895 -0.057336982 0.12766433
0.3285431 -0.051991142 0.12750082
0.33058366 -0.053779695 0.12868294
0.32787281 -0.047597595 0.12775072
0.33029175 -0.047174137 0.12994772
0.32788664 -0.042336173 0.12751018
0.33029175 -0.041086562 0.12994772
0.32840279 -0.037779439 0.12750803
0.33029175 -0.037607949 0.12994772
0.32855153 -0.032816619 0.12797527
0.33029175 -0.032824855 0.12994772
0.32936466 -0.028643737 0.12617536
0.33140066 -0.027214596 0.12754296
0.33223686 -0.022208633 0.1274474
0.33461615 -0.017507663 0.12609297
0.3366763 -0.017043354 0.12807703
0.33461785 -0.014634022 0.12576172
0.33804446 -0.013136202 0.12738541
0.34115675 -0.010554795 0.12825231
0.34290701 -0.0083929067 0.1269587
0.34729195 -0.0064228117 0.12797754
0.34926003 -0.0035957652 0.12597941
0.35257962 -0.0028654812 0.12746949
0.35671467 -0.0011684216 0.12838145
0.35880846 0.00095807947 0.12660298
0.36115456 0.0020593544 0.12694472
0.36242995 -0.080782615 0.13067177
0.35345286 -0.076850623 0.13099381
0.35687953 -0.077366374 0.13304916
0.36146903 -0.077844173 0.13293342
0.34364268 -0.071515001 0.13091677
0.34761563 -0.071906731 0.13185573
0.35154805 -0.073283836 0.13323379
0.33917141 -0.066187456 0.13056055
0.34237346 -0.067194924 0.13227904
0.34628829 -0.068103179 0.1333518
0.33491871 -0.061185896 0.13001919
0.33770591 -0.061987206 0.13162956
0.34119433 -0.063009195 0.13287006
0.33439952 -0.056631718 0.13105072
0.33679858 -0.057691045 0.13314426
0.34017715 -0.059436072 0.13463861
0.32929981 -0.051075302 0.13040736
0.33300206 -0.052341979 0.13225046
0.33551857 -0.052392054 0.13453937
0.32929981 -0.049773451 0.13040736
0.33266482 -0.047607996 0.1325078
0.32962584 -0.043698154 0.13069376
0.33132529 -0.042508125 0.1330186
0.33141342 -0.037078444 0.13294983
0.33221707 -0.032327183 0.13263731
0.33309677 -0.027668206 0.13255575
0.33584952 -0.026875651 0.13460827
0.33427706 -0.022943798 0.13130428
0.33675268 -0.021938264 0.13353819
0.33830971 -0.017754121 0.13196953
0.34206384 -0.016492834 0.13356385
0.33957726 -0.013313762 0.13011846
0.34275505 -0.012733149 0.13201068
0.34711212 -0.01139956 0.13367626
0.34460005 -0.0091399513 0.13053769
0.34829625 -0.0079541728 0.13156626
0.35180309 -0.0070980387 0.13320492
0.35682434 -0.0053553819 0.13408868
0.36223799 -0.0058353581 0.13471821
0.35371032 -0.0043537896 0.13255107
0.35863176 -0.0025362528 0.13109486
0.36234653 -0.0024446298 0.13305463
0.36671129 -0.001980741 0.13363422
0.37267524 -0.0029790308 0.13390408
0.37743992 -0.002791133 0.13390645
0.38040894 -0.0025763493 0.13404272
0.3627826 0.00070606772 0.13160276
0.36724982 0.00062056258 0.1322438
0.36950576 -0.08087495 0.13511303
0.37017131 -0.080840319 0.13636319
0.3629885 -0.075954668 0.13632821
0.36747828 -0.077038854 0.13774857
0.37041965 -0.07807418 0.13751309
0.34823298 -0.070184879 0.13506019
0.35343367 -0.071681775 0.13670056
0.35680377 -0.072658211 0.13833
0.36240023 -0.072706282 0.13852113
0.36685356 -0.073651955 0.13899469
0.3707979 -0.074403405 0.13891023
0.37825394 -0.07100223 0.13969225
0.38061032 -0.072914824 0.13954386
0.38619348 -0.071540833 0.13931441
0.34764829 -0.067188479 0.13654311
0.35230529 -0.067708895 0.13855179
0.35730001 -0.069421738 0.1396977
0.38556397 -0.069393247 0.13990229
0.34319615 -0.062288556 0.13699494
0.34616023 -0.063332729 0.139134
0.35015738 -0.064803898 0.13941285
0.33828664 -0.056314066 0.13652736
0.34155488 -0.057525337 0.13809794
0.33756453 -0.052357923 0.13708542
0.34074169 -0.053163618 0.13927563
0.33466658 -0.047601074 0.13578746
0.33667853 -0.047599189 0.13794647
0.33383426 -0.042186778 0.13605458
0.33691069 -0.042463176 0.13832933
0.3335174 -0.037219625 0.13671906
0.33627829 -0.037489761 0.13859488
0.33423665 -0.032774556 0.13657446
0.3364456 -0.032178566 0.13864638
0.33482927 -0.029827094 0.13593037
0.33751217 -0.027582146 0.13725199
0.3402386 -0.026103452 0.13935128
0.33880353 -0.022998504 0.13656376
0.34172302 -0.021650422 0.13809562
0.34302312 -0.018389894 0.13671845
0.34702095 -0.016754605 0.13798861
0.35108149 -0.0161523 0.13972557
0.34787855 -0.013555475 0.13588971
0.35237199 -0.012602977 0.13748994
0.35682932 -0.011615308 0.13941729
0.35374299 -0.0091446722 0.13611218
0.35695919 -0.0080234352 0.13779612
0.36287984 -0.0076948688 0.1376882
0.36704466 -0.0075293686 0.13838616
0.37197137 -0.0067004813 0.13861006
0.37692282 -0.00647886 0.13870035
0.36428273 -0.0048960075 0.13584892
0.36794299 -0.0035973729 0.13581069
0.37297186 -0.0044668801 0.13616127
0.37742668 -0.0043186368 0.1375457
0.35921034 -0.070631109 0.14071038
0.36416617 -0.071194142 0.14007245
0.36736986 -0.071417615 0.14100115
0.37003773 -0.0720364 0.14090461
0.37892437 -0.070529409 0.14072493
0.38173714 -0.071773984 0.14112532
0.38625553 -0.070313752 0.14050981
0.35351905 -0.066032991 0.14059125
0.35745147 -0.067386329 0.14172882
0.36196268 -0.067737669 0.14279547
0.36707145 -0.068624616 0.14200668
0.37300679 -0.067589372 0.14173815
0.37753421 -0.067324728 0.14344141
0.38047388 -0.069114469 0.14341715
0.3866013 -0.069393247 0.14081357
0.34813488 -0.062038567 0.14113016
0.35237348 -0.062605277 0.14289236
0.35734999 -0.064159237 0.14411514
0.37376159 -0.064376086 0.14417592
0.37618473 -0.064413786 0.14497349
0.34372512 -0.056846958 0.14097804
0.34743232 -0.05729723 0.14230032
0.35085666 -0.057382558 0.14378551
0.33904606 -0.050629955 0.14030029
0.343086 -0.052293256 0.14143369
0.34670123 -0.052917879 0.14409682
0.33904609 -0.047598444 0.14030027
0.34218833 -0.047512047 0.14225499
0.34551704 -0.048620444 0.14391436
0.33887872 -0.042062815 0.14148435
0.34171349 -0.042586684 0.14358824
0.33827633 -0.037333511 0.14088507
0.34199011 -0.037037998 0.1429207
0.34527472 -0.035453103 0.14444095
0.3385047 -0.032651681 0.14043903
0.34224355 -0.032479551 0.14248282
0.34629154 -0.031814061 0.144225
0.33904609 -0.02897629 0.14030029
0.34261039 -0.027627824 0.1415827
0.34731615 -0.02738774 0.14386335
0.35135132 -0.025751907 0.1444549
0.34319419 -0.023042683 0.14133768
0.34731966 -0.022368429 0.14310294
0.35137102 -0.021640444 0.14392416
0.35577807 -0.020795235 0.1443505
0.34799638 -0.018795267 0.14135976
0.35306233 -0.017723646 0.14171126
0.35744518 -0.017386811 0.14306702
0.36188069 -0.016152207 0.14408009
0.36754325 -0.015425826 0.14456987
0.37393087 -0.016837085 0.14432462
0.37800658 -0.016219161 0.14467242
0.38114059 -0.015747389 0.14444655
0.35420799 -0.014071202 0.14030913
0.35792503 -0.013229879 0.14105245
0.36227915 -0.01247808 0.14187554
0.36760214 -0.012625122 0.14229511
0.37252644 -0.012327041 0.14268127
0.37656492 -0.013048328 0.14323692
0.38186753 -0.014486304 0.14397591
0.35898775 -0.009442402 0.14051482
0.36936069 -0.0094020739 0.14030981
0.37214658 -0.0088956123 0.1404753
0.37598795 -0.0091250502 0.14080746
0.36280131 -0.065820843 0.14608341
0.3747772 -0.065277301 0.14506811
0.37968871 -0.065395653 0.14538953
0.35436064 -0.061218332 0.14576745
0.35752237 -0.061479382 0.14618997
0.36230445 -0.062748455 0.14724654
0.3673034 -0.062266015 0.14808615
0.37294081 -0.061976552 0.14711522
0.37748554 -0.063023873 0.14621861
0.35332337 -0.05724879 0.14618716
0.35758799 -0.057137899 0.14733204
0.3622255 -0.057455555 0.14848766
0.36777201 -0.05724436 0.1484534
0.37255126 -0.057644635 0.14857945
0.37589428 -0.057566285 0.14893334
0.38172174 -0.056700617 0.14741038
0.38525942 -0.056374751 0.14762115
0.34815982 -0.051409423 0.14614356
0.35241389 -0.052512184 0.14750814
0.35714105 -0.052535694 0.14867584
0.36290121 -0.052431401 0.14844507
0.3679831 -0.053171717 0.14935653
0.37279847 -0.053485841 0.1493935
0.37688607 -0.052886743 0.14958277
0.38230449 -0.052930973 0.14910728
0.34457716 -0.045866147 0.14515924
0.34770742 -0.047546107 0.146578
0.35196638 -0.047836542 0.14877544
0.35680979 -0.049517177 0.14969368
0.36214605 -0.048252542 0.14894636
0.37163192 -0.04829837 0.14975898
0.38303247 -0.04545236 0.14965802
0.38854593 -0.046367604 0.14917718
0.34405068 -0.042548452 0.14528833
0.34722883 -0.042433277 0.14711332
0.35221761 -0.042301025 0.14862339
0.35601363 -0.042172808 0.14917175
0.36104631 -0.043570925 0.14947766
0.37933207 -0.043199111 0.14940222
0.38196796 -0.043079447 0.14972115
0.38874161 -0.044088267 0.14934909
0.34416831 -0.03833523 0.14533249
0.34757537 -0.03738299 0.14626031
0.35247803 -0.037594274 0.14826646
0.35651466 -0.037565116 0.14916824
0.38377479 -0.037747338 0.14897908
0.38651076 -0.037955113 0.14938597
0.34852868 -0.032877363 0.14621492
0.35258693 -0.032799751 0.14815804
0.35704434 -0.032584731 0.14909308
0.36096725 -0.031549133 0.14970766
0.36940613 -0.031399217 0.14966713
0.3491635 -0.029179677 0.14563875
0.35266972 -0.027526338 0.14661138
0.35732549 -0.027466198 0.14837198
0.36228392 -0.027168209 0.14947417
0.36967325 -0.027665673 0.14990181
0.37353039 -0.026823929 0.14951885
0.37528226 -0.026184982 0.1495049
0.35329509 -0.023279928 0.14582971
0.35728684 -0.022604976 0.14718062
0.36257941 -0.022519972 0.14839761
0.36794251 -0.021711033 0.1491074
0.37265629 -0.022831555 0.14879538
0.3769317 -0.021761728 0.14829181
0.38105074 -0.020071985 0.14658603
0.3579405 -0.019902568 0.14591739
0.36287993 -0.018384142 0.14596982
0.36691818 -0.018205706 0.14681602
0.37289748 -0.017443448 0.14541332
0.3772558 -0.018516852 0.14602536
0.38145265 -0.017322281 0.14621308
0.37595537 -0.055751443 0.15009624
0.36664328 -0.051193945 0.15034583
0.37214249 -0.051174499 0.1503596
0.37658486 -0.052456927 0.15028621
0.38181791 -0.05116589 0.15036583
0.38510421 -0.05224609 0.15081245
0.35363433 -0.047095079 0.15045361
0.35642749 -0.047123581 0.15104391
0.36331359 -0.047202334 0.15089628
0.36706468 -0.047477067 0.15140374
0.37313059 -0.047512297 0.1505571
0.37725911 -0.047852512 0.15087844
0.38145396 -0.047738433 0.15072869
0.38513684 -0.045906477 0.15017557
0.35315913 -0.044565175 0.15003619
0.35795099 -0.041993253 0.15058529
0.3630116 -0.042281065 0.15094703
0.36728761 -0.042223345 0.15198933
0.37249401 -0.042470619 0.15248215
0.37844512 -0.040781483 0.15095238
0.38240704 -0.041897863 0.15068923
0.38560173 -0.043640148 0.15036213
0.35882103 -0.037510328 0.15086029
0.3626869 -0.037494659 0.15181136
0.36724314 -0.037729207 0.15246071
0.37255287 -0.037537619 0.15198785
0.37735531 -0.037063729 0.15123096
0.38179573 -0.037016138 0.15113862
0.38585049 -0.037739888 0.15013698
0.35889009 -0.034304172 0.15050703
0.36307102 -0.033125244 0.15127805
0.36657947 -0.032781463 0.15162082
0.37230915 -0.032510031 0.15077977
0.37698269 -0.032447536 0.15147795
0.38276768 -0.03462597 0.15142196
0.36318299 -0.029293349 0.15041184
0.3665624 -0.027306922 0.15042266
0.37197623 -0.028220749 0.15037195
0.37652165 -0.027749758 0.15048274
0.36648765 -0.023445901 0.15014577
0.37595537 -0.024393074 0.15009624
