# .PCD v0.7 - Point Cloud Data file format
VERSION 0.7
FIELDS x y z
SIZE 4 4 4
TYPE F F F
COUNT 1 1 1
WIDTH 386
HEIGHT 1
VIEWPOINT 0 0 0 1 0 0 0
POINTS 386
DATA ascii
0.42374372 -0.055835601 0.049653739
0.42524475 -0.052054539 0.049641311
0.42229509 -0.081925556 0.053705424
0.42328167 -0.078931272 0.054072909
0.42610499 -0.076645568 0.054390099
0.4290351 -0.072630785 0.054302085
0.42944214 -0.069380105 0.054659635
0.43269917 -0.067114219 0.054415025
0.42455778 -0.060711622 0.050368845
0.42577887 -0.060711622 0.05144155
0.43433028 -0.06134589 0.054295033
0.43587917 -0.062728614 0.054657467
0.4236418 -0.057673682 0.051338919
0.4270595 -0.056673575 0.052034151
0.4324002 -0.056919642 0.053870063
0.42455778 -0.052765518 0.050368845
0.42728665 -0.052767601 0.052512556
0.43209898 -0.052222479 0.054141387
0.43549901 -0.050998155 0.054656237
0.42294583 -0.047213025 0.050646804
0.42711785 -0.047608253 0.051793858
0.43250036 -0.047813118 0.053186636
0.43549901 -0.047726434 0.054656237
0.41155618 -0.040194992 0.05092679
0.41658998 -0.040524326 0.050468307
0.42287675 -0.042214762 0.050939843
0.42755768 -0.042378586 0.052061349
0.43258008 -0.04227905 0.053755857
0.41135564 -0.037792489 0.050750606
0.41690031 -0.038149837 0.050463647
0.42309842 -0.037354361 0.05174892
0.42784905 -0.037537884 0.05295299
0.43236265 -0.03738533 0.05398076
0.42318383 -0.034199473 0.051823955
0.42775092 -0.032362368 0.053469758
0.43143076 -0.03383594 0.054336119
0.42839545 -0.027663046 0.053740196
0.42781401 -0.024412362 0.053229392
0.42770615 -0.085744843 0.057127826
0.43282586 -0.086473703 0.058164597
0.43514052 -0.086175278 0.059665561
0.42314157 -0.082617767 0.055780023
0.42719194 -0.08236476 0.057196919
0.43129808 -0.082261845 0.058952127
0.43514055 -0.082744002 0.059665561
0.42423621 -0.07944949 0.055410624
0.42763233 -0.077727675 0.05678276
0.43129811 -0.077401608 0.058952115
0.43514052 -0.077506803 0.059665561
0.43208608 -0.072720543 0.056777529
0.4371638 -0.072464369 0.059022903
0.43325171 -0.068257496 0.05582815
0.43769056 -0.067365363 0.05771539
0.44180232 -0.06563814 0.059128713
0.43479887 -0.060787894 0.055372179
0.43797231 -0.062389839 0.056413051
0.44180441 -0.062594406 0.05850938
0.43454608 -0.057155721 0.055371948
0.43774223 -0.057412133 0.057530053
0.44139224 -0.058273714 0.059537504
0.43441963 -0.053434633 0.055371828
0.4376052 -0.052627087 0.057171989
0.44082463 -0.052634016 0.05933468
0.43792576 -0.04787603 0.056424998
0.44135615 -0.047319442 0.058803324
0.43479887 -0.042277951 0.055372179
0.43771321 -0.042184152 0.056934133
0.44204241 -0.042557929 0.059213512
0.43479887 -0.037378263 0.055372179
0.43760577 -0.037372302 0.057172459
0.44082466 -0.037365988 0.05933468
0.43318731 -0.031804983 0.055835694
0.43786076 -0.032616604 0.057335991
0.4408246 -0.03245841 0.059334684
0.42832285 -0.025019016 0.056338459
0.43211249 -0.027410403 0.056642491
0.43636712 -0.028001303 0.058900133
0.42872402 -0.023190288 0.056957114
0.43182349 -0.023915291 0.058415446
0.43514052 -0.024954142 0.059665561
0.43454376 -0.087122083 0.061803401
0.43772498 -0.08662279 0.062140714
0.44043189 -0.087258846 0.064313918
0.43315277 -0.082107559 0.060581438
0.43772474 -0.08239492 0.061669528
0.44129038 -0.082270235 0.06411735
0.4329209 -0.077401601 0.060377777
0.437751 -0.077549368 0.06087739
0.44244382 -0.077624835 0.063086428
0.43927106 -0.074531987 0.060632043
0.44259551 -0.072766393 0.062173795
0.44574037 -0.072160386 0.064413629
0.44289485 -0.06778536 0.061419468
0.44618198 -0.067226849 0.063791439
0.44399527 -0.062477224 0.060788959
0.44680452 -0.062359605 0.063035026
0.45005068 -0.060864162 0.064777464
0.44329771 -0.057097416 0.060841657
0.44743502 -0.057664741 0.062582031
0.45005068 -0.057581928 0.064777464
0.44311076 -0.05263811 0.060899269
0.44733462 -0.052654136 0.062857367
0.45041129 -0.052663822 0.064428732
0.4434537 -0.048384022 0.060712494
0.44769517 -0.047614969 0.062165905
0.45113781 -0.047496069 0.06440144
0.44399527 -0.040630698 0.060788959
0.44752598 -0.042382021 0.062179226
0.45066869 -0.042628035 0.064433031
0.44329575 -0.037255649 0.061327979
0.44654661 -0.03761648 0.063828863
0.45005068 -0.038982563 0.064777464
0.44343489 -0.032465525 0.062106855
0.44568908 -0.032838736 0.064717159
0.43812847 -0.026984328 0.060959376
0.44266763 -0.027583659 0.062484421
0.44541261 -0.027900442 0.064429879
0.43318191 -0.022774111 0.061091121
0.43793407 -0.02278172 0.061920024
0.44271269 -0.022812488 0.063401915
0.44543299 -0.022679193 0.064714015
0.43940717 -0.019453935 0.060751617
0.4432635 -0.018851489 0.062275775
0.44543299 -0.018323913 0.064714015
0.44249573 -0.091118276 0.068789005
0.44961581 -0.092287406 0.069719672
0.45088643 -0.093089551 0.069504723
0.44253474 -0.087726489 0.067545578
0.44621173 -0.086500354 0.069391362
0.4436329 -0.082608081 0.066926278
0.44661176 -0.08242286 0.06885545
0.44459182 -0.077916034 0.065838657
0.44668743 -0.077359982 0.067851849
0.44813925 -0.073000118 0.06681408
0.45111305 -0.072023869 0.069038309
0.4486804 -0.06752795 0.066605531
0.45211378 -0.067035548 0.068985648
0.45580441 -0.065787524 0.069831997
0.44842473 -0.06321802 0.065744996
0.45250469 -0.062488332 0.06770964
0.45580441 -0.062505282 0.069831997
0.4527576 -0.057577632 0.067465998
0.45193511 -0.052647956 0.067497782
0.45327967 -0.047689475 0.067281336
0.45580441 -0.046094082 0.069831997
0.45304853 -0.042189762 0.067319229
0.45580444 -0.042629495 0.069831997
0.44856903 -0.03659768 0.065605506
0.45235321 -0.037351556 0.06785392
0.45580441 -0.038982563 0.069831997
0.44775921 -0.032042827 0.066690974
0.45236421 -0.032888174 0.068322353
0.44765058 -0.027696198 0.067509167
0.45189899 -0.027789658 0.069253385
0.44701883 -0.02248821 0.067105539
0.4510662 -0.020462101 0.068331659
0.447887 -0.018401686 0.066869855
0.4510662 -0.018280957 0.068331659
0.44428083 -0.091442294 0.070357203
0.44724736 -0.091206178 0.070744798
0.45289049 -0.092084132 0.072208099
0.45533264 -0.090113267 0.074741811
0.44428083 -0.088742167 0.070357203
0.44773108 -0.08784949 0.07105884
0.45245135 -0.087448992 0.072841108
0.45546284 -0.087095782 0.074323714
0.44837919 -0.082241237 0.071010202
0.45206276 -0.082306795 0.072958261
0.45613649 -0.082811177 0.074219204
0.4488655 -0.078072406 0.071117595
0.45251274 -0.077467062 0.072856121
0.45617655 -0.077471055 0.074447848
0.45298135 -0.073100396 0.071555302
0.45605648 -0.072633967 0.073880099
0.45393386 -0.068992615 0.070850834
0.4574427 -0.067186005 0.072982565
0.45797655 -0.062494226 0.072272561
0.46073616 -0.062505282 0.07416442
0.45434353 -0.055905737 0.071210712
0.45720425 -0.05776491 0.072993904
0.45393386 -0.052634016 0.070850834
0.45543596 -0.053179305 0.072170392
0.45393386 -0.049362294 0.070850834
0.45726982 -0.046470579 0.072245561
0.46114713 -0.046094082 0.074525461
0.45786044 -0.042267859 0.072668612
0.46128413 -0.041535415 0.07464581
0.45795375 -0.037287768 0.072459571
0.45393386 -0.030822549 0.070850834
0.45754424 -0.032611687 0.072816156
0.46155813 -0.03241808 0.074886501
0.45379731 -0.028823165 0.07073088
0.4561874 -0.02768014 0.073200256
0.45402727 -0.021653784 0.074482396
0.45569599 -0.023878254 0.072731584
0.45307881 -0.095697016 0.077895895
0.45413443 -0.092873737 0.077198289
0.45571131 -0.091280699 0.076849185
0.45698065 -0.087281734 0.077224791
0.45839235 -0.082498617 0.077545397
0.45791316 -0.077592492 0.077507906
0.45847964 -0.072910123 0.076945901
0.46099657 -0.071041644 0.078766637
0.45889032 -0.069245532 0.075870477
0.46156868 -0.067254156 0.077946022
0.46255955 -0.062465541 0.077651896
0.45925948 -0.055905737 0.075529277
0.46247402 -0.057551414 0.077731974
0.46420333 -0.052524298 0.078131713
0.46256611 -0.047406189 0.07812085
0.46248999 -0.042183273 0.077568561
0.46262163 -0.0373578 0.077595457
0.45925948 -0.030277262 0.075529277
0.46235046 -0.032454718 0.077969268
0.45859495 -0.027249694 0.076143436
0.46141684 -0.027913768 0.078422755
0.45438001 -0.021872368 0.076123342
0.45712242 -0.022863846 0.077504978
0.46060365 -0.024600845 0.078706689
0.45368981 -0.016977573 0.077624485
0.45618483 -0.018848818 0.07781978
0.45247072 -0.014268453 0.078882962
0.4539144 -0.095390514 0.081925921
0.45661077 -0.095748775 0.08429464
0.45441517 -0.093161732 0.081626393
0.45686898 -0.092472017 0.083727509
0.4582212 -0.08804433 0.082159862
0.46037632 -0.085633501 0.081834644
0.45936847 -0.082965933 0.081709817
0.46084547 -0.081913613 0.08234188
0.45915523 -0.077506796 0.080761939
0.46249086 -0.077540331 0.082827002
0.46519813 -0.077016741 0.084739447
0.45915523 -0.074256122 0.080761939
0.46273056 -0.072935417 0.082148187
0.46564254 -0.072271787 0.08419811
0.46377614 -0.067554422 0.081442416
0.465886 -0.066746868 0.083763137
0.46443409 -0.062427476 0.081073329
0.46677619 -0.062423658 0.083330452
0.46499476 -0.057541598 0.080567598
0.46733209 -0.057538226 0.082833834
0.46480787 -0.052631605 0.080736175
0.46664441 -0.052623831 0.083126016
0.4636907 -0.0476202 0.081479073
0.46629137 -0.04777826 0.083458029
0.46412733 -0.042684507 0.080803841
0.46647772 -0.042327445 0.083201431
0.46499476 -0.037365988 0.080567598
0.4662914 -0.037378915 0.083037704
0.46499476 -0.033003695 0.080567598
0.46619776 -0.033024732 0.083121836
0.454496 -0.015885903 0.080662116
0.45564073 -0.017458642 0.08033663
0.45634305 -0.09736418 0.088369556
0.45890749 -0.092913769 0.086866841
0.46109271 -0.091753513 0.089119256
0.45982197 -0.087523602 0.086671993
0.46109268 -0.087454334 0.089119256
0.45976168 -0.084357947 0.085287899
0.46206373 -0.081967831 0.087476447
0.46397179 -0.079007871 0.087988071
0.46635473 -0.076955527 0.087308399
0.46800217 -0.072631873 0.087202698
0.47049806 -0.070504867 0.089395329
0.46821028 -0.06772615 0.086614974
0.47054726 -0.066988558 0.088994853
0.46928045 -0.062410276 0.086162671
0.47109213 -0.06227155 0.08838141
0.46956429 -0.057521433 0.085912824
0.47171199 -0.057326812 0.087956175
0.46871424 -0.05261245 0.086231053
0.47187537 -0.052619606 0.088192679
0.46837118 -0.047377307 0.086694963
0.47130379 -0.04834092 0.088486813
0.46852651 -0.042044029 0.087145716
0.47031516 -0.04290653 0.089044504
0.46841225 -0.037430771 0.087492906
0.47049806 -0.036860153 0.089395329
0.46812257 -0.032778352 0.088095002
0.46618924 -0.029339228 0.089603245
0.45775461 -0.098167203 0.091384232
0.46130413 -0.097328991 0.093298227
0.45889592 -0.094337404 0.090650231
0.4631263 -0.092841558 0.09218128
0.46557271 -0.092405021 0.094164096
0.46322238 -0.087390341 0.092214763
0.46558052 -0.087385081 0.094392776
0.46376714 -0.082995899 0.091025017
0.46619046 -0.082279086 0.093153857
0.46467564 -0.079987764 0.090935767
0.46691698 -0.077749148 0.092673182
0.46864778 -0.073813669 0.092428587
0.47039253 -0.07168968 0.092896439
0.47191516 -0.066934831 0.092668459
0.47258034 -0.062563762 0.092399038
0.47502935 -0.063962303 0.094707012
0.47269607 -0.057465017 0.092324473
0.47502935 -0.055293821 0.094707012
0.47380626 -0.052597575 0.092218339
0.47502935 -0.052584924 0.094707012
0.47264364 -0.047426753 0.091840632
0.47175545 -0.04220314 0.092274621
0.47502935 -0.041207541 0.094707012
0.46902922 -0.038519681 0.092098117
0.47177312 -0.03904042 0.091846466
0.46700066 -0.030419283 0.090316087
0.47014499 -0.030913722 0.090416223
0.46700066 -0.029339228 0.090316087
0.4648625 -0.10008097 0.096424162
0.465666 -0.10008097 0.09713003
0.46369043 -0.0974916 0.096440352
0.4660477 -0.096379243 0.096799806
0.46678972 -0.091140717 0.095455036
0.46779627 -0.086513191 0.097078688
0.46837786 -0.082869358 0.096780129
0.47081405 -0.08167199 0.098768473
0.46895838 -0.078237504 0.095807269
0.47160339 -0.077685975 0.09816245
0.46952838 -0.074605033 0.09519878
0.47192886 -0.072361648 0.097512312
0.47338033 -0.067937568 0.096938342
0.47555876 -0.067105159 0.099165283
0.47376591 -0.062638171 0.096370086
0.47576326 -0.062657952 0.098394126
0.4736273 -0.057870638 0.096137404
0.47577155 -0.057416234 0.098287299
0.47692925 -0.052576065 0.097307764
0.47318456 -0.047699787 0.096280955
0.47657645 -0.047597442 0.098474644
0.47233358 -0.043517228 0.096831143
0.4765988 -0.042586938 0.096569739
0.47430348 -0.037979659 0.096731424
0.47511491 -0.037979655 0.097444236
0.47155482 -0.086530581 0.10135251
0.47289839 -0.082432933 0.10166211
0.47392735 -0.077607177 0.10250179
0.47413111 -0.073078528 0.10093626
0.47581747 -0.071927533 0.10315076
0.47631505 -0.067665085 0.10249175
0.47693872 -0.06275256 0.10217454
0.47719562 -0.057274293 0.10212439
0.47785932 -0.052413099 0.10231255
0.47865212 -0.048895132 0.10143899
0.48001432 -0.048774052 0.10307941
0.47430605 -0.081516303 0.10643147
0.47536051 -0.080682531 0.10897405
0.47426164 -0.079346925 0.10601216
0.47613263 -0.077261135 0.10765573
0.47691873 -0.07254523 0.10729553
0.47697708 -0.067333087 0.10716892
0.47788915 -0.062515683 0.10720229
0.47817564 -0.057398625 0.10745393
0.47841373 -0.052675903 0.10714548
0.48091289 -0.052179553 0.10892683
0.47926077 -0.049836572 0.10507953
0.48289439 -0.049836572 0.10827158
0.47461116 -0.08630152 0.11297449
0.47567201 -0.086125016 0.11390641
0.47339123 -0.083230399 0.11190283
0.47559628 -0.081984922 0.1126752
0.47685617 -0.077563092 0.11256479
0.47461542 -0.070924349 0.11364378
0.47665882 -0.072735719 0.11197811
0.47461542 -0.06986621 0.11364378
0.4768315 -0.06711024 0.11234601
0.47866035 -0.063108481 0.1117897
0.48126763 -0.061518565 0.11370256
0.47921336 -0.057627507 0.11080583
0.48125988 -0.057276446 0.11230784
0.48123258 -0.052624933 0.11153096
0.47660545 -0.085704513 0.11605749
0.47462946 -0.081819996 0.1183148
0.47581387 -0.082353972 0.11695927
0.4766053 -0.077247739 0.11605734
0.47573534 -0.07255736 0.11788865
0.47711122 -0.067904748 0.11710684
0.47938463 -0.064559311 0.11849891
0.48133549 -0.0629998 0.11682457
0.47751695 -0.071766511 0.12262617
0.47823203 -0.067731977 0.12228981
0.48015064 -0.068630554 0.1244961
0.47897637 -0.064462006 0.12213348
0.47934905 -0.070688084 0.12512299
0.47934905 -0.065969869 0.12512299
0.48133415 -0.068630546 0.12553582
