# .PCD v0.7 - Point Cloud Data file format
VERSION 0.7
FIELDS x y z
SIZE 4 4 4
TYPE F F F
COUNT 1 1 1
WIDTH 306
HEIGHT 1
VIEWPOINT 0 0 0 1 0 0 0
POINTS 306
DATA ascii
0.41516611 -0.08130452 0.05409801
0.42706436 -0.07705006 0.050352395
0.42883161 -0.071547225 0.054123305
0.42928016 -0.067365959 0.053851817
0.43013701 -0.06670627 0.053939044
0.43095237 -0.063992985 0.054655343
0.43554127 -0.060889587 0.050700232
0.43398085 -0.059699073 0.054653585
0.43619272 -0.057403669 0.052381717
0.43783346 -0.052513544 0.05271386
0.4391003 -0.047685329 0.051756255
0.44016632 -0.047741048 0.054319561
0.43888086 -0.042599685 0.052469283
0.44006929 -0.04390417 0.054677993
0.43963248 -0.038593616 0.052519482
0.4404431 -0.036883239 0.053083707
0.43964934 -0.031263951 0.051979691
0.44031426 -0.032988891 0.053562131
0.43883789 -0.027284887 0.052360199
0.44006929 -0.028014585 0.054677993
0.43743423 -0.023807837 0.053123739
0.43390054 -0.015389416 0.05369566
0.43525407 -0.016006883 0.051778972
0.43323666 -0.013462971 0.052136373
0.41430554 -0.083424993 0.058133841
0.41566747 -0.081185296 0.057200562
0.41734377 -0.078956969 0.057584114
0.42009059 -0.077513814 0.059755117
0.42866594 -0.072739139 0.057172287
0.43060276 -0.070412159 0.057343036
0.43116888 -0.067082554 0.057326078
0.43625233 -0.066163622 0.059311226
0.43265542 -0.06282033 0.05748247
0.43575665 -0.062361836 0.059042137
0.43468204 -0.059137344 0.056267932
0.43608946 -0.05718711 0.057932142
0.4382419 -0.053184815 0.056305207
0.44092864 -0.052197583 0.057429463
0.44088921 -0.047914919 0.057468787
0.43942344 -0.041173793 0.056107208
0.44044799 -0.042543367 0.057783671
0.43948174 -0.037899882 0.056823909
0.44050232 -0.037011813 0.058325477
0.44062638 -0.032695472 0.056831192
0.43915719 -0.02617994 0.057537071
0.4405883 -0.028365254 0.05703536
0.43769732 -0.02364598 0.057386037
0.43140045 -0.012769727 0.0575209
0.41493997 -0.083124481 0.060554683
0.41604874 -0.081470147 0.062970616
0.41849375 -0.078769639 0.063343823
0.4219397 -0.076650396 0.062266879
0.42760608 -0.072789863 0.062727138
0.43081185 -0.070794463 0.062518232
0.43242288 -0.068337157 0.06215876
0.43817434 -0.066163614 0.060999617
0.43454376 -0.060660776 0.061803401
0.43643343 -0.06176693 0.062280312
0.43458563 -0.058707561 0.062372625
0.43732503 -0.057032738 0.06283246
0.44002488 -0.055835601 0.06395635
0.43912655 -0.053788405 0.062102359
0.44046423 -0.052234255 0.063011244
0.44053105 -0.047249403 0.062689647
0.44068322 -0.04228453 0.062538125
0.43921083 -0.036873303 0.063241214
0.44054711 -0.038663894 0.062418547
0.43921083 -0.033622622 0.063241214
0.44032726 -0.033785682 0.062890902
0.43732655 -0.022452839 0.062473275
0.44063219 -0.023258667 0.061827779
0.43393022 -0.01658597 0.063778676
0.43650553 -0.019646218 0.064414173
0.4318198 -0.012516976 0.062933922
0.43202305 -0.0089944266 0.063582256
0.41872039 -0.080887228 0.066537783
0.42219597 -0.080418222 0.068259977
0.41941595 -0.079360947 0.065817773
0.42253205 -0.077657297 0.067455597
0.42629206 -0.075281821 0.067865133
0.43121013 -0.075431734 0.068192355
0.42886731 -0.072910443 0.067021579
0.43072146 -0.072246313 0.067171484
0.43222383 -0.069103956 0.066420764
0.4379364 -0.06098149 0.066780351
0.4385424 -0.057830773 0.066735879
0.4385677 -0.052538458 0.067667715
0.43894559 -0.048553046 0.068199337
0.44060397 -0.045970824 0.067925833
0.44190493 -0.04229746 0.067404903
0.43910205 -0.036777962 0.067138821
0.44085497 -0.038117506 0.067680463
0.43850082 -0.033707537 0.068702355
0.43892547 -0.021562846 0.065652616
0.44022372 -0.02123883 0.066793114
0.43373227 -0.016745036 0.067745864
0.43785748 -0.019287368 0.065601818
0.43264353 -0.012247412 0.067630157
0.43284968 -0.009126584 0.067303307
0.42457888 -0.077775061 0.070353299
0.42600861 -0.077563606 0.071609288
0.42867985 -0.07233759 0.073216438
0.42948967 -0.068225898 0.07278166
0.43005669 -0.066180266 0.07383436
0.43146864 -0.063447803 0.0735958
0.43612504 -0.060878363 0.074107222
0.43758494 -0.057289299 0.073126964
0.43886545 -0.052412357 0.072465435
0.4397535 -0.049115077 0.071260631
0.44084352 -0.047235068 0.072440043
0.43995339 -0.040721871 0.074542075
0.4420619 -0.04271201 0.071569234
0.43967351 -0.037067041 0.072432719
0.4406746 -0.038572282 0.073844582
0.43855575 -0.032509454 0.07242687
0.43710598 -0.029166088 0.073593594
0.43459144 -0.02158599 0.073824823
0.43423358 -0.017576944 0.072105475
0.43382096 -0.013137283 0.071714595
0.43361676 -0.0092293732 0.07030651
0.41888922 -0.081868216 0.079553053
0.4204613 -0.080683552 0.076497212
0.42244691 -0.07780569 0.078653514
0.42357549 -0.074782118 0.078789294
0.42782933 -0.072640717 0.077911809
0.43111253 -0.071153313 0.079198793
0.42942566 -0.069276661 0.075942099
0.43167225 -0.067456566 0.077276856
0.43315211 -0.063521773 0.077028967
0.43663019 -0.061216578 0.076281384
0.43873817 -0.056906011 0.07746771
0.43927199 -0.054068677 0.075940028
0.44035691 -0.052231189 0.07784386
0.43938887 -0.046064273 0.078039259
0.44032118 -0.047797993 0.077693611
0.44040313 -0.042335853 0.077798903
0.43923217 -0.035923872 0.075239509
0.44088563 -0.037501723 0.077553324
0.43894434 -0.032749712 0.076888226
0.44074282 -0.032754008 0.07874462
0.43467373 -0.026405904 0.075228214
0.43773261 -0.027093127 0.076901212
0.44037884 -0.027702382 0.078742549
0.43420756 -0.022042152 0.077037141
0.43618 -0.02236676 0.078189671
0.43432066 -0.01723632 0.077047721
0.43552327 -0.018642727 0.07686194
0.42696679 -0.011449093 0.079106376
0.43294871 -0.013743622 0.075931266
0.43547195 -0.014718182 0.075929463
0.42428616 -0.0073173614 0.078082561
0.42522985 -0.0078407321 0.07891155
0.41863436 -0.082765929 0.082244813
0.42108592 -0.081236891 0.08230678
0.42333376 -0.078657061 0.081955768
0.42570361 -0.076149285 0.081324294
0.42756492 -0.073642112 0.082027681
0.43169069 -0.071649499 0.082368836
0.43350381 -0.067659736 0.082368322
0.43517593 -0.067055181 0.084986836
0.43425313 -0.063439317 0.081513986
0.43594077 -0.061822612 0.083231479
0.43820029 -0.057090852 0.083019949
0.4396697 -0.053986713 0.083610229
0.44060341 -0.052101791 0.082433902
0.44059673 -0.047712356 0.082388856
0.44137055 -0.042346161 0.081998512
0.44139895 -0.037619583 0.082104206
0.44208232 -0.032604761 0.081810422
0.4392167 -0.02725314 0.083212279
0.44105905 -0.02853094 0.080837585
0.43721369 -0.022680286 0.081951864
0.43195409 -0.017233633 0.084019944
0.42742193 -0.01150966 0.082047269
0.43156454 -0.013718869 0.082213596
0.42418474 -0.0067074522 0.082366876
0.4258419 -0.0086970599 0.082111321
0.41905171 -0.083145522 0.085463777
0.42165399 -0.082104094 0.08794944
0.42410788 -0.07837081 0.086993806
0.42594093 -0.076223068 0.088409968
0.42786533 -0.07398881 0.087549269
0.43182698 -0.07125967 0.087221183
0.43375188 -0.069577791 0.087063491
0.43688112 -0.066940546 0.087267779
0.43759125 -0.062465079 0.087411188
0.43837395 -0.05789233 0.08738663
0.4393298 -0.053331472 0.088255599
0.44055134 -0.051645484 0.086248219
0.43991011 -0.049726114 0.08914569
0.44086146 -0.047325026 0.087241001
0.44127485 -0.042363517 0.087150015
0.43986484 -0.035640534 0.088041082
0.44099313 -0.037778214 0.087720193
0.43948719 -0.033089466 0.088108651
0.44052738 -0.033917181 0.08569473
0.43758619 -0.027612397 0.088128068
0.43431205 -0.020663735 0.086890064
0.43649054 -0.022694472 0.087853007
0.43333486 -0.0172063 0.087572828
0.43535164 -0.019397829 0.089134395
0.42832363 -0.011190183 0.086509869
0.43216452 -0.012556381 0.087665543
0.41905171 -0.0053080432 0.085463777
0.4232271 -0.0054660602 0.087135151
0.4270871 -0.0074675647 0.087325208
0.41905171 -0.0042770803 0.085463777
0.42250124 -0.0034956599 0.087638348
0.42391619 -0.08173041 0.091334283
0.42446646 -0.079042904 0.092083953
0.42688984 -0.076699637 0.09279301
0.42924848 -0.073870562 0.091493033
0.43106246 -0.072187841 0.092354558
0.43281972 -0.069392376 0.092234403
0.43850875 -0.061092418 0.092391811
0.43888357 -0.057539836 0.09223704
0.44010752 -0.057518803 0.094643354
0.43898192 -0.053437922 0.091943175
0.44008201 -0.05225062 0.093881473
0.43996343 -0.049193978 0.090523601
0.44050407 -0.047614522 0.092862047
0.44196478 -0.042202074 0.091985919
0.44178697 -0.037350696 0.0924583
0.43883052 -0.032310009 0.091706477
0.44008482 -0.032470684 0.093957901
0.4385047 -0.02762351 0.092267238
0.44010752 -0.028829886 0.094643354
0.43680263 -0.022592708 0.092472106
0.433667 -0.017830759 0.092712522
0.43554905 -0.019569656 0.094632059
0.43220383 -0.012270859 0.090861455
0.42350912 -0.005578056 0.094703704
0.42350912 -0.0045541078 0.094703704
0.42500487 -0.0034591518 0.094686627
0.41324189 -0.086495489 0.099327549
0.4143315 -0.08482258 0.098620892
0.41734859 -0.083363719 0.099052943
0.42240867 -0.080952011 0.09786322
0.42585573 -0.080265671 0.098096222
0.42427838 -0.079302214 0.095379472
0.42687115 -0.07725013 0.097727247
0.430399 -0.075771004 0.099425256
0.42938787 -0.07275264 0.096873224
0.4309665 -0.071862772 0.098497637
0.43166709 -0.069196656 0.097544394
0.43940932 -0.065274671 0.096692085
0.44058102 -0.065794535 0.097721383
0.43846518 -0.061800227 0.098133378
0.4410077 -0.062126558 0.099427372
0.43944809 -0.059012644 0.09805727
0.44045725 -0.057368487 0.097878926
0.44095093 -0.052804094 0.097380839
0.44065404 -0.047600366 0.097652517
0.44109026 -0.042456064 0.097799018
0.44113311 -0.037115734 0.097592086
0.44037482 -0.032518242 0.097207516
0.4392831 -0.026932603 0.097646073
0.44018286 -0.029225994 0.097149834
0.43783194 -0.022603674 0.097271368
0.42955077 -0.015667612 0.096017987
0.43372604 -0.016425855 0.096912824
0.43662399 -0.018673971 0.097419351
0.42820838 -0.011828959 0.097603224
0.43138865 -0.013717826 0.09799552
0.42329127 -0.0079095997 0.095695511
0.42646036 -0.0077168308 0.097407266
0.42427838 -0.0045541078 0.095379472
0.4264957 -0.0039773597 0.09717942
0.41366121 -0.087458991 0.10135974
0.41744038 -0.087689243 0.10242948
0.41855469 -0.084435098 0.1011477
0.42247039 -0.082269207 0.10018027
0.42815956 -0.077199094 0.10012013
0.4318274 -0.075573906 0.10134562
0.43296474 -0.072387747 0.10089627
0.43343434 -0.069165759 0.10009514
0.43912926 -0.065172106 0.10043927
0.44178751 -0.06524048 0.10011241
0.43874067 -0.063620403 0.10009789
0.44218403 -0.061498698 0.10072692
0.44198117 -0.057327926 0.10187975
0.442119 -0.052763443 0.10258655
0.44205856 -0.047586974 0.10263988
0.44244406 -0.042496573 0.10240837
0.44220072 -0.037029091 0.10264941
0.43951786 -0.031551935 0.10078064
0.44192624 -0.032067385 0.10275868
0.43939862 -0.02690677 0.1011196
0.44177166 -0.027621139 0.10276057
0.43912393 -0.022509176 0.10132193
0.44090182 -0.023135787 0.10310565
0.43422234 -0.015717585 0.10145294
0.43789175 -0.017544623 0.10262864
0.44092941 -0.018060803 0.10451646
0.42942879 -0.011078263 0.10079136
0.43243182 -0.012774775 0.10162704
0.43699637 -0.014474294 0.10362361
0.42843479 -0.0074670813 0.10215592
0.43074664 -0.0080961343 0.10372382
0.42731604 -0.0035943042 0.10344617
0.43051738 -0.0042525344 0.10485348
0.44342804 -0.038803719 0.10554671
0.44404006 -0.032908842 0.10555194
0.4312827 -0.0062899087 0.10552579
0.42815012 -0.0016986592 0.10565782
0.4312827 -0.0042525344 0.10552579
