# .PCD v0.7 - Point Cloud Data file format
VERSION 0.7
FIELDS x y z
SIZE 4 4 4
TYPE F F F
COUNT 1 1 1
WIDTH 148
HEIGHT 1
VIEWPOINT 0 0 0 1 0 0 0
POINTS 148
DATA ascii
0.36351109 -0.055539727 0.057303965
0.35969773 -0.051300433 0.056749254
0.36215121 -0.053167339 0.057244677
0.35842863 -0.047218259 0.057645753
0.36004758 -0.048997603 0.057588995
0.3544699 -0.041807186 0.057252724
0.35647932 -0.042730186 0.058827829
0.35441822 -0.039532233 0.0566369
0.35596439 -0.039125457 0.056930371
0.36061046 -0.055896968 0.06473884
0.3589071 -0.050450895 0.0629097
0.36052901 -0.052562788 0.063668966
0.35885182 -0.047535323 0.063115589
0.35754663 -0.042709872 0.062130541
0.35662839 -0.03956116 0.062571719
0.3590799 -0.032359783 0.062895119
0.36061046 -0.031626455 0.06473884
0.35975763 -0.02961801 0.062658519
0.36067754 -0.02959989 0.062579267
0.36060226 -0.055851974 0.06783741
0.35997221 -0.050438844 0.0655092
0.36065257 -0.052630104 0.067540333
0.35870883 -0.046805859 0.068059742
0.36012596 -0.048945002 0.067640826
0.35666683 -0.042475827 0.067739576
0.35751826 -0.037541471 0.067867443
0.35929954 -0.034299411 0.065805614
0.36103493 -0.033122044 0.065777242
0.36091262 -0.056073088 0.073123708
0.35865945 -0.051837482 0.073673345
0.3604846 -0.054062322 0.072947368
0.35798022 -0.047806431 0.073076695
0.35736772 -0.042121906 0.071799167
0.35840392 -0.039003052 0.071618661
0.36181822 -0.056222215 0.077039823
0.35905686 -0.050996501 0.077276178
0.36076543 -0.053473949 0.077520035
0.35674474 -0.047768645 0.078076221
0.35709751 -0.042630885 0.077468872
0.3584682 -0.039258715 0.076167487
0.36142072 -0.056221973 0.082512356
0.35907018 -0.051056989 0.083055839
0.36054912 -0.053496029 0.082559161
0.35684019 -0.0472854 0.083167315
0.35676971 -0.042541638 0.083105445
0.35782272 -0.037932124 0.082699455
0.35829952 -0.034638021 0.083007388
0.36351302 -0.027837673 0.083261378
0.36205545 -0.055533249 0.08745306
0.35970086 -0.051003419 0.08690051
0.36078984 -0.052991614 0.087645411
0.35866928 -0.047396399 0.087227501
0.35788867 -0.042656537 0.087217607
0.35845476 -0.037814841 0.087602787
0.35870144 -0.033593517 0.087464519
0.36226624 -0.030535001 0.086159304
0.36191079 -0.028774304 0.089041553
0.37744614 -0.060370013 0.094613925
0.36334753 -0.055690076 0.09243346
0.36790252 -0.056844298 0.093772747
0.3726576 -0.057068434 0.094326511
0.37793368 -0.057003073 0.094598539
0.38123223 -0.05669824 0.094834089
0.35944375 -0.050236333 0.092997223
0.36223984 -0.052075237 0.092525117
0.36660919 -0.05298987 0.094300382
0.3730838 -0.052591626 0.094236098
0.37774357 -0.052139532 0.094364993
0.38217878 -0.051669098 0.09477824
0.35747895 -0.047172256 0.093172684
0.36242214 -0.048935793 0.09394981
0.36574495 -0.047393303 0.094539493
0.37485397 -0.0474196 0.094555169
0.37756121 -0.047638018 0.094081141
0.38201085 -0.047603112 0.094482817
0.38656968 -0.046962634 0.094531491
0.35709441 -0.042416122 0.093669429
0.36158955 -0.041191764 0.09488225
0.36574495 -0.044521343 0.094539493
0.37485397 -0.044516083 0.094555169
0.37803847 -0.042569004 0.094690591
0.38205653 -0.042722717 0.094670847
0.3862119 -0.042547528 0.094549932
0.39218172 -0.041869428 0.094248191
0.35863486 -0.037435848 0.093194142
0.3609935 -0.037859552 0.094358623
0.37981546 -0.037377387 0.094920605
0.38265255 -0.037675455 0.09475071
0.38629118 -0.037859656 0.094545648
0.39266098 -0.03956116 0.094225526
0.35908282 -0.033399947 0.091644861
0.36138606 -0.031750649 0.092992157
0.36538535 -0.030161541 0.094223589
0.37981546 -0.034295902 0.094920605
0.38170537 -0.034432955 0.094806038
0.36357984 -0.027668536 0.092460051
0.36523125 -0.027699864 0.094088204
0.37485397 -0.029030642 0.094555169
0.37626147 -0.029001713 0.094460577
0.389788 -0.029234027 0.094363779
0.36394691 -0.024417622 0.09295997
0.36502573 -0.024417622 0.093907684
0.37746042 -0.060360953 0.095070124
0.38173604 -0.060101174 0.095720395
0.37313354 -0.058982834 0.095705956
0.37816614 -0.057461381 0.095024571
0.38269761 -0.057092234 0.096121371
0.36776429 -0.051450517 0.095494345
0.37137035 -0.050294191 0.095488131
0.37840137 -0.053256448 0.095009387
0.3836717 -0.052998438 0.095748462
0.38626248 -0.051973335 0.096091807
0.35824305 -0.046420686 0.095787711
0.36174268 -0.046859011 0.095621765
0.36788025 -0.047395494 0.095749751
0.37207082 -0.047408644 0.095437922
0.37840137 -0.045971349 0.095009387
0.38385975 -0.047118615 0.095367573
0.38748491 -0.04733073 0.095169142
0.35831678 -0.043578826 0.095704556
0.36216614 -0.042619914 0.095477484
0.36749721 -0.042525426 0.095579609
0.37273011 -0.042332601 0.095529035
0.37750128 -0.04257571 0.095264472
0.3833853 -0.042558484 0.095394462
0.38837877 -0.042543143 0.095122457
0.39052829 -0.041551199 0.095014095
0.3623457 -0.037427172 0.095823817
0.3673422 -0.037824139 0.09634199
0.37249038 -0.03778052 0.096405409
0.37793487 -0.037801329 0.095154196
0.38480866 -0.035705581 0.095313787
0.38877398 -0.037368268 0.09551397
0.39057171 -0.037378699 0.096383326
0.36324343 -0.032933567 0.095891409
0.36749896 -0.032496314 0.096027084
0.37239853 -0.032744545 0.095873624
0.37745136 -0.032589648 0.095192738
0.38268512 -0.032522302 0.095718943
0.38810614 -0.032863155 0.095729865
0.39089483 -0.032566115 0.096857324
0.3672218 -0.027169861 0.096010424
0.37224361 -0.026958067 0.095743254
0.37819934 -0.027456218 0.095446207
0.38301083 -0.028546166 0.095791541
0.38696676 -0.028607892 0.095730707
0.39052829 -0.028741341 0.095014095
0.36678067 -0.023962108 0.096247993
