# .PCD v0.7 - Point Cloud Data file format
VERSION 0.7
FIELDS x y z
SIZE 4 4 4
TYPE F F F
COUNT 1 1 1
WIDTH 127
HEIGHT 1
VIEWPOINT 0 0 0 1 0 0 0
POINTS 127
DATA ascii
0.36959901 -0.060545057 0.063317627
0.37278768 -0.061481919 0.064048275
0.37640965 -0.061649218 0.064641878
0.38186169 -0.062427107 0.063911408
0.36300731 -0.056432612 0.064182222
0.36959901 -0.059040695 0.063317627
0.37262028 -0.057977941 0.06348712
0.37721461 -0.057300013 0.063859507
0.38260415 -0.05788384 0.063871965
0.38787591 -0.056859624 0.063511655
0.39178631 -0.056982577 0.064395636
0.39542824 -0.055825081 0.064711064
0.35383421 -0.050413128 0.063666545
0.35697657 -0.051915474 0.063709453
0.36249241 -0.052285619 0.064284518
0.373169 -0.052631896 0.063902572
0.37718177 -0.052674219 0.064337745
0.38233632 -0.053643055 0.06400644
0.3875514 -0.052533038 0.063841738
0.39250654 -0.052881043 0.064362817
0.39542824 -0.054794122 0.064711064
0.35368645 -0.047788393 0.063536718
0.35573459 -0.048448808 0.064448595
0.36217782 -0.048192326 0.064404279
0.36935541 -0.048502505 0.064767435
0.37274998 -0.047656056 0.064374268
0.37702793 -0.0475871 0.064602673
0.38459823 -0.049584091 0.064514518
0.38856941 -0.048266865 0.064419471
0.39242148 -0.047489598 0.064731799
0.3990027 -0.045518111 0.063857973
0.35906333 -0.042099241 0.063950174
0.3613027 -0.043141909 0.064681411
0.37749475 -0.042980164 0.064929575
0.38966119 -0.042440135 0.064969033
0.39312097 -0.042426407 0.06419269
0.39731094 -0.042267494 0.064178258
0.3598662 -0.039551519 0.064085037
0.36196277 -0.038048998 0.064196363
0.37302426 -0.035949733 0.064330034
0.37604794 -0.035752922 0.064545982
0.38317317 -0.035847604 0.064593665
0.38905549 -0.036984637 0.06488061
0.39271912 -0.0372913 0.064638317
0.3963775 -0.038290724 0.064435706
0.36476982 -0.034543123 0.064399511
0.37379706 -0.032636371 0.063899741
0.37722892 -0.03226319 0.064345784
0.38253492 -0.032127369 0.064550601
0.3880738 -0.032812804 0.064572871
0.39163914 -0.032555826 0.064876445
0.36932892 -0.025978088 0.064411402
0.37456715 -0.028869335 0.063688815
0.37771556 -0.027686713 0.064291678
0.38174206 -0.027623929 0.064565107
0.38946888 -0.02836087 0.064800091
0.39181921 -0.029088063 0.064868242
0.36945426 -0.024142642 0.064521521
0.37110594 -0.022434602 0.064641416
0.37912905 -0.023235876 0.064590566
0.3819578 -0.021857658 0.064265504
0.3739157 -0.019336462 0.064447641
0.37532455 -0.018283585 0.064354181
0.38254067 -0.019059261 0.063771836
0.37608197 -0.062138833 0.065019548
0.38393626 -0.062287867 0.065264076
0.38620627 -0.061482653 0.065261632
0.36442637 -0.05623379 0.065428853
0.36676499 -0.056452777 0.066152252
0.37608197 -0.059618417 0.065019548
0.38393626 -0.059745535 0.065264076
0.3863748 -0.059378386 0.065276586
0.39186957 -0.058334101 0.065578014
0.3567912 -0.050905522 0.066264205
0.36396739 -0.052204009 0.065358423
0.36694479 -0.052527498 0.06594044
0.37045714 -0.051006921 0.065402508
0.3796702 -0.051070042 0.065509647
0.38147095 -0.051080562 0.065760463
0.39475575 -0.052204449 0.065451324
0.39552897 -0.051689845 0.066130608
0.35671732 -0.047262505 0.066509843
0.36345431 -0.046948094 0.065496437
0.36671138 -0.047414076 0.065900326
0.37256446 -0.045501895 0.065257177
0.37886748 -0.047653675 0.065469995
0.38238743 -0.047265477 0.06558948
0.38679433 -0.046360001 0.065112703
0.3943074 -0.047798224 0.065944858
0.39597818 -0.047231119 0.065637857
0.35721517 -0.044507317 0.065749273
0.36334261 -0.042227775 0.065651283
0.36755189 -0.042509787 0.066510655
0.37304813 -0.042490754 0.065460205
0.3778061 -0.042350825 0.065535873
0.38276193 -0.042463455 0.065829739
0.38697776 -0.04245162 0.065673172
0.39620277 -0.044484522 0.065391481
0.36383599 -0.037910637 0.065515213
0.36718699 -0.037428629 0.066323303
0.37264508 -0.038203128 0.065509513
0.3775844 -0.037537403 0.065638848
0.38259912 -0.038503822 0.065553606
0.38691223 -0.037346296 0.065216251
0.39475575 -0.035222538 0.065451324
0.39620277 -0.03778328 0.065391481
0.36472514 -0.031777941 0.065691292
0.36727828 -0.032822669 0.066233382
0.37080774 -0.03122779 0.065377712
0.37896186 -0.034386639 0.065552875
0.38687968 -0.031565182 0.065187663
0.39374575 -0.031715684 0.065800026
0.39552897 -0.032649525 0.066130608
0.36263198 -0.029142855 0.066181906
0.36751759 -0.02855074 0.066036895
0.37224266 -0.026747195 0.065332763
0.37608197 -0.025844835 0.065019548
0.38348407 -0.026317943 0.065606274
0.38687822 -0.027004668 0.065566696
0.3921921 -0.027329035 0.06603884
0.37263536 -0.022737162 0.065652199
0.37613365 -0.022335974 0.065730505
0.38419092 -0.022966448 0.065487795
0.38724458 -0.022303268 0.065757856
0.39081508 -0.024009096 0.065982714
0.37467179 -0.019336462 0.065111846
0.37575495 -0.018810023 0.065397814
