# .PCD v0.7 - Point Cloud Data file format
VERSION 0.7
FIELDS x y z
SIZE 4 4 4
TYPE F F F
COUNT 1 1 1
WIDTH 217
HEIGHT 1
VIEWPOINT 0 0 0 1 0 0 0
POINTS 217
DATA ascii
0.34885377 -0.061108023 0.0941208
0.34445369 -0.057126053 0.094470471
0.34744272 -0.058293689 0.09456718
0.34445369 -0.038470589 0.094470471
0.34538203 -0.035935093 0.093954876
0.34681913 -0.0328683 0.09329474
0.34889087 -0.06191178 0.097037368
0.34690642 -0.0575931 0.096625127
0.34457839 -0.038965903 0.097907647
0.34544414 -0.03732869 0.097536758
0.34695676 -0.032477338 0.097530633
0.34864485 -0.029200966 0.097771972
0.34951437 -0.070458397 0.10424042
0.34788936 -0.067501068 0.10404153
0.35020986 -0.069069758 0.10485139
0.3479932 -0.062229231 0.10290406
0.35052475 -0.06494154 0.1037969
0.34380084 -0.056134023 0.10348054
0.34693298 -0.058613937 0.1017065
0.34316638 -0.05204767 0.10297646
0.3433792 -0.049142253 0.10284393
0.34545386 -0.049142253 0.10466647
0.34472615 -0.037160851 0.10269612
0.34577093 -0.036655955 0.10289728
0.34761542 -0.032493811 0.1021919
0.35087317 -0.030623546 0.10410297
0.349002 -0.029686389 0.10201555
0.35017633 -0.029696032 0.10349083
0.35090539 -0.070458397 0.1054624
0.34871021 -0.066967018 0.10733694
0.35080108 -0.067114361 0.10869834
0.34488067 -0.060072534 0.10948721
0.34861267 -0.06344974 0.10788512
0.35064051 -0.064790756 0.10922281
0.34426767 -0.056866296 0.10741285
0.3454861 -0.058321826 0.10602584
0.34422091 -0.052523058 0.10706954
0.34218946 -0.04545499 0.10978514
0.34614542 -0.049142253 0.10527399
0.34285092 -0.042340856 0.10914608
0.34307331 -0.038919296 0.10900864
0.3463254 -0.036372527 0.10661527
0.34826127 -0.032899115 0.10721108
0.3510679 -0.028210834 0.10864753
0.3471567 -0.061789569 0.11228531
0.34457397 -0.056926593 0.11257713
0.34583932 -0.059398375 0.11343519
0.34326795 -0.052955348 0.11277352
0.34167397 -0.047308218 0.11304528
0.34404886 -0.042412467 0.11263388
0.34438315 -0.039018132 0.11152209
0.34627852 -0.036586169 0.11248989
0.34851333 -0.032662671 0.11241218
0.3496587 -0.029884078 0.11168802
0.35242712 -0.028213695 0.11196678
0.36759788 -0.075115696 0.11946081
0.3723453 -0.075665452 0.11950505
0.35415074 -0.070072666 0.1189618
0.35919279 -0.071053788 0.11806688
0.3612746 -0.071093544 0.11923017
0.36740834 -0.072244726 0.11947581
0.37205526 -0.071831003 0.11974169
0.37863994 -0.071524866 0.11984363
0.38365886 -0.070855096 0.11892836
0.38519907 -0.070563599 0.11961588
0.34904754 -0.065356202 0.11980304
0.3534995 -0.067894235 0.11911577
0.35723391 -0.06832771 0.11937126
0.36170661 -0.067457646 0.11949876
0.36829373 -0.06957911 0.11940655
0.37236217 -0.067827687 0.11977039
0.3774057 -0.067368865 0.11948272
0.382534 -0.067356378 0.11952083
0.38630906 -0.066754289 0.11955569
0.3909201 -0.065850057 0.11843003
0.34836018 -0.062584974 0.11786815
0.36170685 -0.062282171 0.1198761
0.37388724 -0.062271655 0.11966163
0.37681791 -0.062887296 0.11946312
0.38235664 -0.062290423 0.11929695
0.38727614 -0.062537171 0.11877842
0.39235663 -0.062690958 0.11871594
0.34497505 -0.055692416 0.11711281
0.34698215 -0.058093019 0.11770338
0.36136156 -0.05832183 0.11997205
0.37244713 -0.05742709 0.11957966
0.37722912 -0.057717092 0.11951933
0.38245091 -0.057737969 0.11968628
0.38725656 -0.057877719 0.11923102
0.3926076 -0.057710569 0.11940222
0.39523613 -0.059865639 0.11911577
0.34395197 -0.052524436 0.11729666
0.34566346 -0.052660316 0.11949231
0.37254989 -0.053602416 0.11951532
0.37758213 -0.053675931 0.11957984
0.38164648 -0.053953838 0.11982265
0.38849461 -0.052788846 0.11943925
0.39271566 -0.052049994 0.11931413
0.39552435 -0.052001238 0.11936896
0.3434042 -0.047854472 0.1172118
0.34566349 -0.047703639 0.11949231
0.3565475 -0.048653949 0.11973628
0.36274269 -0.048221752 0.11985433
0.38876924 -0.049280327 0.11942452
0.39268351 -0.047347158 0.11905148
0.39559639 -0.048356757 0.11943226
0.34444532 -0.042981867 0.11751151
0.34565553 -0.041566625 0.11815422
0.37952155 -0.041710749 0.11995256
0.39299497 -0.042769372 0.11951325
0.34498638 -0.03869151 0.11889753
0.34714633 -0.036729116 0.11736225
0.39343405 -0.039500672 0.11952931
0.34883663 -0.033331309 0.11734708
0.35054949 -0.031722788 0.1181645
0.35156077 -0.029708305 0.11725701
0.36274269 -0.025669502 0.11985433
0.37853321 -0.021777628 0.11881814
0.36899054 -0.075144187 0.12001869
0.37423664 -0.075781524 0.12063409
0.37599322 -0.075372115 0.12084612
0.36228168 -0.072326049 0.12131289
0.36899054 -0.072361648 0.1200187
0.3731077 -0.073724277 0.12052975
0.37669876 -0.072354555 0.12037691
0.3802276 -0.071783923 0.12057281
0.38591039 -0.070090204 0.12024075
0.34972724 -0.065808564 0.12040013
0.35217723 -0.065592371 0.12068894
0.35746408 -0.066268325 0.12039357
0.36337659 -0.067767188 0.12085491
0.36746806 -0.067373805 0.12059462
0.37754473 -0.067400761 0.12007942
0.38652179 -0.067937866 0.12039755
0.34914616 -0.062236279 0.12065024
0.35204023 -0.06267307 0.1212341
0.35745424 -0.062474769 0.12077478
0.3634344 -0.062574722 0.12072818
0.36748219 -0.06256745 0.12091204
0.37108415 -0.061782662 0.12090715
0.37789685 -0.06196579 0.12038875
0.34817302 -0.056861769 0.12099224
0.35242429 -0.057816092 0.12167606
0.3576639 -0.057207149 0.12138249
0.36325261 -0.057222303 0.1209328
0.36666876 -0.057691868 0.12141763
0.37822622 -0.057976134 0.12014572
0.38876757 -0.056403682 0.12008858
0.39259404 -0.056294098 0.12034427
0.3952328 -0.055530522 0.12044394
0.34783038 -0.052663285 0.12112977
0.35266387 -0.05270379 0.12171886
0.35789517 -0.052234426 0.1211761
0.36291614 -0.052352648 0.12100506
0.3674942 -0.052075226 0.12070078
0.37230963 -0.050933611 0.12043877
0.3771688 -0.051649932 0.12037037
0.38275379 -0.052012511 0.12054582
0.38591039 -0.052574404 0.12024075
0.39020011 -0.0545206 0.12001598
0.3952328 -0.05026526 0.12044394
0.34771723 -0.047703959 0.1212522
0.35200766 -0.047583539 0.12185529
0.35769218 -0.047132153 0.12074178
0.36277863 -0.047160901 0.1206845
0.36726779 -0.047407795 0.12123746
0.37231976 -0.04738025 0.12090761
0.37746704 -0.04738326 0.12080976
0.38230896 -0.047236755 0.12098695
0.38662383 -0.046989512 0.12033506
0.39585182 -0.046847388 0.12041727
0.34757459 -0.042425703 0.12121872
0.35220122 -0.041952949 0.12172643
0.35769254 -0.042794019 0.12129675
0.36322671 -0.042702522 0.12134444
0.36747238 -0.042528216 0.1218952
0.37232271 -0.042887375 0.12079577
0.37703294 -0.042708162 0.12035843
0.38203463 -0.042645931 0.12076261
0.38687447 -0.042464886 0.1209311
0.39547357 -0.042925663 0.12043357
0.34499097 -0.038703784 0.12023258
0.34790733 -0.038009956 0.12104757
0.35252395 -0.037134483 0.12216679
0.35798833 -0.037885945 0.12193376
0.36262643 -0.03766004 0.12197071
0.36779037 -0.037603717 0.12125675
0.37229025 -0.037556563 0.12062502
0.37730271 -0.037376069 0.12066542
0.38238919 -0.037653051 0.12080784
0.38703805 -0.037424725 0.12112047
0.3926577 -0.036899272 0.12135091
0.39522982 -0.039261781 0.12110683
0.34972724 -0.03459572 0.12040013
0.35277891 -0.032375854 0.12186397
0.35753253 -0.032532927 0.12259815
0.36253405 -0.032615334 0.12206697
0.36728543 -0.032391101 0.12221817
0.37238985 -0.032449059 0.12131892
0.37753081 -0.032489814 0.12098678
0.3821927 -0.032146119 0.12170754
0.38729468 -0.032269485 0.12138288
0.39258322 -0.032470532 0.12242012
0.35346958 -0.029136719 0.12235662
0.35762557 -0.029049806 0.1222045
0.36310372 -0.027796676 0.12127113
0.36705685 -0.02739124 0.12225267
0.37208089 -0.027557718 0.1219729
0.3775574 -0.027744964 0.12148067
0.38208848 -0.027706966 0.12192737
0.38752732 -0.028520023 0.12178217
0.39126641 -0.028844789 0.12228374
0.36481938 -0.024249302 0.12034762
0.36794585 -0.023102477 0.12087569
0.3724843 -0.023607582 0.1210913
0.37810799 -0.024003837 0.12088885
0.38093209 -0.024493894 0.12163538
