# .PCD v0.7 - Point Cloud Data file format
VERSION 0.7
FIELDS x y z
SIZE 4 4 4
TYPE F F F
COUNT 1 1 1
WIDTH 378
HEIGHT 1
VIEWPOINT 0 0 0 1 0 0 0
POINTS 378
DATA ascii
0.51813716 -0.073134869 0.083326995
0.52140141 -0.071328931 0.082645081
0.52386725 -0.067549884 0.082371034
0.52394861 -0.062662028 0.083906598
0.52654606 -0.061526924 0.082062148
0.52888548 -0.057931077 0.083088696
0.53050447 -0.056060027 0.082211882
0.53165489 -0.052872613 0.081669524
0.53209835 -0.047172461 0.082280986
0.53229213 -0.042863764 0.082746968
0.5297786 -0.036294706 0.084236324
0.53215331 -0.037803739 0.081885569
0.52922094 -0.031851467 0.08419013
0.52953506 -0.027635572 0.083135024
0.53050447 -0.026372589 0.082211882
0.52894419 -0.022434836 0.083148293
0.52469921 -0.015491403 0.082436338
0.52700293 -0.017617846 0.082064137
0.52318674 -0.012703198 0.082745902
0.51684344 -0.0059537077 0.082190506
0.52224302 -0.0073837112 0.082940802
0.51452702 -0.0024487318 0.083958603
0.51593292 -0.0043136105 0.08316534
0.51490515 0.00015534461 0.084480941
0.51589429 -0.075201169 0.08801201
0.51802212 -0.072593883 0.087098055
0.52128589 -0.070760854 0.088755235
0.52275908 -0.067619056 0.087520324
0.52487117 -0.062640987 0.085781895
0.52647632 -0.062094562 0.08754693
0.52842367 -0.057828873 0.08796069
0.52966034 -0.052504797 0.08865799
0.53052539 -0.05252637 0.087022007
0.52998197 -0.049044065 0.088408172
0.53121752 -0.04718297 0.087445796
0.53182328 -0.042682316 0.087696329
0.52984899 -0.036307853 0.085629284
0.53146076 -0.037631303 0.087650061
0.52974868 -0.031686649 0.086428486
0.53108013 -0.032754939 0.088152736
0.52975518 -0.027647261 0.087144099
0.53026962 -0.027668303 0.088660829
0.52845824 -0.022490008 0.087868199
0.52487791 -0.015603177 0.08592096
0.52646017 -0.017617539 0.087200031
0.52328938 -0.012336215 0.08737769
0.52540839 -0.014520056 0.088383555
0.52140641 -0.0088800825 0.087530032
0.51644588 -0.0028131527 0.087400392
0.51605982 0.00063948333 0.087159127
0.51307333 -0.076932803 0.093110658
0.51527238 -0.075015314 0.092789918
0.51452547 -0.07492239 0.094795823
0.51737857 -0.072824314 0.092310809
0.52226061 -0.070681952 0.092273608
0.52305526 -0.067625828 0.092254929
0.52512801 -0.065051563 0.091464907
0.52360022 -0.06494417 0.094781458
0.52663279 -0.06236558 0.092026219
0.52802414 -0.057332661 0.092899874
0.52909273 -0.053988904 0.093616784
0.53046954 -0.051327229 0.092708603
0.53121793 -0.047417503 0.092599653
0.53263247 -0.042922303 0.091801457
0.53188771 -0.037512567 0.092655696
0.52938008 -0.030655544 0.093869239
0.53125715 -0.032648254 0.092190482
0.52938008 -0.02778665 0.093869239
0.53070956 -0.027701832 0.090711124
0.52871364 -0.022381781 0.092817955
0.5301044 -0.024841052 0.091177851
0.52690983 -0.017503714 0.092051476
0.52287877 -0.011672305 0.092611857
0.5257017 -0.014254279 0.091968857
0.5179078 -0.0069571412 0.092842296
0.52103156 -0.0091005005 0.09252499
0.51395988 -0.0034097682 0.094299018
0.51612329 -0.004790809 0.09353745
0.50867844 -0.08222501 0.097926021
0.51269644 -0.083020329 0.099045746
0.51238596 -0.078036569 0.097042613
0.51537377 -0.076051533 0.09554106
0.51779205 -0.07342919 0.096213385
0.52285075 -0.067035019 0.097051397
0.52451777 -0.064903259 0.097362325
0.52666545 -0.062263839 0.097317681
0.52844429 -0.057677358 0.097173363
0.527924 -0.053534351 0.099910885
0.53063726 -0.052447725 0.09630467
0.53109878 -0.047134209 0.097375602
0.530873 -0.042546652 0.097272329
0.53093827 -0.037765272 0.097113587
0.52873749 -0.03246367 0.099294424
0.53040177 -0.0322107 0.096467532
0.52917355 -0.0274872 0.097791791
0.53026825 -0.029519822 0.09531498
0.52877706 -0.021720897 0.097702399
0.53031707 -0.024048194 0.096688919
0.52679092 -0.01763279 0.098132566
0.52281821 -0.012174658 0.097802415
0.52538133 -0.014300013 0.098342776
0.51867574 -0.0073373057 0.097887158
0.52033132 -0.0075645829 0.095903039
0.51196027 -0.0020716384 0.096915878
0.5178622 -0.0045556435 0.096063331
0.50891924 0.0019326403 0.098744623
0.5104996 0.00042272857 0.097027116
0.50977182 0.0058177337 0.09993735
0.51135379 -0.081417739 0.10227778
0.50982678 -0.0784273 0.10198221
0.51163119 -0.07683859 0.10361848
0.51339579 -0.073569253 0.10378642
0.51732028 -0.070626043 0.10242739
0.51887494 -0.068671852 0.10231418
0.52189499 -0.066824839 0.10326648
0.52419513 -0.064082585 0.10329042
0.52655047 -0.06144214 0.10174665
0.52752328 -0.057669979 0.1020731
0.52815294 -0.052172575 0.10285242
0.52925265 -0.047554679 0.10274194
0.53054726 -0.045945637 0.1044338
0.52965254 -0.042727243 0.10209492
0.53068632 -0.042725679 0.10290802
0.52965122 -0.037182763 0.10209377
0.53052306 -0.038940772 0.10352522
0.52954322 -0.032382026 0.10222073
0.53044987 -0.034173168 0.10079876
0.52903861 -0.027396843 0.1025539
0.52898782 -0.022287708 0.10259245
0.52851975 -0.01775901 0.10259721
0.52117145 -0.011933451 0.10329641
0.52608407 -0.014654625 0.10095669
0.51854742 -0.0072811269 0.10241097
0.52055532 -0.0095699579 0.10342066
0.51257133 -0.0024429976 0.10254456
0.50299549 0.0030179541 0.10063981
0.50892758 0.0029521135 0.10124344
0.51111567 0.0021811868 0.1031656
0.51061094 0.0058177337 0.10067448
0.50954175 -0.079296954 0.10772158
0.51362175 -0.07670553 0.10664704
0.51625699 -0.07598871 0.10829653
0.51483595 -0.07343556 0.10571712
0.51729977 -0.072219804 0.10748219
0.52175915 -0.06738203 0.10683776
0.52388984 -0.062499348 0.10732269
0.52562797 -0.060180362 0.10809867
0.52649492 -0.057392176 0.10722424
0.5280171 -0.052397624 0.10758752
0.52959931 -0.047949884 0.10774209
0.53078109 -0.046469647 0.1074788
0.52981925 -0.044436306 0.10956222
0.53121346 -0.042494807 0.10764936
0.52973837 -0.035938777 0.10549796
0.53110415 -0.037766576 0.1078186
0.52951837 -0.032438923 0.1072501
0.53064334 -0.033143964 0.10895497
0.52841586 -0.027675316 0.10775889
0.52884549 -0.022220889 0.10707992
0.52380037 -0.015703028 0.10800173
0.52797407 -0.018494278 0.10749753
0.52146834 -0.012465675 0.10737284
0.51769531 -0.0068980032 0.10756347
0.52084649 -0.0097218389 0.10733684
0.50995731 -0.00019269064 0.10808668
0.51311964 -0.0023198356 0.1076702
0.51569808 -0.0043621175 0.10780554
0.50993907 0.0017993134 0.10707233
0.51118004 0.00098554697 0.10782979
0.50708115 -0.078323148 0.11328018
0.51248741 -0.075678661 0.11341511
0.51453567 -0.07374239 0.11277421
0.51721245 -0.071603328 0.11279629
0.51938611 -0.068206511 0.1126836
0.5207172 -0.065597288 0.11221473
0.52306062 -0.06242222 0.11255086
0.52670306 -0.057162438 0.11224397
0.52823663 -0.052230604 0.11223899
0.52985919 -0.04724725 0.11225944
0.53070807 -0.047247484 0.11344883
0.52985048 -0.044437617 0.11158624
0.53078014 -0.042598493 0.11306848
0.53095943 -0.037548829 0.11264367
0.53091305 -0.032732982 0.11203159
0.52862811 -0.027497437 0.11231882
0.527861 -0.022851154 0.11152794
0.52396059 -0.016726226 0.11252284
0.5269258 -0.019752001 0.11101356
0.52228469 -0.012794922 0.11248248
0.51847094 -0.0069106524 0.11204787
0.52112722 -0.0093446542 0.11190937
0.51319426 -0.0020610881 0.1122613
0.51604766 -0.0045967726 0.11299317
0.50369984 0.0024971403 0.11357088
0.50432241 -0.080988921 0.11511606
0.50596339 -0.08101093 0.11744499
0.50766164 -0.07809829 0.11794708
0.51169097 -0.075602688 0.11679739
0.5139482 -0.074144132 0.11658411
0.51754165 -0.072052576 0.11637612
0.5194667 -0.068006799 0.11710601
0.52093232 -0.066104352 0.11879277
0.52292514 -0.062435046 0.11740807
0.52408707 -0.059393555 0.11983383
0.52633381 -0.05716607 0.11724387
0.5276832 -0.052429754 0.11744688
0.52928621 -0.047509134 0.11824498
0.53128898 -0.045934528 0.11573385
0.52963382 -0.042581864 0.11827305
0.53156251 -0.043316804 0.11508679
0.52979815 -0.037741967 0.11770747
0.53075355 -0.035521481 0.11970037
0.52965194 -0.032588761 0.11760634
0.53075355 -0.033848803 0.11970037
0.52839684 -0.028065216 0.11763005
0.52439535 -0.021572838 0.11877358
0.52609313 -0.023283716 0.11674718
0.52370727 -0.017555805 0.11728173
0.51993066 -0.010149873 0.11684799
0.52197301 -0.012841375 0.11782311
0.51771039 -0.0074794102 0.11796928
0.51278865 -0.0023284862 0.11767294
0.51607758 -0.0047887629 0.11701265
0.50360286 0.0035636292 0.1159629
0.50710088 0.0020590832 0.11755688
0.51046741 0.00033155456 0.11918324
0.50372165 0.0058203638 0.11725046
0.50678205 0.0056708921 0.1179423
0.5043354 -0.081841037 0.12045175
0.50661606 -0.081539817 0.12192284
0.50856227 -0.078027546 0.12222885
0.51005208 -0.076006383 0.122146
0.51283056 -0.073223747 0.12269266
0.51635689 -0.070738353 0.1221386
0.51890194 -0.068456426 0.12276602
0.52112234 -0.066161864 0.12169794
0.52295762 -0.062561773 0.1223594
0.52463967 -0.059547555 0.12209396
0.52628434 -0.057125285 0.12321256
0.52771968 -0.052489508 0.12277985
0.5287227 -0.04782271 0.12298709
0.52952278 -0.042553119 0.12276892
0.53075552 -0.041103218 0.1210331
0.52949822 -0.037550159 0.12268579
0.53075552 -0.038134243 0.1210331
0.52933043 -0.032022003 0.12297588
0.53075516 -0.033875104 0.12169835
0.52745944 -0.027406616 0.12264848
0.52464151 -0.021397797 0.1209864
0.52638 -0.022447711 0.12333753
0.52453977 -0.017010108 0.12150201
0.5261153 -0.018178385 0.12346429
0.51966488 -0.010333973 0.12105139
0.52229261 -0.012679655 0.1225659
0.51498193 -0.0050980803 0.12248366
0.51847708 -0.0077899885 0.12246132
0.51359469 -0.0024126857 0.12218012
0.50739181 0.0036830511 0.1221384
0.51120269 0.0011092455 0.12155956
0.50636894 0.0053855376 0.12223812
0.4993782 -0.082843944 0.12940753
0.5039162 -0.082256965 0.12806992
0.50550199 -0.080735996 0.12813182
0.50782222 -0.078048386 0.12795171
0.5100199 -0.075831488 0.12677652
0.51281041 -0.073668346 0.12709817
0.51681769 -0.071169138 0.12778692
0.51847583 -0.067957565 0.12769732
0.520733 -0.065229669 0.12731394
0.51988965 -0.064085037 0.12879151
0.52204674 -0.062517852 0.12735885
0.52488083 -0.059817422 0.12785196
0.52665061 -0.057437494 0.12790927
0.52815598 -0.052867278 0.12778179
0.52871674 -0.047755487 0.12776093
0.52947366 -0.04247589 0.12722787
0.53071868 -0.040585108 0.12832165
0.52968901 -0.03685303 0.12658522
0.53072011 -0.037686959 0.12815651
0.52908814 -0.032171458 0.12785731
0.52801979 -0.02747657 0.12779073
0.52761441 -0.022613103 0.12766515
0.52404487 -0.016683232 0.12822685
0.52641594 -0.018403981 0.12698209
0.52229881 -0.012389414 0.12743238
0.5149436 -0.0053540673 0.12777419
0.51783264 -0.0070031332 0.12773328
0.5210005 -0.0087622553 0.12821445
0.51302344 -0.0024795253 0.12764023
0.50387275 0.0048963577 0.12803172
0.50692201 0.0029043648 0.12804824
0.51003379 0.0010512993 0.12545764
0.48969227 0.0072475774 0.12888497
0.49049801 0.0071301046 0.12870543
0.50206459 0.0063087931 0.12834471
0.50556576 0.0068278299 0.12951891
0.4723886 0.0128863 0.12927656
0.47373793 0.015618868 0.12951118
0.49448532 -0.086079434 0.13132085
0.49566862 -0.086233139 0.13280405
0.49448532 -0.084316753 0.13132085
0.49710727 -0.084231049 0.13173854
0.50017911 -0.082843944 0.1301111
0.50658828 -0.081548162 0.13223226
0.50863391 -0.078452148 0.13194802
0.51163751 -0.076617785 0.13327985
0.51331562 -0.073680855 0.13339864
0.51869571 -0.071172528 0.13120346
0.52179098 -0.071225479 0.13312395
0.51958597 -0.068202451 0.13074318
0.52258027 -0.06719055 0.13296154
0.52784288 -0.066306658 0.13422537
0.52312016 -0.062530428 0.1318396
0.52603459 -0.062449176 0.13418971
0.52482867 -0.058654085 0.13179928
0.52646935 -0.057368066 0.1332406
0.52851713 -0.052544493 0.13282116
0.52924699 -0.047743089 0.13195382
0.53104156 -0.047739591 0.1345951
0.52935135 -0.042962503 0.13215952
0.53102219 -0.041750401 0.13386138
0.52985018 -0.037304621 0.13088635
0.53200275 -0.03730594 0.13299924
0.52985018 -0.032357592 0.13088635
0.53204244 -0.032354653 0.13261259
0.52949631 -0.027174991 0.1305754
0.53194571 -0.027443701 0.13254976
0.52860051 -0.021889409 0.13196035
0.5313406 -0.023415593 0.13352673
0.52435923 -0.016210645 0.13138685
0.52750379 -0.017511697 0.1332975
0.53145319 -0.017056253 0.13495672
0.52340156 -0.012810556 0.13143304
0.52718717 -0.012438685 0.13395438
0.51888442 -0.005727089 0.131458
0.52272797 -0.0077113477 0.13159813
0.52646989 -0.0084070591 0.13324112
0.50956339 -0.00032331422 0.13036865
0.51273119 -0.0010333052 0.13132125
0.51781654 -0.0024609871 0.13162911
0.52080673 -0.002998376 0.13359034
0.50872469 0.0030950513 0.13148052
0.5123812 0.0028656567 0.13350958
0.51734495 0.001362808 0.13276768
0.47291064 0.0092174485 0.13144653
0.47781473 0.0090784077 0.13176149
0.48283666 0.009293572 0.13151446
0.48764706 0.0090877004 0.13108157
0.49244374 0.0074828579 0.13155562
0.4985334 0.008921572 0.13132754
0.50202733 0.0085920086 0.13078396
0.50849962 0.0075066118 0.1320328
0.51100284 0.0070719523 0.13385162
0.47305572 0.011598549 0.13079754
0.4776684 0.012813144 0.13118927
0.48252815 0.012350168 0.13146527
0.48809546 0.012452503 0.13108397
0.4931685 0.012274628 0.13216063
0.4970316 0.012341186 0.13346897
0.50204873 0.010964645 0.1317535
0.50800753 0.010809365 0.13149762
0.47451642 0.015618868 0.13019508
0.47687897 0.015721437 0.13093944
0.51398206 -0.076706409 0.13558137
0.51583147 -0.073797628 0.13587505
0.52726489 -0.066808835 0.13527049
0.52773601 -0.062687255 0.13549422
0.52770299 -0.0574352 0.13601837
0.53142482 -0.055393763 0.13626283
0.52934223 -0.053738616 0.13576433
0.5320493 -0.05229643 0.13647863
0.53311062 -0.047939468 0.13592863
0.53563154 -0.04884769 0.13596517
0.53227651 -0.042625695 0.13567993
0.53227645 -0.038972918 0.13567993
0.53171861 -0.020722181 0.13563354
0.53160697 -0.018388083 0.13562427
0.5106954 0.0074930433 0.13535631
