# .PCD v0.7 - Point Cloud Data file format
VERSION 0.7
FIELDS x y z
SIZE 4 4 4
TYPE F F F
COUNT 1 1 1
WIDTH 777
HEIGHT 1
VIEWPOINT 0 0 0 1 0 0 0
POINTS 777
DATA ascii
0.40658599 -0.050824575 0.053215891
0.40648624 -0.048043564 0.053128246
0.40759477 -0.043938361 0.052105457
0.40631002 -0.03759918 0.05430451
0.41132495 -0.031585731 0.052538674
0.4066596 -0.056046002 0.058604807
0.40618515 -0.052469205 0.058187991
0.40588105 -0.047445025 0.057529267
0.40496239 -0.041311868 0.055782765
0.40571409 -0.042437613 0.058273312
0.40645704 -0.03814866 0.057095766
0.40755987 -0.056027591 0.060726743
0.40669706 -0.052861016 0.061654802
0.4058505 -0.047764886 0.062457651
0.4064534 -0.042260423 0.06123364
0.40621147 -0.055917133 0.067528501
0.40623039 -0.052805141 0.066746496
0.40494034 -0.045520741 0.065080822
0.40600297 -0.047731582 0.067179024
0.40423426 -0.042578869 0.0672336
0.40520376 -0.042408202 0.068925142
0.40519929 -0.038088363 0.068857819
0.40747592 -0.033063307 0.069970429
0.40987286 -0.070747122 0.072963446
0.41124338 -0.070916682 0.074278362
0.40960565 -0.068100169 0.073438562
0.41050765 -0.067873992 0.071302593
0.40627182 -0.062012013 0.074236892
0.40472275 -0.056856044 0.072876066
0.40566012 -0.057463422 0.0732558
0.40478641 -0.054009724 0.073930286
0.40574819 -0.052422076 0.072445802
0.40625784 -0.047476266 0.072122902
0.40638167 -0.042275045 0.072215751
0.40673995 -0.037107334 0.071986027
0.40836087 -0.032568377 0.072328463
0.40958416 -0.029957864 0.072266161
0.41091675 -0.027321063 0.073598139
0.412489 -0.023128171 0.074374288
0.41223708 -0.070387393 0.075484067
0.40894312 -0.065721557 0.077581882
0.41041818 -0.068200029 0.077758402
0.40698886 -0.062369697 0.077351421
0.40606359 -0.057929587 0.078047074
0.40597031 -0.052696668 0.077521428
0.40606296 -0.047565248 0.077425346
0.40617806 -0.042671375 0.077533327
0.40608874 -0.037385143 0.077966802
0.40809557 -0.032350581 0.077879965
0.40944698 -0.028532695 0.078357249
0.4108991 -0.026950313 0.077969126
0.41304463 -0.022693219 0.077524491
0.41659936 -0.020621363 0.078428879
0.41644374 -0.019569656 0.077848464
0.40907702 -0.066472635 0.083134629
0.41113386 -0.068591982 0.082501255
0.40687698 -0.062918194 0.082921244
0.40597412 -0.057607405 0.083209559
0.4045417 -0.052462187 0.082921803
0.40568787 -0.052871656 0.08334846
0.40456432 -0.049576201 0.083385348
0.40585861 -0.047404699 0.082050368
0.40579215 -0.042450543 0.082300983
0.4063026 -0.037346847 0.082324244
0.40741178 -0.032316525 0.082815133
0.40905985 -0.028568015 0.083151244
0.41193596 -0.02658299 0.080809943
0.41344559 -0.02374007 0.0807053
0.41567355 -0.023303159 0.080832236
0.40966806 -0.066444151 0.087298378
0.41132581 -0.067959905 0.086663067
0.40784499 -0.062724173 0.087416828
0.40631241 -0.057982504 0.08766634
0.40478018 -0.051948246 0.088233709
0.40615487 -0.053629033 0.086113632
0.4047628 -0.049146634 0.087819137
0.40546668 -0.046604522 0.08717297
0.40555984 -0.042468421 0.087552562
0.40480918 -0.038435522 0.088924676
0.40571144 -0.037191909 0.088005938
0.40781224 -0.032353476 0.087569632
0.4096972 -0.028218132 0.087773465
0.4105891 -0.026647862 0.086681426
0.40909934 -0.06604629 0.092471644
0.41049463 -0.067727678 0.093786091
0.40892473 -0.062850058 0.09217038
0.41016573 -0.063651085 0.094961345
0.40489841 -0.055908948 0.091221571
0.406681 -0.057831574 0.092207305
0.4046329 -0.052543197 0.091964401
0.40501186 -0.052521802 0.09442699
0.40478063 -0.048858359 0.091339931
0.40589389 -0.046939198 0.092729829
0.40611941 -0.04248362 0.092604794
0.40706661 -0.037391491 0.092238896
0.40913051 -0.032366704 0.092203237
0.41015059 -0.031381279 0.094504356
0.40936071 -0.028841283 0.09292309
0.41035223 -0.026891796 0.093239501
0.40941238 -0.066055059 0.098514631
0.41097879 -0.06783051 0.097539097
0.40837368 -0.062180281 0.097622298
0.41058648 -0.06311544 0.096662104
0.40612349 -0.057452798 0.096969493
0.40510124 -0.052369364 0.097334027
0.40571508 -0.047664728 0.097485028
0.40665111 -0.042331427 0.097493894
0.40810212 -0.037572049 0.097444244
0.40863827 -0.032826055 0.097491734
0.41051269 -0.03077521 0.098371983
0.40952295 -0.027191613 0.098057099
0.41070285 -0.027565664 0.09778823
0.40960234 -0.065987401 0.10112175
0.41035318 -0.066487104 0.10178134
0.40710458 -0.061636407 0.10247704
0.41033706 -0.064004824 0.10110165
0.40437183 -0.057211969 0.10257718
0.40538913 -0.057713132 0.10407589
0.40449041 -0.052939095 0.10195525
0.40525261 -0.051867809 0.10338549
0.40542695 -0.047482491 0.10242307
0.40563506 -0.04271815 0.10304962
0.40711305 -0.037818599 0.10235768
0.40663576 -0.0329795 0.10304129
0.40672797 -0.02961801 0.10392091
0.40898624 -0.071251787 0.10723595
0.41129348 -0.071449913 0.1092627
0.40895116 -0.067004502 0.1072685
0.41090477 -0.068268865 0.10930154
0.40716025 -0.062370099 0.10779472
0.40559033 -0.057230189 0.10719492
0.4046129 -0.050409913 0.10871819
0.40532029 -0.052617114 0.1071952
0.40447819 -0.047708832 0.10782337
0.40530601 -0.046235442 0.1063322
0.40601629 -0.042479996 0.10735898
0.40621996 -0.037459992 0.10728637
0.40700421 -0.032570735 0.10765764
0.40746567 -0.027841957 0.10804133
0.4104912 -0.025716841 0.109889
0.4093768 -0.024727961 0.10891004
0.41257188 -0.071400382 0.1118499
0.40977454 -0.06520015 0.11192153
0.41124654 -0.067207858 0.11198598
0.40798616 -0.06213849 0.1126429
0.40626994 -0.057387605 0.1123152
0.40462929 -0.050400268 0.1100637
0.40603662 -0.052356809 0.11209869
0.40462929 -0.0479456 0.1100637
0.40560123 -0.047449145 0.11251481
0.40644026 -0.042743679 0.11225355
0.4067665 -0.037692294 0.11236148
0.40776017 -0.032840967 0.11231494
0.40867448 -0.028682021 0.11206439
0.41100585 -0.026540225 0.11255949
0.41197705 -0.024727961 0.11119428
0.41163704 -0.070037603 0.11621985
0.40895131 -0.066967718 0.11805843
0.41053057 -0.069055736 0.11524782
0.40800938 -0.062267434 0.11727572
0.40669233 -0.057014979 0.11720022
0.4046725 -0.052770775 0.11808801
0.40568581 -0.052242 0.11786893
0.4046725 -0.046942696 0.11808801
0.405819 -0.047780916 0.11757389
0.4046725 -0.041600287 0.11808801
0.40584031 -0.042566553 0.11725042
0.40636167 -0.037632279 0.11740886
0.40766343 -0.032672718 0.11756936
0.4092471 -0.02845275 0.11786389
0.41077703 -0.026422558 0.11857009
0.41237211 -0.024835791 0.1155345
0.40976956 -0.071179017 0.12389666
0.41138121 -0.072664447 0.12451388
0.40914768 -0.067823671 0.122108
0.41083351 -0.067605831 0.12364815
0.40825889 -0.062464308 0.12210886
0.41050115 -0.064158455 0.1242066
0.40630808 -0.057400171 0.12239707
0.40577558 -0.0522529 0.12234026
0.40465355 -0.04886084 0.12273011
0.40556401 -0.046689779 0.12286442
0.4046486 -0.043071337 0.12339127
0.40563807 -0.04254118 0.1224665
0.40681788 -0.037738465 0.12242188
0.40880418 -0.032864805 0.12216124
0.4095391 -0.029935069 0.12191948
0.41125479 -0.027886469 0.12196883
0.41352689 -0.076520287 0.1269926
0.41639996 -0.077515788 0.12894493
0.41339144 -0.072535902 0.1261709
0.41682842 -0.07298588 0.12829694
0.40945673 -0.066016331 0.12894616
0.41171461 -0.0683612 0.12660366
0.4163754 -0.069179639 0.12659399
0.40726185 -0.062234495 0.12864478
0.41048282 -0.064356804 0.12585431
0.40565765 -0.057324324 0.12806602
0.40459281 -0.052186478 0.12800096
0.40556076 -0.052193057 0.12818572
0.40460309 -0.048356757 0.1273444
0.40550718 -0.047397044 0.12841889
0.40620095 -0.042599078 0.12781642
0.40660137 -0.037915658 0.12793522
0.40800241 -0.032707483 0.12811224
0.41045213 -0.031004457 0.12782395
0.40971869 -0.028607212 0.12784521
0.41100526 -0.027051494 0.12775534
0.41365039 -0.023027521 0.12752774
0.41561881 -0.022173354 0.12770408
0.41736615 -0.07678882 0.13057007
0.40748966 -0.066341579 0.13387342
0.40812725 -0.062577106 0.13285603
0.40725145 -0.057981826 0.13233311
0.40559494 -0.052148093 0.13277936
0.40596607 -0.047384541 0.13253495
0.40521982 -0.042619854 0.13321045
0.4061631 -0.037528321 0.132782
0.40823415 -0.03323476 0.13167515
0.41127354 -0.030480647 0.13134077
0.40967384 -0.029146362 0.13046789
0.41158381 -0.027227733 0.13221234
0.41194806 -0.023042044 0.13392997
0.41251209 -0.018169619 0.13495786
0.40911949 -0.067163311 0.13574891
0.41060615 -0.066404201 0.13853379
0.40939933 -0.063412204 0.1366602
0.41064653 -0.062365852 0.13776758
0.40641195 -0.057189744 0.13739525
0.41066164 -0.059811287 0.13532886
0.40439898 -0.053873952 0.13664894
0.40541524 -0.05209462 0.13789301
0.4058457 -0.047369104 0.13708793
0.40593901 -0.042501938 0.13729088
0.40640551 -0.037436996 0.13774046
0.4065381 -0.03273464 0.13836172
0.41096699 -0.027188439 0.13742727
0.41308105 -0.022416838 0.13739647
0.41411871 -0.018484507 0.13678522
0.41562352 -0.017060343 0.13791302
0.40629786 -0.061415583 0.14480597
0.40616819 -0.057701588 0.14256236
0.40593377 -0.052443534 0.1425584
0.40493912 -0.045469895 0.14228132
0.40576345 -0.047574982 0.14249834
0.40493912 -0.044530109 0.14228132
0.40599656 -0.042603984 0.14276649
0.40777743 -0.037590947 0.14244533
0.40792769 -0.032537695 0.14143434
0.41050771 -0.03093268 0.14268082
0.40902805 -0.029377803 0.14054908
0.41162032 -0.027414789 0.14277881
0.41366586 -0.02312712 0.14231147
0.4161084 -0.021094944 0.14327499
0.41456589 -0.019247042 0.14008975
0.41673803 -0.018057242 0.14278661
0.40669641 -0.061790794 0.14781828
0.40461636 -0.056622557 0.14954047
0.40568972 -0.057730667 0.14746627
0.404659 -0.054775711 0.14869052
0.40578076 -0.052493051 0.14771436
0.40459505 -0.048717067 0.14996544
0.40651727 -0.046899378 0.14664294
0.40717646 -0.042748354 0.14697221
0.40806693 -0.037305623 0.14731085
0.40887061 -0.032489661 0.14779818
0.40899152 -0.029580312 0.14983439
0.41351053 -0.027641626 0.14543757
0.4150742 -0.026064001 0.14586049
0.41436288 -0.024170402 0.14523563
0.41581863 -0.022996671 0.14575386
0.40710711 -0.065016933 0.15084115
0.40619266 -0.062407646 0.1529419
0.40438747 -0.057166092 0.15377623
0.40529236 -0.05771051 0.15279646
0.40368339 -0.052391287 0.15332413
0.4052932 -0.051969502 0.15057874
0.40374199 -0.04744152 0.15320918
0.40354225 -0.043351624 0.1539845
0.40517175 -0.041063987 0.15280141
0.40560055 -0.037865337 0.15297836
0.4073787 -0.032807872 0.15257713
0.40653965 -0.027258975 0.15444672
0.40906316 -0.023348089 0.15389057
0.41182205 -0.021306431 0.15335622
0.41210985 -0.070921279 0.15922916
0.40815753 -0.066842765 0.15818435
0.41210985 -0.06953264 0.15922916
0.40738663 -0.062521704 0.15781587
0.404313 -0.055605914 0.1550419
0.40641332 -0.057332367 0.1577744
0.40425515 -0.051677793 0.15598938
0.40671811 -0.05274744 0.15813346
0.40416119 -0.047202833 0.15687007
0.40596479 -0.049142253 0.15782399
0.40425211 -0.042747367 0.15718465
0.40561903 -0.040857751 0.15752023
0.40469715 -0.038059261 0.15764217
0.40544513 -0.035564877 0.1573675
0.40492746 -0.033954002 0.15691271
0.40587202 -0.032292854 0.15754281
0.40761319 -0.027543582 0.1576834
0.40973443 -0.024196703 0.15802972
0.41099179 -0.022304028 0.15777713
0.41163784 -0.071140744 0.16325131
0.40938064 -0.066490784 0.162422
0.41101539 -0.068034284 0.16267036
0.40874082 -0.062621117 0.16264752
0.44485864 -0.062710419 0.16403916
0.44557789 -0.062231764 0.16467097
0.4070811 -0.057357054 0.16279782
0.44485867 -0.058402482 0.16403916
0.44691017 -0.058082499 0.16451028
0.45019561 -0.056550961 0.16473436
0.45719597 -0.055777568 0.16449486
0.46502298 -0.055781249 0.16444921
0.40760094 -0.053248852 0.16236711
0.41045991 -0.052824251 0.16177282
0.45880303 -0.053925052 0.16386569
0.46069637 -0.053773683 0.16464156
0.46669537 -0.052071631 0.16418798
0.40347981 -0.047183685 0.16236636
0.47331655 -0.048958592 0.16441417
0.40427902 -0.043043282 0.16185747
0.40531054 -0.042061415 0.16200304
0.4057613 -0.037531152 0.1621708
0.44404393 -0.035922118 0.16465446
0.44557789 -0.036862783 0.16467097
0.45410997 -0.036289442 0.1641798
0.45798051 -0.036650307 0.16443384
0.46166092 -0.036461707 0.16482338
0.46803814 -0.037421744 0.16416962
0.47245201 -0.038771112 0.16432023
0.40650707 -0.032651275 0.16268794
0.45376179 -0.032915153 0.1646726
0.45746741 -0.033030771 0.16454549
0.46159992 -0.03313008 0.16476977
0.46502298 -0.034708813 0.16444921
0.40827069 -0.027893431 0.16277803
0.41054019 -0.025476197 0.16317445
0.45483708 -0.029514562 0.16481856
0.4580141 -0.027836403 0.16483645
0.46106255 -0.027940068 0.16496325
0.41159651 -0.022445681 0.16271812
0.44557792 -0.023460303 0.16467097
0.46106255 -0.024040656 0.16496325
0.41334611 -0.018186735 0.16311738
0.41801071 -0.014024642 0.16293396
0.4116073 -0.071455039 0.16810502
0.44817644 -0.071643926 0.16868411
0.4519003 -0.071450613 0.16942643
0.4571076 -0.071375027 0.1696655
0.4629496 -0.072386391 0.16854364
0.4675329 -0.072060555 0.16873392
0.4715457 -0.07138329 0.1696469
0.41134432 -0.067410506 0.16689323
0.44804493 -0.067316674 0.16750376
0.4527573 -0.067727461 0.16793554
0.45701978 -0.067539975 0.16758306
0.46219164 -0.06755738 0.16735628
0.46764013 -0.067602865 0.16797298
0.47227025 -0.067663915 0.1688192
0.47746134 -0.066693947 0.16894265
0.40875623 -0.062237144 0.16675396
0.41076398 -0.06418322 0.16736427
0.4476206 -0.062884003 0.1658739
0.4522928 -0.06264136 0.16642012
0.45740339 -0.062576182 0.16652499
0.46267486 -0.062642567 0.16637963
0.46763843 -0.062154558 0.16656937
0.47259331 -0.06225479 0.16657396
0.47781074 -0.062223904 0.16793436
0.40483457 -0.056319524 0.16814515
0.40624303 -0.058478627 0.16814643
0.44802827 -0.058790077 0.16532609
0.45226106 -0.058625851 0.16588324
0.45770538 -0.05781462 0.16581713
0.46220145 -0.057196017 0.16543134
0.46786714 -0.057277549 0.16535051
0.4725455 -0.05709077 0.16584431
0.47734854 -0.057628948 0.16675825
0.48248529 -0.057336982 0.16847551
0.48657206 -0.056198925 0.16930844
0.40385932 -0.052236736 0.1681758
0.40559217 -0.053841405 0.16781241
0.46221024 -0.053781137 0.16530593
0.46852607 -0.052900787 0.16537642
0.47223595 -0.052272446 0.16621011
0.47766528 -0.052495643 0.16645965
0.48255706 -0.052425727 0.16769148
0.48716512 -0.052319802 0.16918062
0.40336353 -0.047575749 0.16726242
0.47401139 -0.049449962 0.16569008
0.47914684 -0.048976567 0.16620821
0.48233879 -0.048099291 0.16860269
0.48745507 -0.047935084 0.16951363
0.40451977 -0.042983133 0.16653758
0.40562332 -0.04148167 0.16878682
0.47249377 -0.041072536 0.16968113
0.47884041 -0.040550042 0.16993225
0.48338214 -0.042213518 0.1692633
0.4876895 -0.043169525 0.16971961
0.40589947 -0.037649188 0.16761652
0.44241571 -0.035321895 0.16588624
0.44702891 -0.036741253 0.16577929
0.45091879 -0.03633678 0.16536963
0.46407533 -0.036809742 0.16528057
0.46649569 -0.036669038 0.16574296
0.47305685 -0.037285004 0.16584983
0.47667378 -0.037747119 0.16802892
0.48262289 -0.03736192 0.1686355
0.48727772 -0.036736745 0.16946021
0.406993 -0.032587048 0.16762438
0.43961447 -0.030324601 0.16741858
0.44256014 -0.032377087 0.16632628
0.44704509 -0.032591246 0.16659038
0.45107535 -0.032489751 0.16583994
0.45867428 -0.032372497 0.16552737
0.4637756 -0.032293014 0.16535002
0.46776915 -0.032725133 0.16541976
0.47231233 -0.032769259 0.16580872
0.47725034 -0.032415129 0.16748166
0.48228478 -0.032920979 0.16872993
0.48773548 -0.033831466 0.16916843
0.40882644 -0.028270384 0.16727842
0.41048372 -0.025876647 0.16692787
0.43961447 -0.029377803 0.16741858
0.44265628 -0.027459567 0.16716246
0.44723001 -0.026977547 0.16803573
0.45170566 -0.027219975 0.16712575
0.45743027 -0.027249604 0.16549936
0.46305364 -0.027613675 0.16587172
0.46734568 -0.028076626 0.16648972
0.47252122 -0.027736565 0.1661557
0.47757596 -0.027673418 0.16788962
0.48288211 -0.026937455 0.16948959
0.41185513 -0.022642517 0.16750941
0.4473173 -0.022673527 0.16729228
0.45110375 -0.02271153 0.16937748
0.45826212 -0.021996075 0.16634841
0.4628104 -0.022476263 0.16655658
0.46751574 -0.022456367 0.16824551
0.47279578 -0.02252415 0.16880547
0.47721666 -0.023386387 0.16908817
0.48448104 -0.024584189 0.16956317
0.49090675 -0.023437509 0.16988376
0.41393504 -0.018460862 0.16720258
0.41584024 -0.016140839 0.16756426
0.44749579 -0.019311916 0.16635583
0.45133162 -0.019631023 0.16972551
0.45674121 -0.017184354 0.16832156
0.46255305 -0.017600782 0.16786987
0.46701795 -0.017465655 0.16899697
0.47302136 -0.01962021 0.16970091
0.47566181 -0.019380296 0.16980204
0.41771072 -0.013172254 0.16825342
0.45707917 -0.014178155 0.1686897
0.46399209 -0.014292123 0.1675368
0.45452529 -0.091918327 0.17386205
0.45670384 -0.092133828 0.17432392
0.4617663 -0.091203839 0.17489892
0.42949748 -0.086196318 0.1745038
0.43065938 -0.088593125 0.17419338
0.45314372 -0.086996131 0.17442314
0.45751923 -0.087528959 0.17432925
0.46317771 -0.086811118 0.17480776
0.46788898 -0.087029092 0.17446923
0.47363108 -0.086505793 0.17467338
0.47521645 -0.085601941 0.17473501
0.41957444 -0.080541819 0.17377296
0.42049122 -0.080694363 0.17457834
0.44471872 -0.083203383 0.17456466
0.44757313 -0.082339644 0.17441006
0.45260251 -0.082570828 0.17411831
0.45747015 -0.082342401 0.17393489
0.46233293 -0.082558595 0.17399174
0.46785918 -0.082258336 0.17392881
0.47227594 -0.082549281 0.17445901
0.47769955 -0.082913287 0.17377023
0.48273972 -0.081762522 0.17349784
0.48677889 -0.080811664 0.17451011
0.41453975 -0.075425595 0.17467436
0.41892415 -0.078364186 0.17408906
0.42049122 -0.079321504 0.17457834
0.43330824 -0.075476661 0.17419103
0.43669528 -0.076408565 0.17450434
0.44757846 -0.077659644 0.17308375
0.4529168 -0.077274285 0.17263924
0.45754138 -0.077579454 0.1728988
0.46197322 -0.077142932 0.17270385
0.46752968 -0.077730499 0.1726411
0.47260931 -0.077449977 0.17286067
0.47761863 -0.077278934 0.17264736
0.4826532 -0.07755205 0.17261623
0.48744857 -0.077061579 0.1737546
0.49173471 -0.076750927 0.17475221
0.41167989 -0.072215773 0.17294855
0.42498252 -0.071234256 0.17453063
0.42799041 -0.07096459 0.1745109
0.4328424 -0.073485747 0.17411458
0.43712461 -0.073135816 0.17399412
0.44781449 -0.074165449 0.17081903
0.45272195 -0.073499672 0.17044768
0.4570311 -0.073679283 0.17054902
0.4629463 -0.074572593 0.17061126
0.46765503 -0.074488878 0.1707546
0.47291806 -0.072684862 0.17115334
0.47722676 -0.07234633 0.17227295
0.48242059 -0.072094679 0.17260762
0.48749122 -0.072354935 0.17306882
0.49274263 -0.072492272 0.17389248
0.49618101 -0.071075574 0.17451707
0.40868616 -0.066593066 0.17317036
0.41075549 -0.069075026 0.17352803
0.42398357 -0.068444118 0.17454049
0.42625391 -0.067748919 0.17431651
0.47481546 -0.069098696 0.17038959
0.47909489 -0.068023726 0.17068826
0.48189971 -0.067332342 0.1715689
0.48720121 -0.067343213 0.17224859
0.49272987 -0.067528047 0.17274237
0.49664727 -0.067236334 0.17388089
0.5002982 -0.065667421 0.17414072
0.40766692 -0.062401876 0.17335097
0.42049122 -0.064220041 0.17457834
0.48210475 -0.062355068 0.17060368
0.48714367 -0.062429499 0.17183568
0.49233055 -0.06233779 0.17270041
0.49790546 -0.062788591 0.17300017
0.50076342 -0.06221861 0.17416909
0.40462238 -0.055825081 0.17062086
0.40642023 -0.057706196 0.1732692
0.48362809 -0.059415031 0.17014492
0.48761463 -0.058112197 0.17114155
0.49236521 -0.057418253 0.17222978
0.49769396 -0.05758613 0.17282906
0.50099969 -0.057062931 0.17342587
0.40396953 -0.051941015 0.17057981
0.40633053 -0.052759152 0.17298424
0.41453975 -0.05135759 0.17467436
0.48843944 -0.0534949 0.17037842
0.49205926 -0.052648738 0.17124347
0.4978995 -0.052384418 0.17195527
0.50146961 -0.052406613 0.17376481
0.40402475 -0.047928996 0.17067817
0.40630841 -0.047701739 0.17325562
0.41459808 -0.048635975 0.17406003
0.41715279 -0.046302605 0.17392741
0.48362809 -0.04599414 0.17014492
0.48603112 -0.045498386 0.17025936
0.49227706 -0.047506995 0.17130065
0.49791116 -0.047519721 0.17222127
0.50163502 -0.047524985 0.17385083
0.40462238 -0.044548959 0.17062087
0.40652505 -0.042269342 0.17287961
0.41796994 -0.044086516 0.17369455
0.47402343 -0.041069027 0.17035937
0.47580075 -0.041229457 0.17125516
0.48362809 -0.044005863 0.17014492
0.48694924 -0.042198513 0.17040038
0.49219015 -0.042581093 0.17135851
0.49825677 -0.042477395 0.17184819
0.50224447 -0.04247082 0.17345467
0.40691143 -0.037280586 0.17321154
0.48708352 -0.039014123 0.17051832
0.49251351 -0.037393719 0.17123991
0.49806717 -0.037314318 0.17226407
0.50257444 -0.037715372 0.17265907
0.40718696 -0.032488637 0.17265201
0.41814113 -0.033287298 0.17451039
0.42049122 -0.030813782 0.17457834
0.48277515 -0.030610396 0.17072666
0.48753008 -0.031527214 0.17064445
0.49273795 -0.032597203 0.17131099
0.49805856 -0.032406952 0.17270565
0.50116825 -0.032043453 0.17357402
0.40887439 -0.02747982 0.17253318
0.4101038 -0.026489187 0.17477064
0.41921714 -0.027471736 0.17405067
0.42096552 -0.027138906 0.17449588
0.48250982 -0.027877718 0.17032728
0.48754302 -0.027457528 0.17142902
0.492823 -0.027463047 0.17209956
0.49779868 -0.027379263 0.17287672
0.50137377 -0.027333943 0.17402074
0.4096534 -0.024604352 0.17171285
0.41177055 -0.022438794 0.1731984
0.42371464 -0.022458319 0.17376703
0.42509913 -0.022404796 0.17330205
0.43138599 -0.021104917 0.17449896
0.44714707 -0.020737376 0.17048626
0.47818834 -0.021809915 0.17088063
0.48196787 -0.022777012 0.17079401
0.48761946 -0.022410432 0.17098917
0.49257043 -0.022311371 0.17302357
0.49667081 -0.024069875 0.17361632
0.41379991 -0.018273629 0.17240815
0.41652548 -0.016034935 0.17293751
0.42413729 -0.019088659 0.17423181
0.42690262 -0.016654387 0.17408772
0.43200678 -0.017794279 0.17423613
0.43808693 -0.017011063 0.17333703
0.44341698 -0.01730904 0.17255987
0.44573879 -0.018543953 0.17279863
0.45826048 -0.016070001 0.17048812
0.4690454 -0.015457651 0.17064495
0.4723044 -0.016914925 0.1709159
0.47768393 -0.018064078 0.17150444
0.48281506 -0.017514953 0.1716833
0.4878034 -0.017761245 0.17169888
0.49285287 -0.017604172 0.17292438
0.49621379 -0.016259111 0.17416555
0.41838902 -0.012797488 0.17241469
0.42078745 -0.011145389 0.17369768
0.42935279 -0.01334861 0.17304564
0.43143302 -0.012425804 0.17424664
0.43729463 -0.012432013 0.17434306
0.4412474 -0.012760187 0.17441937
0.45274386 -0.011049772 0.17340636
0.4573431 -0.012622387 0.17262954
0.46344388 -0.012725617 0.17090048
0.46755397 -0.012316406 0.17188591
0.472574 -0.012230715 0.17252462
0.4775342 -0.012515217 0.17218634
0.4828361 -0.012705166 0.17280579
0.48820254 -0.012735161 0.17307451
0.49257916 -0.012644547 0.17268403
0.49660441 -0.012703137 0.17355803
0.4225677 -0.0085037965 0.17287219
0.42731273 -0.006246327 0.17372544
0.43065935 -0.0074357125 0.17419338
0.43798923 -0.0091671292 0.17450963
0.44063425 -0.0087071713 0.17452607
0.44818002 -0.0063997107 0.1746105
0.45235682 -0.0077285189 0.17352311
0.45668527 -0.0072314502 0.17407358
0.46314543 -0.0069625508 0.17235927
0.46735176 -0.0079746712 0.17297673
0.47291347 -0.0071109077 0.17315558
0.47825035 -0.0068136477 0.17326702
0.48294908 -0.0082670515 0.17354168
0.48564336 -0.0088418862 0.17457747
0.49467409 -0.0093968138 0.17319328
0.42894968 -0.0038353675 0.17231116
0.43214151 -0.0027519751 0.17372072
0.43555436 -0.00069326907 0.17450041
0.44369608 -0.004018174 0.17455368
0.44730601 -0.0023050569 0.174009
0.45232067 -0.0026104511 0.17418821
0.45708391 -0.0022210793 0.17378043
0.46261767 -0.0023901451 0.17420934
0.4679932 -0.003101801 0.17354745
0.47293541 -0.0022906067 0.17312263
0.4780952 -0.0027232601 0.17404142
0.43409452 0.00066293497 0.17388345
0.44896388 0.0015752811 0.17283662
0.45177272 0.0022016724 0.17401108
0.4571867 0.0024352479 0.17413691
0.46059412 0.0013807043 0.17486745
0.47227636 0.0004937388 0.17215222
0.47714636 0.0011073168 0.17283657
0.45777184 0.0053743618 0.17371924
0.44211563 -0.095325053 0.17760217
0.4331595 -0.090955302 0.17572419
0.43841082 -0.092322022 0.17643927
0.44295627 -0.092569329 0.17732278
0.44749504 -0.092170551 0.17687047
0.45858407 -0.091472104 0.17543107
0.46248949 -0.090722546 0.17553425
0.42752418 -0.085118026 0.17543238
0.43255311 -0.087517001 0.17595945
0.43700236 -0.087626815 0.17654887
0.44210455 -0.087391667 0.17612128
0.44759974 -0.087781541 0.17568627
0.45052415 -0.088159189 0.17567143
0.45936358 -0.088637844 0.1754503
0.46089575 -0.088937879 0.17579797
0.46962059 -0.086767912 0.17514345
0.47246552 -0.086611688 0.17524675
0.47714409 -0.085901111 0.17543015
0.42295945 -0.081492282 0.17608111
0.42736632 -0.082523093 0.17640291
0.43263456 -0.082616225 0.17592847
0.43717232 -0.082489915 0.17592163
0.44097608 -0.082503147 0.17560279
0.47833669 -0.084730096 0.17547955
0.41442049 -0.075366855 0.17590064
0.4177641 -0.076411404 0.17584303
0.42260143 -0.077602074 0.17592511
0.42674491 -0.077653684 0.1765908
0.43237621 -0.078155398 0.17539448
0.43781674 -0.078007385 0.17537862
0.44056344 -0.077785589 0.17590582
0.49201068 -0.077587105 0.17564538
0.41360661 -0.072325155 0.17618397
0.41675729 -0.072677024 0.17724359
0.42229122 -0.073269263 0.17615959
0.42689857 -0.073095068 0.17568146
0.43930203 -0.07449282 0.17513046
0.49556422 -0.073199153 0.17530632
0.40953314 -0.065577708 0.17560044
0.41282731 -0.067545235 0.17684041
0.41740659 -0.068150915 0.1773407
0.42188215 -0.066856511 0.17563388
0.42767984 -0.068378955 0.17512545
0.40948662 -0.062567525 0.17582576
0.41230017 -0.062797531 0.1773051
0.41819268 -0.061028272 0.17601983
0.42202178 -0.062264342 0.17620307
0.40874511 -0.057372563 0.17598963
0.41240698 -0.057649229 0.17635024
0.41787669 -0.057419613 0.1759578
0.42187312 -0.05744626 0.17712349
0.40867069 -0.052648276 0.17590764
0.41238067 -0.053175956 0.17616582
0.41772625 -0.052211594 0.17593777
0.42140141 -0.054134868 0.17670898
0.50431848 -0.050564207 0.17501038
0.4085581 -0.047778308 0.17599662
0.41066158 -0.049956676 0.17659175
0.41782495 -0.048187785 0.17523098
0.42077541 -0.047284592 0.17549352
0.50344443 -0.049039681 0.17557359
0.40889302 -0.042399395 0.17636918
0.41179001 -0.041244943 0.17758307
0.41968569 -0.043629777 0.17520177
0.42064095 -0.043629482 0.17559724
0.409646 -0.037339687 0.17569958
0.4119482 -0.037618749 0.17730163
0.41786012 -0.036432583 0.17589711
0.42119551 -0.035773788 0.17652813
0.4088946 -0.032286584 0.17587137
0.41157737 -0.032100089 0.17677502
0.41756678 -0.032552656 0.17533688
0.42183101 -0.032503154 0.17679705
0.40953314 -0.028928366 0.17560044
0.41189551 -0.027295489 0.17627454
0.41510153 -0.027323771 0.17649889
0.42286253 -0.028009024 0.17590919
0.42685387 -0.026121374 0.17587882
0.41394651 -0.022344744 0.17570612
0.41552061 -0.022163847 0.17686704
0.42691132 -0.022590082 0.17559865
0.43220934 -0.021332925 0.17511132
0.49677098 -0.022031192 0.17547904
0.41407999 -0.019165512 0.17560151
0.41695908 -0.017340291 0.17646687
0.42058045 -0.017148158 0.17620961
0.42717862 -0.019176908 0.17512882
0.43263656 -0.015987596 0.17526478
0.44389206 -0.015341492 0.17516959
0.49639165 -0.018451575 0.17553402
0.41901717 -0.014092241 0.17594551
0.42255768 -0.012348927 0.17582318
0.42601985 -0.010481253 0.17544191
0.43273836 -0.012963206 0.17518786
0.44342741 -0.012436043 0.17573746
0.44530678 -0.011575334 0.1764124
0.42417306 -0.0096282549 0.17515057
0.42657623 -0.0087827994 0.17513208
0.43313414 -0.0072379261 0.17555396
0.43721068 -0.006432367 0.1757336
0.44271371 -0.0075354455 0.17523059
0.44542742 -0.0067966222 0.1751872
0.48158416 -0.0050923824 0.17500466
0.43378964 -0.0036391325 0.1754791
0.43738058 -0.002312337 0.17559269
0.4406234 -0.0028088847 0.175293
0.46562588 -7.6971948e-05 0.17562741
0.47631896 -0.00097380206 0.17570359
0.48158416 -0.0031216356 0.17500466
0.43473566 0.00061997771 0.17511219
0.45936358 0.0039127376 0.1754503
0.46178788 0.0024139294 0.17602712
0.45936358 0.0053513497 0.1754503
0.46008411 0.0053513497 0.17608327
0.44444716 -0.094529912 0.1809814
