# .PCD v0.7 - Point Cloud Data file format
VERSION 0.7
FIELDS x y z
SIZE 4 4 4
TYPE F F F
COUNT 1 1 1
WIDTH 140
HEIGHT 1
VIEWPOINT 0 0 0 1 0 0 0
POINTS 140
DATA ascii
0.39570522 -0.060152307 0.054305881
0.39674091 -0.057308305 0.053219106
0.39743224 -0.052871414 0.052362207
0.40106645 -0.052432764 0.054261826
0.4014999 -0.047301631 0.053822581
0.39735794 -0.042379688 0.053235687
0.40202641 -0.042542994 0.053795207
0.39738402 -0.037085183 0.05353881
0.40178844 -0.037318241 0.054059438
0.39740103 -0.033235934 0.053617533
0.40191883 -0.034480877 0.054440156
0.39352262 -0.0277991 0.054251969
0.39268208 -0.024343982 0.054312199
0.39660883 -0.060126886 0.056430683
0.40389341 -0.060254 0.05617477
0.4072524 -0.061393663 0.059125543
0.39889956 -0.058075774 0.056224652
0.40273067 -0.057277024 0.0571943
0.40658715 -0.057842355 0.059016488
0.4028618 -0.053056963 0.056007948
0.40694451 -0.05269558 0.058756467
0.40372339 -0.047872901 0.055820633
0.40735033 -0.04774503 0.058355931
0.41092277 -0.046759181 0.059687715
0.40443179 -0.042367022 0.055582881
0.40728784 -0.042328641 0.058269352
0.4103941 -0.044472247 0.059223294
0.40393734 -0.037106764 0.055814054
0.40685549 -0.037189376 0.058572058
0.39811572 -0.031407833 0.055924274
0.40214649 -0.032449797 0.057223987
0.40564373 -0.032783981 0.058544293
0.39428601 -0.026437756 0.056164917
0.39778671 -0.02799785 0.056255408
0.40248364 -0.027803678 0.058374912
0.40758631 -0.025531514 0.059152674
0.38966081 -0.021166943 0.055651307
0.39263296 -0.022585213 0.057064306
0.39845389 -0.02410027 0.056720488
0.40852487 -0.024451813 0.058912337
0.41081807 -0.065969869 0.064920038
0.4094933 -0.061650436 0.061389923
0.41208547 -0.062008671 0.064141877
0.40870175 -0.057475053 0.060761802
0.4119131 -0.05771682 0.06321989
0.40924215 -0.053545419 0.061039895
0.41182542 -0.052889001 0.063269615
0.409821 -0.049734004 0.061382025
0.41228861 -0.047630668 0.063001707
0.40942582 -0.041844003 0.061034873
0.41242829 -0.042404506 0.062721699
0.40936938 -0.036358573 0.060985282
0.41186413 -0.037475005 0.062945366
0.40823647 -0.032322444 0.061321158
0.41134724 -0.032186992 0.064053848
0.4074665 -0.028303802 0.061249755
0.41097903 -0.029421343 0.063730381
0.41160578 -0.065969869 0.065612018
0.41816604 -0.067072712 0.069378495
0.41435301 -0.062332254 0.066527963
0.41675851 -0.062128793 0.068341672
0.41386122 -0.057197161 0.066114433
0.41683891 -0.057733152 0.068064757
0.41379151 -0.052878052 0.066080049
0.41724908 -0.052766696 0.068060949
0.41426697 -0.048077729 0.065858163
0.41749343 -0.047558177 0.06793844
0.41459113 -0.04192115 0.06595277
0.41702768 -0.042624727 0.068138875
0.41397905 -0.036415681 0.067276545
0.41682291 -0.038085073 0.068753198
0.41340873 -0.032872032 0.06694629
0.41748723 -0.032519884 0.068948559
0.4134776 -0.029771425 0.06592533
0.41872695 -0.066641733 0.072379768
0.42035419 -0.065411434 0.074628413
0.41884056 -0.062583014 0.071790121
0.42098454 -0.061739478 0.073646292
0.41900086 -0.057602957 0.070777357
0.42101544 -0.05759244 0.073212743
0.41913232 -0.053752061 0.070892885
0.42114347 -0.052681241 0.073083118
0.42116955 -0.047626637 0.072309844
0.41900083 -0.041324139 0.070777357
0.42122006 -0.042517722 0.072666347
0.41820559 -0.036715325 0.07114359
0.42092773 -0.037525214 0.073302031
0.41832781 -0.033559676 0.070718572
0.42127094 -0.03281223 0.072505422
0.41965008 -0.066944718 0.075340927
0.42144078 -0.066496603 0.077357657
0.42257231 -0.062398445 0.077242471
0.4230164 -0.05755825 0.077133492
0.42333338 -0.052852046 0.077112481
0.42367023 -0.047664113 0.076962747
0.42507255 -0.047093481 0.078773379
0.42366865 -0.04238224 0.077220671
0.42306152 -0.037039056 0.077499703
0.42246059 -0.03318762 0.077543609
0.42241496 -0.066523924 0.080431849
0.42366844 -0.061540678 0.081737794
0.42526039 -0.062195234 0.082487844
0.42330563 -0.057474196 0.082711779
0.42394528 -0.052916113 0.082196601
0.42534906 -0.052278087 0.084340453
0.42446688 -0.04760414 0.081568912
0.42563066 -0.04755475 0.082391538
0.42443231 -0.042131111 0.080873013
0.42536402 -0.042460848 0.08268977
0.42443231 -0.035610899 0.080873013
0.42597505 -0.037478048 0.081758529
0.42514563 -0.034027644 0.080168635
0.42463171 -0.060050614 0.085041434
0.42463171 -0.057455681 0.085041434
0.42668101 -0.05727762 0.087137513
0.42463171 -0.054860748 0.085041434
0.42745289 -0.052677505 0.087091953
0.43031439 -0.052794155 0.089146093
0.42791203 -0.047634568 0.08716242
0.43009037 -0.04707595 0.089836746
0.42736104 -0.042405073 0.087439083
0.4300904 -0.042405069 0.089836746
0.42727348 -0.037325289 0.087267116
0.43133122 -0.036671318 0.088797025
0.42736924 -0.032656197 0.086934306
0.431687 -0.032656614 0.087357014
0.42658123 -0.029949389 0.086754039
0.42936388 -0.050699212 0.090529591
0.43087018 -0.050708856 0.090521783
0.42942151 -0.047173958 0.092177503
0.43068215 -0.047384974 0.091554515
0.43126407 -0.04261354 0.091666438
0.43126011 -0.039291147 0.090864301
0.42937753 -0.046286069 0.096531324
0.43032402 -0.047058415 0.096697271
0.42910087 -0.044145547 0.097841173
0.42922756 -0.047240157 0.10126302
0.43106487 -0.047474362 0.10318428
0.42911148 -0.0442327 0.10062356
0.43121678 -0.043157689 0.10214021
