# .PCD v0.7 - Point Cloud Data file format
VERSION 0.7
FIELDS x y z
SIZE 4 4 4
TYPE F F F
COUNT 1 1 1
WIDTH 926
HEIGHT 1
VIEWPOINT 0 0 0 1 0 0 0
POINTS 926
DATA ascii
0.43430766 -0.051572371 0.089548342
0.43406138 -0.048055187 0.089331955
0.43432355 -0.043432813 0.088674888
0.43357319 -0.035972841 0.087952338
0.43372053 -0.032461695 0.087812394
0.43293697 -0.027883014 0.088676915
0.43290716 -0.022592738 0.089137077
0.43435997 -0.01909304 0.089594245
0.43613672 -0.017307855 0.08982408
0.43476924 -0.051227845 0.093947023
0.43544587 -0.051770937 0.091657415
0.43411559 -0.046974789 0.092574172
0.43549252 -0.049472757 0.092985056
0.43365213 -0.042513821 0.092755467
0.43311098 -0.037217073 0.092667758
0.43377885 -0.032411609 0.092257798
0.43381914 -0.027762275 0.092541821
0.43382651 -0.023870144 0.092231393
0.4358736 -0.021329198 0.093031406
0.43472257 -0.01692738 0.092574865
0.43643707 -0.017512325 0.093130261
0.43815964 -0.013585528 0.093264937
0.44055134 -0.011686668 0.094234608
0.44211099 -0.0088870823 0.09374126
0.43492979 -0.055825081 0.099412292
0.43845925 -0.058292609 0.09896332
0.4348872 -0.052332968 0.097866334
0.43481147 -0.047065794 0.097422652
0.4356119 -0.049141377 0.096683845
0.43400845 -0.042474832 0.097762212
0.43310276 -0.037265655 0.097607605
0.4336428 -0.032154392 0.09751109
0.43464267 -0.027437683 0.097579382
0.43482718 -0.024459701 0.095772617
0.43688598 -0.022578843 0.097048797
0.43873742 -0.017799431 0.096279338
0.44070452 -0.01570604 0.09760803
0.43936786 -0.014276342 0.095324636
0.44206691 -0.012471366 0.097574674
0.44559386 -0.01109492 0.099462956
0.44397536 -0.0083017712 0.096310794
0.44567555 -0.0082296804 0.097760044
0.44473246 -0.0047005117 0.096044153
0.44551885 -0.0047005117 0.096735001
0.43954876 -0.06100706 0.10213888
0.44033808 -0.06099347 0.10349782
0.43822533 -0.057754256 0.10252918
0.43629739 -0.052860353 0.10194483
0.43382534 -0.047006845 0.10219316
0.43575135 -0.049113322 0.10213059
0.43363872 -0.042115875 0.10293683
0.43392244 -0.0374832 0.10205073
0.43384054 -0.032117642 0.10237027
0.43413869 -0.027372394 0.10301767
0.43504816 -0.025033042 0.10484052
0.43473649 -0.024622178 0.1019046
0.4363195 -0.022276687 0.1027628
0.43756768 -0.01826369 0.10254874
0.44331497 -0.012768475 0.10012311
0.44088617 -0.061685927 0.1078061
0.4387317 -0.057538148 0.10745525
0.44042486 -0.059859939 0.10889827
0.43435496 -0.050935328 0.10911205
0.43613628 -0.053214435 0.10733218
0.43350464 -0.047546629 0.10774392
0.43229368 -0.042823866 0.10831538
0.43196639 -0.037014324 0.1080279
0.43320251 -0.032331534 0.10772996
0.43385205 -0.027539229 0.10809614
0.43508136 -0.025084328 0.10686627
0.43689305 -0.022375057 0.10717792
0.43791437 -0.017725786 0.10735846
0.43860891 -0.013009051 0.10782834
0.44043306 -0.010697789 0.10957101
0.43927917 -0.0091618691 0.10855734
0.44088554 -0.0082019186 0.10916989
0.44237459 -0.065919019 0.11393875
0.43970841 -0.062287871 0.11425865
0.44075477 -0.062372439 0.1131301
0.43866402 -0.057437271 0.11239037
0.44046098 -0.059783671 0.11292317
0.43437421 -0.050583493 0.11090371
0.43584991 -0.052426904 0.11203372
0.43426555 -0.046599243 0.11203694
0.4351458 -0.048546996 0.11291265
0.43297708 -0.04233418 0.11252002
0.43268514 -0.037500631 0.1125257
0.43389344 -0.03264619 0.112478
0.43514583 -0.030305317 0.11291265
0.43438444 -0.028486235 0.11250997
0.43519214 -0.026844995 0.11233211
0.43581271 -0.022296658 0.11279386
0.43771055 -0.017197395 0.11270839
0.43935367 -0.013333828 0.11187652
0.44112363 -0.011303676 0.11234066
0.44252995 -0.0087371645 0.11129207
0.44276446 -0.066355601 0.1169433
0.43971372 -0.061954513 0.11792375
0.44091964 -0.063075624 0.11787396
0.43708423 -0.057458725 0.11799434
0.43440256 -0.052402452 0.11777414
0.43515915 -0.052895069 0.11706547
0.43396068 -0.047093704 0.1181941
0.43515915 -0.049205374 0.11603015
0.43345687 -0.042487867 0.11775149
0.4333438 -0.037462693 0.11785188
0.43423465 -0.033647463 0.11728857
0.43515956 -0.031104837 0.11710807
0.434403 -0.027463822 0.11725162
0.43515834 -0.026595963 0.11878037
0.4344033 -0.023846913 0.11691909
0.4362008 -0.021941585 0.11799905
0.43784511 -0.017341316 0.11761322
0.43922982 -0.013403024 0.11771037
0.44089785 -0.010956991 0.11840938
0.4418911 -0.0080369813 0.1178875
0.43930137 -0.061060973 0.12388407
0.44101915 -0.062665552 0.12109742
0.43737975 -0.057369392 0.12251431
0.4343906 -0.052210409 0.12130041
0.43550834 -0.052749518 0.12354687
0.43424138 -0.047504026 0.12103627
0.4352493 -0.047730479 0.12324253
0.43418345 -0.04210034 0.12200585
0.43513727 -0.043699201 0.12275501
0.43400466 -0.037668485 0.1223368
0.43337411 -0.032515511 0.12244839
0.43389425 -0.028013837 0.1226518
0.43514094 -0.025477512 0.12222578
0.43680841 -0.022428639 0.12222637
0.43902841 -0.017277895 0.12280509
0.43968701 -0.014340047 0.12311365
0.44171345 -0.011849987 0.12204903
0.44293946 -0.007162137 0.12183899
0.43884113 -0.065913759 0.12946954
0.43887135 -0.06224886 0.12764736
0.43807223 -0.057582606 0.12746297
0.43627638 -0.052362062 0.12749669
0.4338226 -0.045993268 0.12727927
0.4360919 -0.048650227 0.12738711
0.43336266 -0.042520899 0.12767392
0.43294096 -0.037389912 0.12773144
0.43292615 -0.032602932 0.12740134
0.43380207 -0.027945697 0.12770498
0.43507969 -0.025614273 0.12749624
0.4366686 -0.022395769 0.1276941
0.43943009 -0.017792534 0.127591
0.44042465 -0.015414255 0.12553635
0.43961373 -0.014571778 0.1288172
0.44116893 -0.012431026 0.12680456
0.43958932 -0.070893228 0.1301268
0.44257402 -0.07074523 0.1331118
0.43957919 -0.067019999 0.13061704
0.4421393 -0.067672856 0.13303243
0.43905836 -0.061879288 0.13203718
0.44081894 -0.063577972 0.13307045
0.43768603 -0.057284657 0.1327015
0.43741497 -0.05231059 0.13220987
0.43340176 -0.046477061 0.13305785
0.43785825 -0.048910227 0.1320077
0.4335022 -0.042492464 0.13247642
0.43321779 -0.037703421 0.13245258
0.43274674 -0.032691386 0.13270107
0.43455338 -0.029135216 0.13235813
0.43570286 -0.027050942 0.13175166
0.43703645 -0.023265172 0.13110089
0.43873101 -0.017433064 0.13250469
0.4402445 -0.015776319 0.13469559
0.43956146 -0.014181661 0.13143332
0.44105455 -0.012841376 0.13274501
0.44487584 -0.0060575912 0.13277428
0.44575974 -0.0067901346 0.13421631
0.44489133 -0.0045243017 0.13212237
0.44731921 -0.0026345842 0.13368475
0.44678733 -0.070812225 0.13591765
0.44332066 -0.066096395 0.13680623
0.44651276 -0.068479359 0.1366929
0.43946531 -0.060822081 0.13534212
0.44115487 -0.062441338 0.1374253
0.43846872 -0.057322044 0.13687918
0.44016936 -0.059313338 0.13729167
0.43823487 -0.052575387 0.13675693
0.43220678 -0.047008835 0.13857885
0.43946531 -0.049449962 0.13534212
0.43342805 -0.042733762 0.1374425
0.43561089 -0.040581603 0.13728034
0.43353823 -0.037551474 0.13728103
0.43561089 -0.039599735 0.13728034
0.43314505 -0.032765195 0.1374435
0.43224433 -0.02769703 0.13882793
0.43393499 -0.022893159 0.13758281
0.43555769 -0.021242555 0.13889739
0.43821961 -0.018528942 0.13724267
0.44053882 -0.015879765 0.13761622
0.44196114 -0.013491286 0.13686918
0.44427881 -0.0083207954 0.13770722
0.44575033 -0.0061202729 0.13797939
0.44781202 -0.0030168733 0.13757212
0.45099503 -0.00091068324 0.13837165
0.45263076 0.001034116 0.13625917
0.44451752 -0.070082314 0.1437735
0.44370875 -0.066624731 0.14259325
0.44540873 -0.068238683 0.14056328
0.43904093 -0.060422763 0.14229015
0.44181481 -0.063026629 0.14221838
0.43634704 -0.057060312 0.1424906
0.43459246 -0.052285101 0.14437199
0.43543887 -0.053094614 0.14218721
0.43346179 -0.047105983 0.14271317
0.43378848 -0.042567324 0.1425477
0.4335629 -0.037573922 0.14262047
0.43360072 -0.03284502 0.14270212
0.43350798 -0.027494419 0.14254589
0.43418229 -0.023896737 0.14201508
0.43639478 -0.021560419 0.14196211
0.43763334 -0.017439233 0.14286001
0.43907496 -0.012538723 0.1432927
0.44147149 -0.010435008 0.14342698
0.44370437 -0.0085811857 0.14256003
0.44600719 -0.0062432503 0.14271589
0.44806537 -0.0034781201 0.14229202
0.44446278 -0.070037603 0.14505655
0.44520044 -0.070037603 0.14570457
0.44354758 -0.066750981 0.1467936
0.44544634 -0.068728447 0.14592057
0.43845966 -0.060801804 0.14693731
0.4413816 -0.063367143 0.14737819
0.43616831 -0.057075284 0.14702402
0.43447694 -0.051961008 0.1469326
0.43528974 -0.0528096 0.14802697
0.43424705 -0.048084855 0.14806174
0.43560159 -0.046177994 0.1460191
0.43408975 -0.042162668 0.14808996
0.43547526 -0.044271931 0.14581308
0.43340784 -0.037953045 0.14792357
0.43448576 -0.032094739 0.14671853
0.4352428 -0.032799751 0.14675835
0.43447563 -0.029030642 0.14693148
0.43535507 -0.026755834 0.14703846
0.43709663 -0.022160368 0.14715411
0.43870357 -0.017355664 0.14706206
0.44043046 -0.017316623 0.14950055
0.43977779 -0.013080444 0.14721587
0.44089559 -0.012341365 0.14724699
0.44324762 -0.0078821545 0.14787123
0.44667447 -0.0052344007 0.1469994
0.44822514 -0.003069523 0.14673479
0.44434595 -0.071242139 0.15249658
0.44553873 -0.071226358 0.15398806
0.44296509 -0.067753255 0.15269522
0.43875378 -0.061363179 0.15231664
0.441219 -0.063682295 0.15276664
0.43486544 -0.055070274 0.15392923
0.43689546 -0.057773508 0.15205216
0.43449169 -0.051673029 0.15323785
0.4352631 -0.052807394 0.15202606
0.43358549 -0.04739764 0.15313762
0.43347666 -0.042703185 0.1531295
0.43618321 -0.041158669 0.15408856
0.43434301 -0.037421223 0.1518321
0.43591231 -0.038059749 0.15266214
0.43420941 -0.032769423 0.15212421
0.43500909 -0.031042591 0.15139335
0.43460518 -0.028588278 0.15316819
0.43560633 -0.026834467 0.1513475
0.4370729 -0.022559477 0.15217106
0.44036388 -0.020275371 0.15077311
0.4410834 -0.01650106 0.15153834
0.44125766 -0.01254357 0.15216327
0.44362658 -0.007741001 0.15230827
0.44597659 -0.0064375401 0.15437272
0.44480896 -0.004689116 0.15334699
0.44633386 -0.0037584144 0.15226641
0.44422117 -0.070757352 0.15788865
0.44565836 -0.071993098 0.15702151
0.44314235 -0.067552023 0.15748736
0.43956718 -0.061071273 0.15772688
0.44141105 -0.063222893 0.15726689
0.43721825 -0.057278242 0.15711419
0.43478966 -0.05026526 0.15519375
0.43585622 -0.052269604 0.15725164
0.43457618 -0.047068704 0.1569584
0.43564814 -0.049064666 0.15661344
0.43383309 -0.043357518 0.15701553
0.43423125 -0.037412453 0.15748632
0.43456796 -0.032838982 0.15603426
0.43573973 -0.032291159 0.1561763
0.43360499 -0.02714736 0.1573271
0.43550885 -0.028725561 0.15582556
0.43435833 -0.02362599 0.15721071
0.43592277 -0.021496482 0.15765333
0.43742603 -0.017995602 0.15750974
0.43914706 -0.013857733 0.15835606
0.4410353 -0.011902077 0.15611671
0.44385093 -0.0084969802 0.15649858
0.44699824 -0.0061461367 0.15527022
0.44815332 -0.0027622017 0.15728316
0.45096934 -0.00181321 0.15942428
0.44918752 0.00016761944 0.15719342
0.45195773 0.0018875827 0.15837914
0.45532966 0.0043629073 0.15793043
0.44432265 -0.070461906 0.16090611
0.44581217 -0.070485145 0.16154908
0.44325888 -0.067562081 0.16221341
0.44504452 -0.069020666 0.16154024
0.43915439 -0.061448898 0.16302121
0.44100285 -0.063637167 0.16181654
0.43747076 -0.057963077 0.16241032
0.43457693 -0.050213836 0.16210583
0.43572605 -0.05290186 0.16232441
0.43420488 -0.047289129 0.16244462
0.43570226 -0.049260601 0.1639818
0.43279374 -0.042535227 0.16232994
0.43278572 -0.037521731 0.1627966
0.43312389 -0.032160651 0.16258696
0.43365473 -0.027495073 0.16262691
0.43444857 -0.024063885 0.16248113
0.43589559 -0.021820467 0.16273183
0.43684277 -0.017597986 0.16316228
0.4389278 -0.012961858 0.16211751
0.44112119 -0.01093712 0.16281293
0.44261819 -0.0077872975 0.1622611
0.44609094 -0.0050965892 0.1619271
0.44911087 -0.0031277724 0.16378143
0.45081919 -0.0015917725 0.16298304
0.45648503 -0.00080372766 0.16360414
0.45310292 0.0018739294 0.16160107
0.45622998 0.0021453777 0.16284771
0.45630202 0.0056923721 0.16078125
0.44516939 -0.070658281 0.16963631
0.44163829 -0.066595055 0.16786544
0.43928984 -0.062097952 0.16729979
0.44047618 -0.063869126 0.16817553
0.43455762 -0.056114089 0.16874418
0.43662551 -0.058237467 0.16776212
0.43437567 -0.051777765 0.16833085
0.43553257 -0.052849598 0.16613181
0.43369585 -0.047232322 0.1677098
0.43317831 -0.042750426 0.16757914
0.43282038 -0.037487354 0.16736591
0.43332762 -0.032260638 0.16745485
0.4346953 -0.027659975 0.16709039
0.43550596 -0.027234644 0.16647139
0.43453991 -0.024343982 0.16895048
0.43614694 -0.022177584 0.16734773
0.43816194 -0.017400375 0.16685571
0.43952951 -0.014210008 0.16690028
0.44178885 -0.012040346 0.16741896
0.44299772 -0.0076140645 0.16758071
0.44563308 -0.004537452 0.16871262
0.45109957 -0.0019245474 0.16552845
0.46185344 0.0063893218 0.16965121
0.4449493 -0.071983807 0.17210513
0.44639316 -0.072038166 0.17311996
0.44360924 -0.066826001 0.17156176
0.44669774 -0.067906752 0.17347473
0.43882805 -0.060859341 0.172052
0.44206488 -0.063030526 0.17248687
0.43664262 -0.057541985 0.17249852
0.43433666 -0.052103259 0.17165586
0.43586004 -0.053179741 0.17327149
0.43329045 -0.047409993 0.17267787
0.43555436 -0.04919748 0.17450041
0.43271342 -0.042551309 0.17192148
0.43159175 -0.03761078 0.17245683
0.43172303 -0.032486316 0.1726875
0.43380907 -0.027728369 0.17238151
0.43555436 -0.025878148 0.17450041
0.43461686 -0.024440415 0.17234573
0.43637031 -0.021983037 0.17279704
0.43776137 -0.017424051 0.17294511
0.43865693 -0.014073393 0.17389821
0.44124767 -0.01172707 0.1727356
0.44362789 -0.0078173652 0.17232643
0.44582042 -0.0057563111 0.17375773
0.44494933 -0.0038142018 0.17210513
0.44702968 -0.0029460934 0.17298192
0.4524281 -0.00072921067 0.17468187
0.45310435 0.0013040409 0.1732794
0.45670494 0.0034091556 0.1734951
0.46228212 0.0072866185 0.17331108
0.44886154 -0.075771004 0.17554192
0.44781935 -0.07229659 0.17610529
0.44850588 -0.0691434 0.17522949
0.43730628 -0.057126056 0.17603944
0.43657461 -0.052352637 0.17710042
0.43396574 -0.04693744 0.17701964
0.43521219 -0.047664847 0.17885849
0.43304536 -0.042656485 0.17729786
0.43272159 -0.037503902 0.17700334
0.43293935 -0.032558378 0.17711432
0.43408266 -0.028239826 0.17729574
0.43574888 -0.026466861 0.17813192
0.43690535 -0.022492701 0.17726022
0.43940443 -0.018025748 0.17581205
0.44106054 -0.016443463 0.17667529
0.43930203 -0.014102762 0.17513046
0.44248757 -0.012713629 0.17665115
0.44518358 -0.010697789 0.17763519
0.44424364 -0.009355437 0.17627703
0.44663122 -0.0074771009 0.17694534
0.4487623 -0.0036023413 0.1758984
0.45222318 -0.0019041097 0.17724723
0.45503747 -0.00089227036 0.1796363
0.45390257 0.00015622079 0.17704205
0.4578678 0.0022335129 0.1768872
0.46089187 0.0036065616 0.17779121
0.46224809 0.0070073716 0.1768433
0.44557726 -0.071068555 0.18463632
0.43604741 -0.060648501 0.18425088
0.43300837 -0.056003921 0.18424335
0.43521684 -0.058781199 0.1848523
0.43357852 -0.052090485 0.18303284
0.43431661 -0.047120392 0.18206492
0.43559813 -0.047677342 0.18146035
0.4331772 -0.042757802 0.18274736
0.43245462 -0.03770351 0.18267225
0.43259296 -0.032603279 0.18288015
0.43196845 -0.028469035 0.18363689
0.43218046 -0.023949482 0.18484709
0.43804154 -0.022717763 0.18001296
0.4431138 -0.070361972 0.1891275
0.44611365 -0.072263725 0.1879027
0.43902844 -0.067785159 0.18908815
0.44116619 -0.066974126 0.18850563
0.43774492 -0.061860438 0.18739013
0.44071537 -0.064560629 0.18835159
0.43363625 -0.056594096 0.18790066
0.43610734 -0.058887176 0.18800095
0.43273109 -0.052460119 0.18770768
0.4312779 -0.04752142 0.18834989
0.43359399 -0.042029422 0.18692073
0.43547022 -0.041802801 0.18906814
0.43318808 -0.03769685 0.18741821
0.43271199 -0.032565318 0.18757097
0.43310985 -0.027427586 0.18747516
0.43356428 -0.023652289 0.18756014
0.43634936 -0.021464044 0.18811004
0.43791512 -0.018063912 0.18778318
0.43913069 -0.013155787 0.18908924
0.44025809 -0.010990375 0.18894818
0.44124222 -0.070136964 0.19369499
0.44661903 -0.072292551 0.19295546
0.4398976 -0.068383336 0.19029538
0.44065768 -0.067246608 0.19276394
0.44035164 -0.064658813 0.1926908
0.43347758 -0.055741217 0.19175446
0.43531936 -0.057308402 0.19026664
0.43316182 -0.052706968 0.19208425
0.47394577 -0.051654559 0.19458297
0.47531652 -0.050236333 0.19478887
0.48867008 -0.052137189 0.19374143
0.49109587 -0.052279845 0.19445269
0.43195787 -0.047511373 0.19221434
0.47460127 -0.047380157 0.19416052
0.47710165 -0.047385927 0.19447792
0.48325425 -0.04673177 0.19430806
0.48808435 -0.047540702 0.1941919
0.49205309 -0.04742983 0.1944062
0.42961937 -0.040043328 0.19324574
0.43081415 -0.042469408 0.19388576
0.47178423 -0.041205786 0.19434798
0.47780055 -0.04313175 0.19418791
0.48186767 -0.043124575 0.19437264
0.48839957 -0.043935202 0.19456866
0.49092174 -0.043545321 0.19474339
0.42961937 -0.037339691 0.19324575
0.43040928 -0.037039287 0.19393967
0.47203061 -0.03921295 0.19429816
0.47774628 -0.037955329 0.194594
0.48010024 -0.037820101 0.19499809
0.50860661 -0.037316456 0.19408461
0.43285912 -0.03238875 0.19237584
0.47909337 -0.034182288 0.19411355
0.4813405 -0.034450196 0.19475654
0.43388784 -0.027565576 0.1919844
0.43419325 -0.023412492 0.19306582
0.43572536 -0.021224609 0.1929896
0.49564224 -0.024002958 0.19400969
0.43754536 -0.017278288 0.19234318
0.43936875 -0.01292143 0.19194481
0.44019422 -0.011689737 0.19388354
0.43958795 -0.0093740225 0.19268546
0.4422937 -0.0076870765 0.19385237
0.44591549 -0.0050345212 0.19425084
0.44626063 -0.0041157752 0.19455403
0.44281304 -0.070264004 0.1978479
0.44559389 -0.070072666 0.19929257
0.47908187 -0.070183128 0.19942766
0.48388731 -0.070322521 0.19965596
0.43961722 -0.065395653 0.1980354
0.44115385 -0.067601845 0.19736204
0.47865719 -0.067361727 0.19807848
0.48225701 -0.067044079 0.19919993
0.48674592 -0.066194475 0.19950511
0.49158677 -0.065733165 0.19976452
0.49653816 -0.065865107 0.19945544
0.43868878 -0.062856756 0.19834605
0.44046313 -0.064526878 0.19744745
0.47467434 -0.062337447 0.19688688
0.47777659 -0.062536843 0.19781128
0.48212916 -0.062714264 0.19877706
0.48654553 -0.062745579 0.19919594
0.4932619 -0.062511057 0.19794334
0.49749616 -0.062375721 0.19879077
0.50227749 -0.061894566 0.19917299
0.50605714 -0.060218934 0.19916582
0.43386665 -0.055722423 0.19710997
0.43580356 -0.057789966 0.1987808
0.47447276 -0.057460546 0.19670981
0.47719252 -0.058068983 0.19765703
0.4824616 -0.057704464 0.19736831
0.48759449 -0.057523113 0.19681196
0.49259919 -0.057019327 0.19652052
0.49743888 -0.057297885 0.19741818
0.50291222 -0.057052769 0.19800034
0.50712508 -0.057429135 0.19915313
0.43312863 -0.052650213 0.19730465
0.47439852 -0.053635776 0.19624524
0.47691509 -0.052366525 0.19724685
0.49317533 -0.052407827 0.19566935
0.49810252 -0.052002758 0.19718263
0.50114506 -0.053789467 0.19884378
0.50806934 -0.054344393 0.19960234
0.51301503 -0.050933283 0.19995388
0.43209928 -0.04769592 0.19738391
0.47896045 -0.048579432 0.19599338
0.4930369 -0.047624391 0.19518168
0.49732304 -0.047645751 0.19695994
0.51227206 -0.047076646 0.19930124
0.43189144 -0.042416602 0.19719666
0.46968517 -0.043582432 0.19516605
0.47241718 -0.042155217 0.19556949
0.47603181 -0.041191764 0.19541723
0.48383787 -0.041955929 0.19517568
0.48684528 -0.041521195 0.19619079
0.49278283 -0.043380506 0.19504726
0.50977528 -0.041294333 0.19777335
0.51143658 -0.042033605 0.19864126
0.43136868 -0.037368588 0.1973639
0.4688341 -0.03591894 0.19558308
0.47202152 -0.037171841 0.19598983
0.47709399 -0.038167559 0.19546294
0.48251432 -0.037809145 0.19600959
0.48691666 -0.039152011 0.19661267
0.50289649 -0.03565561 0.19505814
0.50812399 -0.036778469 0.19589934
0.51197004 -0.037678923 0.1980377
0.43292046 -0.032459725 0.19731036
0.46881378 -0.033680484 0.19573161
0.47174084 -0.033409923 0.19614002
0.4836635 -0.03491132 0.19546616
0.50243455 -0.032439739 0.19598345
0.50680798 -0.032682475 0.19708495
0.51223385 -0.032706689 0.19832486
0.43354511 -0.027530026 0.19722691
0.43503588 -0.025623916 0.19800401
0.49459362 -0.025538001 0.19575065
0.49807802 -0.026739458 0.19684392
0.50245267 -0.028185951 0.19777414
0.5079841 -0.027597651 0.19882286
0.51174396 -0.028303623 0.19950278
0.43460977 -0.024251934 0.19696414
0.43645769 -0.021736974 0.19701445
0.48441553 -0.020588342 0.198789
0.48868883 -0.020891668 0.19721875
0.49377102 -0.021871582 0.19625668
0.49755156 -0.022124402 0.19808294
0.50207299 -0.022370256 0.19948144
0.50783885 -0.023209164 0.19916508
0.51218945 -0.023757931 0.19989416
0.43747973 -0.017431656 0.19714151
0.4829382 -0.017740097 0.19809018
0.48737964 -0.017382737 0.19884163
0.49282917 -0.017177086 0.19819377
0.49740705 -0.017533714 0.19850247
0.50218195 -0.017482605 0.19948843
0.43899602 -0.013721475 0.19739462
0.44109994 -0.011459737 0.19800688
0.48183519 -0.013107966 0.19918434
0.48513478 -0.012451123 0.19942081
0.49482864 -0.014513042 0.19995025
0.49735123 -0.014402581 0.1995042
0.44280931 -0.0083305594 0.19719352
0.44551462 -0.0059821983 0.19675101
0.48441553 -0.0091005005 0.198789
0.48513475 -0.0086218417 0.19942081
0.44490892 -0.0044278689 0.19869083
0.44644168 -0.0041937977 0.19604416
0.45615661 -0.081377901 0.20427136
0.47288081 -0.082393929 0.20391873
0.478383 -0.081374668 0.2029971
0.48279545 -0.080989979 0.20322238
0.48533022 -0.080702253 0.20358568
0.49289009 -0.082272567 0.20137921
0.49643493 -0.081145152 0.20242627
0.50195831 -0.081550628 0.20282534
0.50555319 -0.080928437 0.2036036
0.44835058 -0.075875081 0.20304532
0.45241445 -0.07698936 0.20436276
0.4579469 -0.077842563 0.20458527
0.46112841 -0.075895488 0.20495296
0.46650642 -0.076651305 0.20454337
0.47271574 -0.077400289 0.20403998
0.47873798 -0.078964524 0.2023201
0.48280448 -0.07821051 0.20231758
0.48692703 -0.076601163 0.20195659
0.49277839 -0.077507861 0.20205359
0.49690312 -0.077459604 0.20259181
0.5016377 -0.077388309 0.20304786
0.50662214 -0.077796645 0.20414563
0.51234794 -0.075687215 0.20374133
0.44432065 -0.071499497 0.20320256
0.44660199 -0.073498391 0.20372771
0.45098239 -0.074147418 0.20469178
0.4581202 -0.07283242 0.20478232
0.46209854 -0.072253816 0.20457655
0.46729389 -0.072806992 0.20451251
0.47241479 -0.072707839 0.20435236
0.476354 -0.07277932 0.20349649
0.48251939 -0.072041661 0.20123747
0.48751831 -0.07227587 0.20171443
0.49176365 -0.072607599 0.20228621
0.49759191 -0.072664194 0.20163827
0.50158727 -0.072526745 0.20307755
0.50682712 -0.072862044 0.20303674
0.51245236 -0.072371647 0.20251319
0.51630658 -0.071784183 0.20324479
0.43965039 -0.065738216 0.20172498
0.44185674 -0.06760636 0.2032565
0.44614041 -0.069006644 0.20420955
0.45331365 -0.067380428 0.20474318
0.45765013 -0.068887413 0.2045595
0.46299845 -0.068065546 0.20393364
0.46515208 -0.068187833 0.20449448
0.48015279 -0.068757668 0.20036846
0.48719326 -0.067965865 0.20051919
0.49203661 -0.067730136 0.20076473
0.49801186 -0.068094239 0.20063265
0.50275457 -0.067520387 0.20176241
0.5065459 -0.067189902 0.20287842
0.51262438 -0.067102149 0.20227274
0.51720995 -0.067335822 0.20280707
0.52240962 -0.066739708 0.2038333
0.43832928 -0.06222197 0.20245968
0.44055688 -0.064350955 0.20374143
0.45331496 -0.064182341 0.20474431
0.45747364 -0.06351608 0.20484811
0.48585397 -0.064625062 0.20005262
0.498081 -0.06491261 0.20014527
0.50314206 -0.063672677 0.20076448
0.50745147 -0.06215905 0.20135202
0.51196629 -0.062052403 0.20247768
0.51734149 -0.062326562 0.20286717
0.52290571 -0.062531173 0.20338842
0.52635634 -0.060490701 0.20368755
0.43663907 -0.057683352 0.20247783
0.50908542 -0.057664111 0.20049497
0.51217633 -0.057321832 0.20152891
0.51733142 -0.057384402 0.20233154
0.52253294 -0.057380762 0.20247899
0.52716005 -0.057217952 0.20314087
0.53008687 -0.055530522 0.20430264
0.43319747 -0.05214889 0.20237876
0.43553692 -0.053999666 0.20317677
0.49971113 -0.051325154 0.20024626
0.5020743 -0.051893506 0.20190194
0.50927019 -0.052746009 0.20065723
0.51303226 -0.05263105 0.20119773
0.5171845 -0.052256785 0.20212902
0.52236027 -0.052704349 0.20232722
0.52724451 -0.052688163 0.20290178
0.53084648 -0.052158535 0.20347244
0.4322632 -0.047546558 0.20293657
0.49830443 -0.046941761 0.20109028
0.50150353 -0.047829725 0.20291696
0.51364028 -0.047388628 0.20094685
0.51704526 -0.047476016 0.20249616
0.52214903 -0.047487751 0.20336355
0.52721411 -0.047234397 0.20381986
0.53123337 -0.048319589 0.2034463
0.42995766 -0.042327922 0.20152926
0.431566 -0.042191364 0.20283969
0.4975597 -0.043223921 0.20153601
0.50136483 -0.044028655 0.20303009
0.51356202 -0.042977933 0.20091844
0.51729983 -0.042574216 0.20203668
0.52224714 -0.042335451 0.20305304
0.52752411 -0.04249927 0.20411447
0.43201548 -0.037421141 0.20273197
0.47455502 -0.035884075 0.20343731
0.47795081 -0.036849756 0.20394847
0.48140427 -0.035379756 0.20457368
0.51448673 -0.037572183 0.20018189
0.51736456 -0.037426397 0.20147571
0.52214342 -0.037588526 0.20313901
0.52786845 -0.037757333 0.2035961
0.53121036 -0.037197035 0.20456351
0.4339498 -0.032523129 0.20214459
0.43506938 -0.033218481 0.20291393
0.45886865 -0.030732252 0.20429885
0.46399069 -0.031396475 0.20347425
0.46770713 -0.031834304 0.20383491
0.47199002 -0.032471757 0.20428985
0.47704166 -0.032892998 0.20453271
0.48033509 -0.034131967 0.20452178
0.51466888 -0.032617088 0.20007573
0.51719487 -0.032609649 0.20186882
0.52215803 -0.032689188 0.20349352
0.52745968 -0.032395568 0.20423643
0.43366474 -0.027562287 0.20212363
0.45851082 -0.026698869 0.20337944
0.46322447 -0.027273571 0.20350167
0.46777678 -0.027774917 0.20406409
0.47142014 -0.027292114 0.20452864
0.5136683 -0.027288413 0.20074968
0.51753384 -0.027747577 0.20208552
0.5218423 -0.027600218 0.20353773
0.52729237 -0.027502431 0.20415954
0.53008687 -0.027449135 0.20430264
0.43446231 -0.023482462 0.20234029
0.43550989 -0.022076482 0.20307904
0.46258393 -0.0223132 0.202337
0.46746063 -0.022740265 0.20359418
0.47142893 -0.022691723 0.20413621
0.50745976 -0.020552224 0.20039797
0.51288146 -0.022092352 0.20090137
0.51705301 -0.022955239 0.20238315
0.52173591 -0.022285633 0.20390703
0.52667838 -0.022838254 0.2043864
0.53055781 -0.022058515 0.20471634
0.43451613 -0.019465333 0.20154053
0.43685126 -0.01768199 0.20297764
0.45888686 -0.016827529 0.20418178
0.46227202 -0.018703219 0.20351736
0.46515208 -0.019493386 0.20449448
0.47007349 -0.019300519 0.20349357
0.50323945 -0.015419866 0.20094989
0.50733006 -0.017509341 0.20139322
0.51145983 -0.018121006 0.20233877
0.5173763 -0.017537333 0.20293331
0.5219534 -0.018058216 0.20422232
0.52619946 -0.018214328 0.20443709
0.43916821 -0.014431261 0.20182429
0.44140851 -0.012037593 0.20299217
0.45956022 -0.012322251 0.20490634
0.48496413 -0.010121819 0.20060194
0.48758253 -0.012626537 0.20060301
0.49202421 -0.012311493 0.20135882
0.49832171 -0.012538376 0.20082647
0.50261813 -0.012240887 0.20188485
0.50783521 -0.012207142 0.20298474
0.51292264 -0.012385122 0.20348559
0.51810384 -0.013158885 0.20366368
0.52321261 -0.014678732 0.20491904
0.44336614 -0.0077632628 0.20223954
0.44589469 -0.0061440533 0.20371637
0.47345677 -0.0065693902 0.204336
0.47650376 -0.0062468266 0.20476896
0.48496413 -0.0082106851 0.20060194
0.48790044 -0.0075268499 0.20223865
0.49248877 -0.00777392 0.20356929
0.49635601 -0.0084031625 0.2038063
0.50172192 -0.0074606976 0.20371349
0.50747752 -0.007554268 0.20401524
0.51238906 -0.0071938685 0.2046396
0.51651144 -0.0092335353 0.2046892
0.444074 -0.0040446194 0.20172875
0.44597426 -0.0040576234 0.20361987
0.47271487 -0.0023987363 0.20448291
0.47688785 -0.0033365935 0.20495427
0.48676166 -0.004537452 0.20484316
0.49413031 -0.0041648671 0.20466104
0.49868998 -0.0033620615 0.20300959
0.50170743 -0.0028791327 0.20402826
0.50811523 -0.0039825216 0.20496693
0.51232725 -0.0042525344 0.20467395
0.45909917 0.0039399154 0.20450136
0.47395155 0.00096363015 0.20423824
0.47764003 0.0016215699 0.20459454
0.49946558 0.0033472888 0.20468931
0.50164199 0.00061186869 0.20393905
0.46154827 0.006733303 0.20415711
0.45735502 -0.082463957 0.20575236
0.46094331 -0.080991559 0.20612137
0.47376904 -0.082451202 0.20540896
0.45296237 -0.075866565 0.20532194
0.46115378 -0.077787973 0.20570128
0.46646956 -0.077268183 0.20528881
0.47376904 -0.075897247 0.20540896
0.50976253 -0.077775069 0.20508298
0.44758451 -0.07179065 0.20570007
0.45297557 -0.072403125 0.20536768
0.45555893 -0.072457202 0.20538455
0.46622047 -0.072252609 0.20526664
0.44353676 -0.066579051 0.2054719
0.44771117 -0.067923069 0.20571627
0.45286846 -0.067101009 0.20532019
0.45710102 -0.066340797 0.20555608
0.46602309 -0.068883471 0.20525965
0.52488357 -0.065913759 0.20505589
0.439228 -0.061127163 0.20567976
0.44235426 -0.062711783 0.20609684
0.44842672 -0.062294181 0.20657304
0.45230243 -0.063441344 0.20618418
0.45787257 -0.064115427 0.20564222
0.46006534 -0.064753056 0.20668116
0.52488357 -0.062926084 0.20505589
0.52563179 -0.063921973 0.20571318
0.43863699 -0.057283413 0.20623568
0.44164613 -0.057546917 0.20770897
0.44806266 -0.058169879 0.20657544
0.45168203 -0.059927881 0.20996514
0.432998 -0.051225871 0.20519842
0.43728143 -0.05243123 0.20676982
0.4419075 -0.052742783 0.20812872
0.44811997 -0.054204129 0.20639226
0.43365869 -0.047667805 0.20596364
0.43747976 -0.047745839 0.2076221
0.4417803 -0.04778868 0.20853619
0.4463203 -0.045751017 0.20791712
0.43344885 -0.042470213 0.20613195
0.43618065 -0.04233209 0.20755059
0.44248056 -0.0421535 0.20671317
0.44617155 -0.042072862 0.20803599
0.52991235 -0.041495964 0.20548031
0.43354723 -0.037639506 0.20586582
0.43785474 -0.036926374 0.2065213
0.44232622 -0.037241001 0.20773599
0.44567722 -0.038511045 0.20868322
0.47831187 -0.037946638 0.20629399
0.48201108 -0.036151059 0.20561376
0.53252316 -0.035455734 0.2051118
0.43408009 -0.031779546 0.20611881
0.43706232 -0.032457337 0.20759884
0.44189852 -0.03283621 0.20881231
0.44586891 -0.030129982 0.2075206
0.47376904 -0.030487662 0.20540896
0.47805166 -0.031353664 0.20539981
0.48182884 -0.032611478 0.2053016
0.52988279 -0.032156106 0.2056762
0.53098667 -0.032343566 0.20642409
0.43323743 -0.027889349 0.20624854
0.43632472 -0.027174214 0.20783246
0.44259286 -0.027737997 0.20708294
0.44583082 -0.027614122 0.20775335
0.4735029 -0.027757412 0.20565051
0.47699779 -0.027974699 0.20591608
0.48015261 -0.029435661 0.20569253
0.52977896 -0.027585968 0.20636147
0.53041345 -0.027522424 0.20778409
0.43797538 -0.022905465 0.2059105
0.44213706 -0.022351319 0.20743673
0.44752613 -0.02188763 0.20723578
0.45051432 -0.020525221 0.20760828
0.47333613 -0.024095384 0.20597941
0.5315938 -0.022936055 0.20562643
0.43922791 -0.017673425 0.20567977
0.44221985 -0.017622577 0.20705533
0.44800508 -0.017459571 0.20673501
0.45163527 -0.016892565 0.20688163
0.45537251 -0.015311684 0.20655182
0.46304435 -0.016544497 0.2056378
0.46566376 -0.018152962 0.20627508
0.52488357 -0.015621148 0.20505589
0.52772611 -0.017304424 0.20588915
0.43922794 -0.014985565 0.20567974
0.44276124 -0.013034542 0.20688954
0.44747141 -0.011917773 0.20766062
0.45260024 -0.0129967 0.20677863
0.45669916 -0.012359409 0.20618144
0.46233341 -0.012409578 0.20593764
0.46601087 -0.012594018 0.20657997
0.51945376 -0.011213268 0.20561014
0.52181828 -0.012656013 0.2061661
0.52664036 -0.013419488 0.20633291
0.4438377 -0.0089514684 0.20573625
0.44723991 -0.0075584804 0.20734282
0.45333853 -0.0075059799 0.20722243
0.45657948 -0.0071076313 0.20792529
0.46243832 -0.0080572693 0.20610373
0.46682459 -0.0074175214 0.20563099
0.47855273 -0.0059260912 0.2056182
0.48140073 -0.0057805646 0.20545794
0.48998943 -0.0053439848 0.20501655
0.49070734 -0.0053439848 0.20564723
0.51472008 -0.0061470112 0.2054449
0.51768827 -0.0073886639 0.20661038
0.52174306 -0.0087203225 0.20717764
0.44826022 -0.0045118541 0.20616053
0.45346493 -0.0026359621 0.20673956
0.45696905 -0.0025552327 0.20847528
0.46125406 -0.0007550735 0.20905656
0.46626702 -0.0039111609 0.2054739
0.47748837 -0.0022139931 0.20557055
0.48275131 -0.0019934387 0.20586786
0.48759094 -0.0023806212 0.20718288
0.49052352 -0.0035091229 0.20681682
0.50423181 -0.0020526026 0.2055486
0.50760639 -0.0025791537 0.20558475
0.51193786 -0.002384291 0.20597008
0.51684219 -0.0038970476 0.2066436
0.45424956 0.00040256511 0.20623085
0.45744398 0.0017660584 0.20753092
0.46182951 0.0025230665 0.20838757
0.46797585 0.0032818567 0.20806408
0.47300249 0.0039294926 0.20798926
0.4786194 0.002697502 0.20620914
0.48285848 0.002451251 0.2061047
0.48761192 0.002588053 0.207555
0.49069473 0.0030790283 0.20829827
0.49973857 0.0042704195 0.20559466
0.50324947 0.0028047513 0.2061983
0.50715971 0.0015243327 0.20712243
0.51031637 0.0004122071 0.20690057
0.46267 0.0062082019 0.20683967
0.46796933 0.0064121145 0.20785674
0.47272888 0.007667941 0.20763269
0.47687307 0.007066506 0.20789382
0.48277447 0.0075055375 0.2069975
0.48825672 0.0070553855 0.20687331
0.49098492 0.0063532027 0.20802079
0.50364429 0.0053719487 0.20702913
0.44293237 -0.032943644 0.21119688
0.45949021 -0.0025228709 0.21016914
0.46263188 0.0013081618 0.21026698
