# .PCD v0.7 - Point Cloud Data file format
VERSION 0.7
FIELDS x y z
SIZE 4 4 4
TYPE F F F
COUNT 1 1 1
WIDTH 134
HEIGHT 1
VIEWPOINT 0 0 0 1 0 0 0
POINTS 134
DATA ascii
0.34702703 -0.060985148 0.056418929
0.34306395 -0.050337587 0.064631775
0.35026258 -0.050380982 0.064965844
0.35162729 -0.048920017 0.064833641
0.37157381 -0.042825576 0.064608738
0.37909418 -0.042467311 0.064116232
0.38166043 -0.041359719 0.064263068
0.3860268 -0.040408023 0.064438462
0.38254175 -0.03940494 0.063772753
0.3876687 -0.038691413 0.063958153
0.39090633 -0.038332954 0.064731821
0.40084755 -0.035139255 0.064147562
0.40230584 -0.034082871 0.064097479
0.3437919 -0.056572001 0.069929987
0.34738684 -0.055199143 0.06776382
0.33908278 -0.05319684 0.065793097
0.34250581 -0.052623369 0.066454992
0.34750798 -0.052434638 0.0667293
0.35249451 -0.05189788 0.066793434
0.35657623 -0.050961334 0.067850128
0.35357335 -0.049170963 0.065544963
0.35737649 -0.048575342 0.066689648
0.36260676 -0.047802299 0.067291141
0.36750615 -0.046645038 0.067212865
0.37173995 -0.046663985 0.067749575
0.37774217 -0.045881271 0.067143552
0.38261232 -0.045506716 0.066763163
0.36738849 -0.044502053 0.066699982
0.37310663 -0.043584108 0.065672942
0.37710759 -0.043589439 0.066452943
0.38301402 -0.043166351 0.067013666
0.3880282 -0.04170274 0.066995226
0.39244235 -0.041183271 0.068231374
0.39504609 -0.040392242 0.069699556
0.3933081 -0.038139261 0.066758566
0.39726979 -0.037369892 0.067417838
0.40264302 -0.036742263 0.067369081
0.40546724 -0.035972264 0.06847208
0.4039171 -0.034092076 0.066178516
0.4059163 -0.033755288 0.068600349
0.39360166 -0.022511749 0.069761753
0.40372103 -0.021186667 0.068668455
0.40557349 -0.02114634 0.06896472
0.3443239 -0.061652638 0.071728401
0.34728929 -0.061869696 0.073268607
0.35213277 -0.061082941 0.074299365
0.35504925 -0.060055874 0.074495077
0.3437576 -0.058062777 0.071896434
0.34728912 -0.057671502 0.073049761
0.35224336 -0.057235248 0.073638447
0.35750005 -0.056448277 0.074318685
0.36232579 -0.056021675 0.074564792
0.36663213 -0.056103475 0.074613452
0.37037319 -0.055383243 0.074646205
0.34894511 -0.05421114 0.070463747
0.35270479 -0.05353323 0.072435476
0.35801512 -0.05243123 0.072546877
0.36247 -0.052225921 0.073330186
0.36723474 -0.052279327 0.073924892
0.37255144 -0.051972084 0.073897623
0.37753734 -0.051732875 0.074395329
0.38118133 -0.050847076 0.073936105
0.34209076 -0.046861459 0.073759794
0.34699365 -0.046444751 0.073630035
0.35279655 -0.045971263 0.07264924
0.35727793 -0.045487724 0.073347092
0.36262113 -0.049427867 0.071563117
0.36704594 -0.049118727 0.071945138
0.37306026 -0.048413433 0.071777537
0.37676024 -0.047992066 0.073768161
0.38228801 -0.047233406 0.072615921
0.38746849 -0.047056306 0.072271496
0.39201096 -0.04759011 0.073156133
0.3969548 -0.046252046 0.073796451
0.40218893 -0.045513727 0.073312268
0.40756613 -0.045777168 0.071380727
0.34288812 -0.042825792 0.072305217
0.34727895 -0.042426843 0.07277149
0.35250452 -0.042573947 0.073004961
0.35784349 -0.042481631 0.074065782
0.36236048 -0.041371655 0.073996298
0.36752599 -0.040880255 0.072144993
0.37028563 -0.040542152 0.073238254
0.3834866 -0.044293761 0.07125815
0.38708422 -0.044089496 0.071490251
0.39254123 -0.043571915 0.071226053
0.39728066 -0.042525318 0.071995407
0.40254486 -0.042123452 0.072450481
0.40782005 -0.042458475 0.072876908
0.41068009 -0.041891344 0.07411629
0.34389001 -0.039384954 0.071347229
0.3489306 -0.039090216 0.071249656
0.35284615 -0.038428281 0.072349556
0.35757184 -0.038738582 0.074049011
0.36268255 -0.037494048 0.073119305
0.36728519 -0.037593182 0.072931759
0.37233141 -0.037179504 0.073767737
0.3771086 -0.036525019 0.074288093
0.38203219 -0.036474857 0.074239857
0.3880752 -0.035397433 0.073558763
0.39157629 -0.035339136 0.071975648
0.39748022 -0.039361063 0.070839591
0.40310764 -0.039063875 0.070458934
0.40698943 -0.037723899 0.07143455
0.36295167 -0.034690402 0.073450834
0.36797887 -0.034414601 0.072276622
0.37269697 -0.032838285 0.072391838
0.37742797 -0.032264661 0.073389709
0.38241878 -0.032266036 0.07399714
0.38734508 -0.032204472 0.073361084
0.39239818 -0.031961065 0.072115287
0.39765456 -0.031691764 0.072157487
0.40128815 -0.03044383 0.072520956
0.37403139 -0.029536478 0.071204558
0.37782648 -0.028565928 0.071634263
0.38185272 -0.028517617 0.07248497
0.38714677 -0.027624292 0.071722656
0.39203757 -0.027242631 0.071641408
0.39731631 -0.027183065 0.071693882
0.40229544 -0.027245898 0.072074801
0.40541103 -0.025894806 0.072149634
0.3879419 -0.023211328 0.071445078
0.39171937 -0.023685481 0.070960417
0.39783341 -0.023323542 0.07093811
0.40262356 -0.023963949 0.070898823
0.40617582 -0.023443839 0.071342513
0.35577902 -0.05811318 0.075136155
0.36230102 -0.056450497 0.075275123
0.36692521 -0.05385258 0.075610369
0.36064044 -0.043535091 0.075413615
0.37823734 -0.035539016 0.076230429
0.38458601 -0.035455734 0.075152308
0.37823734 -0.034543123 0.076230429
0.38458601 -0.033948742 0.075152308
