# .PCD v0.7 - Point Cloud Data file format
VERSION 0.7
FIELDS x y z
SIZE 4 4 4
TYPE F F F
COUNT 1 1 1
WIDTH 140
HEIGHT 1
VIEWPOINT 0 0 0 1 0 0 0
POINTS 140
DATA ascii
0.34630468 -0.062093381 0.056544963
0.33880773 -0.043428235 0.057269327
0.3425504 -0.042391367 0.05857908
0.34573591 -0.040589493 0.0596582
0.34668124 -0.038718577 0.056661829
0.35026258 -0.050380982 0.064965844
0.35208219 -0.048759148 0.064789578
0.35885781 -0.047472201 0.064530239
0.36061046 -0.047476586 0.06473884
0.3739157 -0.042483967 0.064447641
0.37824211 -0.042468771 0.063811406
0.38175237 -0.041442487 0.063959874
0.38966119 -0.040392242 0.064969033
0.38345024 -0.039397225 0.063506037
0.38752422 -0.038788944 0.06385237
0.39171046 -0.03806809 0.064606324
0.40254804 -0.035504606 0.063644752
0.40332413 -0.034055255 0.062995456
0.40701652 -0.033118099 0.064575396
0.3437919 -0.057054169 0.069929987
0.34892577 -0.052852988 0.066453591
0.35262713 -0.051775217 0.067296587
0.35625696 -0.050393842 0.068457037
0.36022538 -0.050414734 0.069059208
0.35357335 -0.049170963 0.065544963
0.35707721 -0.048935357 0.066692941
0.36261231 -0.04768062 0.067057788
0.36730042 -0.046986777 0.067573339
0.37172353 -0.046696879 0.068023555
0.37764716 -0.045503646 0.067060098
0.36910921 -0.044500738 0.066214979
0.37317547 -0.043694817 0.065927044
0.37796074 -0.044496443 0.067468651
0.38311172 -0.043016504 0.066475824
0.38783079 -0.0417035 0.066910587
0.39199534 -0.040956896 0.068350628
0.34921122 -0.037714902 0.069366515
0.39369851 -0.038413316 0.066740975
0.39642751 -0.03738834 0.067585483
0.40208426 -0.037232738 0.067304492
0.40632281 -0.035854489 0.066865727
0.40897304 -0.032773655 0.065961353
0.3942768 -0.022985149 0.069023758
0.39741746 -0.022427909 0.068636633
0.40337923 -0.021724502 0.069033667
0.40523064 -0.021685053 0.069329083
0.34437212 -0.062005579 0.07177075
0.34703636 -0.061857425 0.07357876
0.35214195 -0.060977694 0.074203886
0.35504925 -0.060055874 0.074495077
0.34414414 -0.058259349 0.071449511
0.34726635 -0.057670664 0.073077276
0.35227191 -0.057115044 0.073617779
0.35749999 -0.056448288 0.074318692
0.36249942 -0.056146052 0.074550956
0.36695835 -0.055765849 0.074498609
0.37037319 -0.055383243 0.074646205
0.34894511 -0.05421114 0.070463747
0.35353991 -0.053271487 0.071633287
0.3576149 -0.052704927 0.072607897
0.3626298 -0.052276142 0.072865605
0.36718309 -0.052395657 0.07380528
0.37239429 -0.052076545 0.073759571
0.37736094 -0.051636297 0.074334256
0.38118133 -0.050847076 0.073936105
0.33967754 -0.045797184 0.0725272
0.34215468 -0.046627451 0.073815964
0.34777653 -0.046446502 0.073430434
0.35230494 -0.046132751 0.072232127
0.35675785 -0.045488015 0.072446525
0.36313748 -0.049434181 0.070951901
0.3668685 -0.049447987 0.071900181
0.37316561 -0.048192099 0.071618445
0.37720811 -0.047447156 0.073171251
0.38189453 -0.047383327 0.073453426
0.38738728 -0.047170836 0.072680406
0.39282691 -0.046863601 0.073370099
0.39818153 -0.045852706 0.073341355
0.4022603 -0.045514315 0.072487615
0.40756613 -0.045777168 0.071380727
0.33887741 -0.042903692 0.071960814
0.34234673 -0.042746753 0.073119476
0.34773451 -0.042423282 0.072210342
0.35240275 -0.042574648 0.073128507
0.35778171 -0.042434569 0.074001923
0.3621482 -0.042450044 0.073942922
0.36752218 -0.040974725 0.072331831
0.37094104 -0.040534262 0.072482884
0.38272172 -0.044207748 0.071422897
0.38708422 -0.044089492 0.071490251
0.39278382 -0.043129664 0.071261697
0.39724743 -0.042439811 0.071843565
0.402549 -0.04211656 0.072031312
0.40774074 -0.042584158 0.072199598
0.41081798 -0.042256787 0.07290636
0.34335777 -0.039725099 0.07354176
0.34853891 -0.039065845 0.070772424
0.3528128 -0.038267914 0.072340302
0.35801688 -0.038730282 0.073518433
0.36262071 -0.037436478 0.072982579
0.36754617 -0.037587829 0.072628595
0.37162989 -0.037252713 0.073998846
0.37783718 -0.036717605 0.074281648
0.3818419 -0.036366981 0.074368522
0.3880752 -0.035397433 0.073558763
0.39703822 -0.039361868 0.070562236
0.40276051 -0.038707554 0.070752963
0.40686259 -0.037468605 0.07187181
0.41059515 -0.039291147 0.072710633
0.36359981 -0.034180183 0.072689101
0.36821282 -0.034184318 0.072177939
0.37262827 -0.032808788 0.072634004
0.37720478 -0.032076035 0.073474661
0.38232911 -0.032453049 0.073909149
0.38774368 -0.032002166 0.073172465
0.39243835 -0.031969838 0.072425768
0.3972182 -0.031423271 0.072222054
0.40124527 -0.030621573 0.072816059
0.40639839 -0.034119692 0.070354894
0.37374815 -0.029563654 0.072286785
0.377799 -0.028649513 0.071963064
0.38203219 -0.027961595 0.072317243
0.38712353 -0.027391966 0.071636856
0.39211521 -0.027366471 0.071744375
0.39738575 -0.027293086 0.071614817
0.40200967 -0.027258094 0.072378322
0.40541103 -0.025894806 0.072149634
0.38746485 -0.023898927 0.071469665
0.39139038 -0.023789931 0.070924953
0.39873755 -0.024202619 0.070613109
0.40216234 -0.023706444 0.070626773
0.40690169 -0.023564275 0.071329467
0.35577902 -0.05811318 0.075136155
0.34416848 -0.046435982 0.075585067
0.39539629 -0.047033869 0.07533145
0.37392327 -0.037557103 0.075102717
0.37647697 -0.036142163 0.075216375
0.38458601 -0.035455734 0.075152308
0.37724108 -0.034543123 0.075355217
0.38458601 -0.033948742 0.075152308
