# .PCD v0.7 - Point Cloud Data file format
VERSION 0.7
FIELDS x y z
SIZE 4 4 4
TYPE F F F
COUNT 1 1 1
WIDTH 143
HEIGHT 1
VIEWPOINT 0 0 0 1 0 0 0
POINTS 143
DATA ascii
0.34410295 -0.055684816 0.064879
0.33933634 -0.05224565 0.064684868
0.34410295 -0.054227795 0.064879
0.35026258 -0.050380982 0.064965844
0.35094461 -0.049406566 0.064899445
0.35885781 -0.047472201 0.064530239
0.37456715 -0.042479586 0.063688815
0.37744981 -0.04236104 0.064298548
0.38133341 -0.041446231 0.064308554
0.38295576 -0.039404459 0.064069934
0.3877424 -0.038349025 0.063874997
0.39254075 -0.036266647 0.064836562
0.39939195 -0.035155911 0.06419991
0.40123746 -0.034101281 0.06449008
0.40562207 -0.03300282 0.064348638
0.3387205 -0.055125501 0.065474868
0.34466693 -0.055950977 0.066971712
0.3460004 -0.055560507 0.068409316
0.33908275 -0.053679004 0.065793097
0.34247971 -0.052513406 0.066115156
0.34750131 -0.052552722 0.066603333
0.35238627 -0.051770624 0.06759204
0.3573398 -0.050767262 0.06868729
0.36091661 -0.050419554 0.0690009
0.3536261 -0.049022499 0.065790921
0.35737345 -0.048836466 0.066953205
0.3627241 -0.047994234 0.067086019
0.36772087 -0.046646114 0.067196704
0.37251329 -0.046345819 0.067618325
0.37852928 -0.045671679 0.067835003
0.3677626 -0.044502053 0.067028612
0.37237424 -0.044052906 0.065903462
0.37786672 -0.044328332 0.066809267
0.38297164 -0.042824809 0.066793561
0.38806 -0.041429866 0.066757001
0.39228415 -0.041143473 0.068725318
0.38679475 -0.039387584 0.065113083
0.39267203 -0.038173579 0.066703305
0.39730617 -0.037277784 0.067589447
0.40231135 -0.036333803 0.067296952
0.4052071 -0.035928912 0.068975635
0.40325114 -0.03408901 0.065371633
0.40606445 -0.033161715 0.066733837
0.38565779 -0.027265035 0.069438547
0.39360166 -0.024045039 0.069761753
0.39695454 -0.022900332 0.06838122
0.40221223 -0.021962078 0.069073357
0.34237128 -0.062230263 0.074006245
0.34761965 -0.061868168 0.073625341
0.35161752 -0.061120149 0.074586183
0.35569012 -0.060083054 0.073727012
0.34399024 -0.058772359 0.071919277
0.34721419 -0.057464264 0.07303153
0.35219038 -0.057233047 0.073702842
0.35733962 -0.056527875 0.074288674
0.36275381 -0.056029234 0.074441686
0.36603433 -0.056318648 0.074384071
0.34894511 -0.05421114 0.070463747
0.35249647 -0.053603612 0.072736487
0.35786721 -0.052937124 0.072644651
0.3625792 -0.05223475 0.073065735
0.36704564 -0.052065648 0.073763981
0.37229005 -0.051451392 0.073546998
0.37678179 -0.051766556 0.073905915
0.38080284 -0.051311474 0.073958538
0.33772784 -0.046607919 0.073421128
0.34234399 -0.046938542 0.074402556
0.34771448 -0.046638757 0.07350897
0.35254303 -0.046091236 0.072958909
0.35684937 -0.045487136 0.073857978
0.36409315 -0.049436815 0.071347766
0.36707041 -0.049027037 0.071554638
0.37279171 -0.048560012 0.071753703
0.37690833 -0.047884233 0.073140316
0.38217691 -0.047232583 0.072740182
0.38738728 -0.04717084 0.072680406
0.39253709 -0.047133017 0.073485196
0.39966169 -0.04602395 0.073754281
0.40321875 -0.045515042 0.072220355
0.40756613 -0.045777168 0.071380727
0.3380962 -0.043655276 0.07303378
0.34207085 -0.042657942 0.07344652
0.34746215 -0.042688187 0.072733916
0.35260341 -0.042493027 0.07301195
0.35774487 -0.042749804 0.074454561
0.36273608 -0.04156493 0.073705092
0.36777431 -0.041111611 0.071602538
0.37094104 -0.040534262 0.072482884
0.38349962 -0.044158988 0.071092099
0.38711509 -0.043987744 0.071606107
0.39254022 -0.043234672 0.07138893
0.39677539 -0.042540617 0.072422989
0.40250397 -0.042122215 0.071788169
0.40763119 -0.042554185 0.072405927
0.41104081 -0.041663662 0.073102087
0.34880427 -0.039092492 0.071404889
0.35256603 -0.038629573 0.072391935
0.35752225 -0.038739592 0.074107818
0.36304599 -0.037627034 0.072816923
0.36783972 -0.03758217 0.072287478
0.37227207 -0.037286926 0.073773235
0.37799641 -0.036319513 0.074554585
0.38184014 -0.036079746 0.074603602
0.38668579 -0.035422418 0.07433477
0.39607179 -0.039026979 0.070600592
0.40246311 -0.038680661 0.070391849
0.40701446 -0.037543993 0.071361981
0.41059515 -0.038772158 0.072710633
0.36424792 -0.034653582 0.071927398
0.36819977 -0.034039669 0.071976304
0.37243229 -0.033072997 0.072661527
0.37735334 -0.032573044 0.073339812
0.38199773 -0.032453675 0.07367719
0.38748264 -0.031964265 0.073260024
0.39247984 -0.032136172 0.072389096
0.39711374 -0.031427044 0.072335057
0.40158811 -0.030609298 0.072451696
0.40600914 -0.033601582 0.070012957
0.37449634 -0.028567761 0.072944075
0.37830961 -0.028967083 0.071635202
0.38242438 -0.028528189 0.071541987
0.38765728 -0.027368531 0.071124978
0.39222175 -0.027304869 0.071461171
0.3972595 -0.027475337 0.071496092
0.40216297 -0.02713827 0.072490744
0.40618691 -0.025894806 0.072831213
0.38813603 -0.024200793 0.070728205
0.39199805 -0.023777947 0.07101512
0.3983748 -0.024724893 0.070627198
0.40314031 -0.023770172 0.070973948
0.40641186 -0.022605214 0.071902514
0.35167497 -0.061423473 0.075524062
0.35167497 -0.059974346 0.075524062
0.35577902 -0.057627507 0.075136155
0.36064044 -0.056719281 0.075413615
0.36823905 -0.055665385 0.076099038
0.36803365 -0.053852577 0.076584131
0.3711161 -0.0524166 0.075298846
0.39570189 -0.046322014 0.075599909
0.35646564 -0.041596781 0.075073808
0.36064044 -0.043535091 0.075413615
0.38458601 -0.035455734 0.075152308
0.38458601 -0.033948742 0.075152308
