# .PCD v0.7 - Point Cloud Data file format
VERSION 0.7
FIELDS x y z
SIZE 4 4 4
TYPE F F F
COUNT 1 1 1
WIDTH 151
HEIGHT 1
VIEWPOINT 0 0 0 1 0 0 0
POINTS 151
DATA ascii
0.38458467 -0.027989162 0.055185258
0.3860833 -0.0269443 0.055931248
0.38640255 -0.024862092 0.05545108
0.34198853 -0.060523145 0.063908875
0.33970591 -0.057089586 0.064210817
0.34135219 -0.057431869 0.064459041
0.34178215 -0.053887945 0.064171247
0.35162663 -0.050880682 0.064833045
0.3739157 -0.04349038 0.064447641
0.37793323 -0.042471986 0.064427391
0.3817288 -0.041241556 0.064389691
0.38317227 -0.03940687 0.064592898
0.3893975 -0.038315855 0.061409771
0.39264926 -0.037411522 0.063850403
0.39832759 -0.034138102 0.064595908
0.34392759 -0.060435973 0.066436306
0.34333163 -0.057234362 0.065920681
0.34702119 -0.056817789 0.068289608
0.35261938 -0.055245165 0.069032818
0.34390828 -0.053243209 0.065905921
0.3479149 -0.053272702 0.066691823
0.35322121 -0.052343119 0.066986181
0.35735574 -0.052230436 0.067679197
0.36167035 -0.050862655 0.067000955
0.35768238 -0.04923483 0.066425942
0.36275682 -0.048279777 0.066707522
0.36744726 -0.047018915 0.067221336
0.37309384 -0.046413351 0.066387683
0.37673113 -0.0460051 0.067919195
0.36819515 -0.044501469 0.066521198
0.37329081 -0.044246286 0.065562472
0.37790999 -0.044193204 0.066758528
0.38305083 -0.04233636 0.066649221
0.38746151 -0.04097674 0.068118848
0.39179596 -0.040607028 0.068707906
0.38431826 -0.03940687 0.06559965
0.38717741 -0.039387584 0.065449238
0.39401135 -0.038155064 0.066904932
0.39680701 -0.03609651 0.067662872
0.40119088 -0.035713032 0.069107875
0.40708703 -0.035139255 0.069628775
0.39762229 -0.034199473 0.068413213
0.40779305 -0.033254951 0.069184124
0.37765199 -0.026178408 0.069726467
0.37883034 -0.024368528 0.068765044
0.3813839 -0.023828503 0.069677174
0.39168108 -0.023071941 0.069849275
0.39721793 -0.022416629 0.069610909
0.39649311 -0.019870352 0.069639683
0.34451637 -0.061875831 0.070566446
0.34693515 -0.062483702 0.072247587
0.35200557 -0.061579425 0.073152266
0.35569012 -0.060083054 0.073727012
0.34451637 -0.05994717 0.070566446
0.34811884 -0.0583947 0.071617074
0.35261023 -0.057256825 0.072685175
0.35785976 -0.056938458 0.072822936
0.361839 -0.057365332 0.073582619
0.33863214 -0.05048202 0.073716395
0.34004143 -0.050722882 0.074621677
0.35795584 -0.053758461 0.071845174
0.36239094 -0.052240312 0.072847269
0.36708346 -0.051863365 0.073804036
0.37258133 -0.051921882 0.073783778
0.37723225 -0.051842544 0.074500442
0.38061112 -0.050506346 0.074322566
0.33771846 -0.047382466 0.072953679
0.34130427 -0.046718709 0.074266866
0.34818289 -0.047578137 0.072678119
0.35223737 -0.046966784 0.072445199
0.35607889 -0.045729168 0.074401282
0.36409315 -0.049436815 0.071347766
0.36730754 -0.049247805 0.072751746
0.3726941 -0.048754212 0.071844839
0.37722278 -0.047586892 0.072798051
0.38168555 -0.047380421 0.07368578
0.38709143 -0.047049437 0.073360108
0.39306182 -0.046017811 0.072615132
0.39647675 -0.04585008 0.07317479
0.33880052 -0.044204131 0.072866008
0.34238285 -0.044042792 0.074182801
0.34750584 -0.043556131 0.074523658
0.35217184 -0.042471252 0.072918087
0.35745236 -0.042611253 0.074514538
0.36317354 -0.041858029 0.073645674
0.3678399 -0.041541632 0.072904773
0.37140197 -0.040542152 0.074218959
0.38325551 -0.043990303 0.07098861
0.38714516 -0.04348176 0.072076209
0.3928152 -0.042705979 0.071566574
0.39755207 -0.042440176 0.071967594
0.40276751 -0.04139515 0.07182394
0.40579897 -0.040869147 0.072490424
0.35244411 -0.038044281 0.072713636
0.35753793 -0.038661264 0.073797375
0.36297616 -0.037938889 0.073139518
0.36777756 -0.037588883 0.072964929
0.37153146 -0.037072197 0.074166268
0.37752932 -0.036715239 0.073878065
0.38140374 -0.036140993 0.073687807
0.3943696 -0.039377939 0.070436358
0.39772058 -0.038143042 0.071050778
0.40245575 -0.037532333 0.07171645
0.40789315 -0.037410852 0.071746297
0.41161364 -0.036672324 0.071275949
0.35134897 -0.034237515 0.072575472
0.36359981 -0.034671992 0.072689101
0.36824656 -0.033306479 0.07175415
0.3723352 -0.032621279 0.072723754
0.37737221 -0.032450259 0.072964907
0.38221404 -0.032441974 0.073135123
0.38709956 -0.031591859 0.072957702
0.3925229 -0.031760581 0.071697988
0.39728618 -0.031632643 0.072083384
0.40148491 -0.033175524 0.071806431
0.40972656 -0.033043146 0.070616394
0.4111999 -0.034064461 0.070579708
0.37344885 -0.028766939 0.072023883
0.37817588 -0.027927795 0.071384594
0.38218784 -0.027505012 0.07220488
0.38743088 -0.027347831 0.072179347
0.39195442 -0.026956651 0.071795873
0.39725348 -0.027619377 0.071765512
0.40081644 -0.026692133 0.072772108
0.37930253 -0.024404472 0.070510894
0.38289875 -0.023828503 0.071007907
0.38743612 -0.023886364 0.071000695
0.39286244 -0.02295476 0.070739172
0.39774048 -0.023086028 0.070450276
0.40242752 -0.022666726 0.071697824
0.40549725 -0.021803401 0.073556483
0.39798918 -0.019848874 0.070288435
0.40270099 -0.01932445 0.070966877
0.40545416 -0.019203646 0.072853059
0.36399338 -0.056277737 0.075253293
0.36622936 -0.05580974 0.075664625
0.34099692 -0.050563913 0.075461
0.36433324 -0.053994894 0.075108171
0.36831954 -0.054361049 0.075504214
0.37748912 -0.051971257 0.075573146
0.38031998 -0.051995803 0.075397849
0.3427572 -0.047730193 0.075486183
0.34619612 -0.045479976 0.075369656
0.34416845 -0.044521343 0.075585067
0.34597057 -0.04420048 0.075393334
0.35715231 -0.041594155 0.075011462
0.37322086 -0.038058992 0.07515119
0.39974529 -0.030178199 0.075158775
0.40051323 -0.030178199 0.07583341
0.39974529 -0.028644908 0.075158775
0.40122768 -0.027260942 0.075573638
