# .PCD v0.7 - Point Cloud Data file format
VERSION 0.7
FIELDS x y z
SIZE 4 4 4
TYPE F F F
COUNT 1 1 1
WIDTH 138
HEIGHT 1
VIEWPOINT 0 0 0 1 0 0 0
POINTS 138
DATA ascii
0.34410295 -0.060055874 0.064879
0.34280929 -0.056921072 0.063742556
0.34361646 -0.053580232 0.06445162
0.3592293 -0.048461083 0.064856559
0.36061046 -0.047476586 0.06473884
0.37891015 -0.04247082 0.064841956
0.38279137 -0.041100591 0.064258292
0.38361311 -0.03940044 0.06409283
0.38803023 -0.038347855 0.063979946
0.39159191 -0.036867894 0.064224884
0.34381995 -0.060954899 0.067958035
0.34450325 -0.057816394 0.066924691
0.34684414 -0.056735452 0.068285301
0.35230291 -0.05523596 0.069420323
0.34483275 -0.053256448 0.065520078
0.34722453 -0.053195331 0.066860653
0.35282061 -0.052383099 0.066807896
0.35727417 -0.052080993 0.067680314
0.36102799 -0.050852008 0.067767695
0.35409978 -0.049418401 0.065674648
0.3581914 -0.04924114 0.065808252
0.36293671 -0.048245717 0.066930301
0.36769652 -0.046757374 0.067414232
0.37138718 -0.046162952 0.06858588
0.37774789 -0.045502771 0.068479627
0.36738849 -0.044502053 0.066699982
0.37215766 -0.043997709 0.066497065
0.37798896 -0.044160154 0.067434289
0.38294828 -0.042698551 0.066853464
0.3874543 -0.041043606 0.067433082
0.39122516 -0.040664665 0.069337837
0.38657236 -0.039390799 0.065361395
0.39316159 -0.037912562 0.067026258
0.39686242 -0.036257297 0.067923151
0.40059185 -0.035549536 0.069247179
0.40747592 -0.035139255 0.069970429
0.36935577 -0.031579111 0.06975922
0.39273825 -0.034248561 0.067672193
0.39695373 -0.034207139 0.068380497
0.40085003 -0.033659443 0.069473982
0.4082548 -0.032948539 0.068768919
0.41041744 -0.034064461 0.069892347
0.38890228 -0.023135936 0.0696266
0.39144033 -0.021549607 0.069859639
0.3460595 -0.065695472 0.073253095
0.34347844 -0.062655263 0.071961753
0.34691462 -0.062551588 0.07282991
0.35192907 -0.061638668 0.073338643
0.35614789 -0.060416482 0.07368546
0.36110753 -0.060218934 0.071830779
0.34451637 -0.05994717 0.070566446
0.34799156 -0.058308177 0.071517617
0.35258389 -0.057255622 0.07271751
0.35764578 -0.057039455 0.073078699
0.36255711 -0.057131063 0.073230974
0.365632 -0.056065723 0.074474327
0.37028563 -0.055401653 0.073238254
0.35801169 -0.053751376 0.071625367
0.36247578 -0.05254006 0.072396167
0.36714146 -0.052142851 0.073138237
0.3720926 -0.052167147 0.07397861
0.37748215 -0.051731639 0.074457794
0.38079917 -0.051257208 0.074487753
0.33770791 -0.047435999 0.074137658
0.34210885 -0.046817627 0.074485578
0.34919381 -0.047418725 0.072456978
0.35228869 -0.046663038 0.07283055
0.35639933 -0.045730047 0.074017249
0.36350763 -0.049434181 0.071277067
0.36754209 -0.049082637 0.071493655
0.37290618 -0.047906246 0.07189741
0.37712267 -0.047600154 0.07321956
0.38170764 -0.047270823 0.073406644
0.38731623 -0.047021266 0.072892025
0.39284125 -0.046322715 0.072554469
0.39619815 -0.045917172 0.074172385
0.33757135 -0.044524558 0.074670136
0.34250131 -0.043989398 0.074268408
0.35228002 -0.042351253 0.072983861
0.35739461 -0.04272715 0.074558839
0.36351734 -0.041668963 0.073208228
0.36837757 -0.04153819 0.072671264
0.37091607 -0.041337464 0.074324481
0.38300768 -0.044207372 0.071103632
0.38709244 -0.043480653 0.07163059
0.3926056 -0.042665996 0.071408741
0.39724535 -0.042441186 0.072297074
0.40261811 -0.041226391 0.072358206
0.40575546 -0.040704336 0.073783293
0.35305828 -0.038849749 0.07296785
0.35733885 -0.038667105 0.074287966
0.36343658 -0.038232137 0.073057637
0.36802357 -0.037586819 0.07298141
0.37185162 -0.036904916 0.074258953
0.37773457 -0.036779821 0.073247597
0.38127771 -0.035472389 0.073577106
0.3943696 -0.039377939 0.070436358
0.39751396 -0.038540196 0.070802689
0.4023445 -0.037568752 0.071610801
0.40740934 -0.037119646 0.072130375
0.41149077 -0.036152977 0.071278915
0.36842534 -0.033854499 0.071604028
0.37220705 -0.032535486 0.072366342
0.37729427 -0.032452527 0.073053017
0.38224739 -0.032440964 0.073097885
0.38666376 -0.03195506 0.072984383
0.39225006 -0.031917509 0.071862891
0.39748827 -0.031508371 0.072427318
0.40201181 -0.033659443 0.070494607
0.40972656 -0.032003418 0.070616394
0.4111999 -0.034064461 0.070579708
0.37309438 -0.029222047 0.071268782
0.37773675 -0.028399225 0.071908399
0.38213095 -0.027872974 0.072374396
0.38722953 -0.027293576 0.072083786
0.39217082 -0.027195176 0.072081983
0.39738521 -0.02744909 0.07222034
0.40109733 -0.0269283 0.073388606
0.38340455 -0.023995947 0.071452275
0.38746729 -0.024014881 0.070761941
0.39223102 -0.022567039 0.071663424
0.39789093 -0.022754803 0.070867658
0.40263063 -0.02290773 0.072266929
0.40549725 -0.021803401 0.073556483
0.39703822 -0.019884672 0.070562236
0.40241501 -0.0191471 0.071070626
0.40569842 -0.019024368 0.072845779
0.34013164 -0.050236333 0.076031923
0.33941638 -0.048808239 0.075403601
0.34336111 -0.047580034 0.075674437
0.34619653 -0.046439052 0.075370051
0.34416845 -0.044521343 0.075585067
0.34687373 -0.044039175 0.075299427
0.35704595 -0.041758236 0.075139865
0.35715228 -0.039647952 0.075011462
0.37136376 -0.038242657 0.075516395
0.40262926 -0.027445503 0.076361217
0.404504 -0.024964662 0.075346008
