# .PCD v0.7 - Point Cloud Data file format
VERSION 0.7
FIELDS x y z
SIZE 4 4 4
TYPE F F F
COUNT 1 1 1
WIDTH 144
HEIGHT 1
VIEWPOINT 0 0 0 1 0 0 0
POINTS 144
DATA ascii
0.3935959 -0.022721879 0.05347674
0.39609775 -0.022532789 0.054650724
0.39707911 -0.022794034 0.055512801
0.34410295 -0.060055874 0.064879
0.34277037 -0.057015128 0.063708335
0.34337321 -0.053672742 0.064237922
0.35436264 -0.050409913 0.06457445
0.35436264 -0.049426291 0.06457445
0.36061046 -0.047476586 0.06473884
0.36970499 -0.044499423 0.06474176
0.38302025 -0.040830225 0.064459354
0.3838329 -0.039397225 0.063842207
0.38777468 -0.038687713 0.063755453
0.39216474 -0.037140559 0.063935772
0.34381995 -0.061197296 0.067958035
0.34455991 -0.057818703 0.066853501
0.34693575 -0.056814477 0.068396077
0.34483275 -0.053256448 0.065520078
0.34743556 -0.052924979 0.067007951
0.352896 -0.052575022 0.066652857
0.35692677 -0.051976424 0.067492567
0.36046445 -0.051125903 0.068223402
0.35726058 -0.049149267 0.066359632
0.36260438 -0.048056424 0.066803642
0.36747888 -0.046634044 0.067254737
0.37192115 -0.046197969 0.068152785
0.37600347 -0.045501456 0.068943784
0.36701441 -0.044502053 0.066371351
0.37293434 -0.044247933 0.066746764
0.37791541 -0.043823615 0.067517556
0.38304788 -0.04263366 0.067034841
0.38755664 -0.041042395 0.067318216
0.39200145 -0.040745251 0.069243327
0.38822597 -0.039377939 0.065039337
0.39336574 -0.038058791 0.066981114
0.39697817 -0.036193553 0.06806922
0.40156314 -0.035538431 0.069213033
0.40747592 -0.035139255 0.069970429
0.39341074 -0.03423015 0.066931903
0.3981187 -0.034185972 0.06787318
0.40300974 -0.033728 0.068975292
0.40694854 -0.03280228 0.069396213
0.38928428 -0.023135936 0.069962174
0.39939508 -0.020813646 0.069526881
0.39939508 -0.019784439 0.069526881
0.34360445 -0.062958047 0.07099396
0.34685117 -0.062250368 0.072617516
0.3520458 -0.061795022 0.073361248
0.35572064 -0.060397774 0.074197501
0.34451637 -0.05994717 0.070566446
0.34826747 -0.058400679 0.071434446
0.35251385 -0.057098977 0.072523728
0.35749441 -0.057080522 0.07289952
0.36223388 -0.057094611 0.073341109
0.36662182 -0.055340286 0.074456483
0.37028563 -0.055401653 0.073238254
0.33798584 -0.050236333 0.074146897
0.34273005 -0.05026526 0.074321419
0.35796887 -0.053928956 0.071569264
0.36253762 -0.052369092 0.072421566
0.36716467 -0.052225232 0.073471777
0.3720926 -0.052167159 0.073978603
0.37742674 -0.051730834 0.074520066
0.38061112 -0.050506346 0.074322566
0.33732027 -0.047553092 0.073804222
0.34214273 -0.047231808 0.074544951
0.34813881 -0.047410838 0.073748648
0.35210675 -0.046662413 0.073051065
0.35642254 -0.045486555 0.074370399
0.36335331 -0.049436815 0.070697814
0.36725882 -0.048910815 0.071789302
0.37305638 -0.048085351 0.07176774
0.37705436 -0.047448814 0.073194623
0.38189423 -0.047382016 0.07345321
0.38714799 -0.047020063 0.073077016
0.39283669 -0.046400584 0.071918204
0.3959761 -0.045918573 0.072912477
0.33716241 -0.044524629 0.074421801
0.34241971 -0.043343302 0.07435596
0.34940481 -0.041612562 0.072198629
0.35243428 -0.042449053 0.07335528
0.35777324 -0.042564154 0.074580915
0.36369202 -0.041853826 0.073036313
0.36828104 -0.041868549 0.072630785
0.37093359 -0.041338343 0.074606068
0.37930253 -0.044497672 0.070510894
0.38291293 -0.044207498 0.071210541
0.38723895 -0.043388292 0.071674526
0.39272535 -0.043033324 0.071368754
0.39739999 -0.042306457 0.071941011
0.40258321 -0.041305888 0.072690621
0.40575546 -0.040704336 0.073783293
0.35288107 -0.03922803 0.072886154
0.35749176 -0.038336284 0.07380119
0.36288747 -0.038265076 0.073204212
0.36792767 -0.037587199 0.072941542
0.37140286 -0.036743406 0.074219719
0.37781882 -0.036873221 0.073563665
0.38165531 -0.035472389 0.073908821
0.3943696 -0.039377939 0.070436358
0.39775515 -0.038425721 0.070748359
0.40260515 -0.037705813 0.071646318
0.40738973 -0.036989789 0.072008759
0.41178703 -0.036669478 0.071095504
0.36851844 -0.033604927 0.071564794
0.37229657 -0.032534167 0.072564527
0.37737894 -0.032455675 0.073110007
0.38190106 -0.032454763 0.073634334
0.38715997 -0.031788763 0.07284981
0.39235142 -0.032073554 0.072035424
0.39742795 -0.031536788 0.072901212
0.40043098 -0.031176722 0.074430078
0.40880007 -0.03231927 0.070943497
0.41050765 -0.034082871 0.071302593
0.37318704 -0.029314682 0.071793839
0.37791517 -0.028425572 0.072486676
0.38252282 -0.028213501 0.072940581
0.38744849 -0.027287092 0.071992382
0.39210826 -0.027194146 0.071999297
0.39729545 -0.027393553 0.071941808
0.40116984 -0.026649617 0.073082559
0.38716304 -0.023812195 0.070494615
0.39194071 -0.023015467 0.071075648
0.39735237 -0.023196289 0.070804067
0.402439 -0.022714792 0.071868099
0.40549725 -0.021803401 0.073556483
0.40273377 -0.019392664 0.070980899
0.40540969 -0.019181293 0.072148487
0.3647958 -0.056291468 0.075070858
0.34013164 -0.050236333 0.076031923
0.38031998 -0.051995803 0.075397849
0.33941638 -0.048808239 0.075403601
0.34437397 -0.046983026 0.075765587
0.34621835 -0.046678599 0.075721942
0.35577902 -0.045485675 0.075136155
0.34447673 -0.043290503 0.075855844
0.34707555 -0.044039395 0.075809456
0.35638934 -0.042353444 0.075080737
0.37267509 -0.03811856 0.075189389
0.39974529 -0.030178199 0.075158775
0.40166518 -0.030178199 0.076845363
0.39974529 -0.028644908 0.075158775
0.40248033 -0.027602989 0.076729536
0.40342841 -0.024998851 0.075732186
