# .PCD v0.7 - Point Cloud Data file format
VERSION 0.7
FIELDS x y z
SIZE 4 4 4
TYPE F F F
COUNT 1 1 1
WIDTH 141
HEIGHT 1
VIEWPOINT 0 0 0 1 0 0 0
POINTS 141
DATA ascii
0.38744715 -0.0263796 0.055037677
0.38744715 -0.024827901 0.055037677
0.34410295 -0.060055874 0.064879
0.3419252 -0.056677669 0.063675754
0.34337321 -0.053672742 0.064237922
0.3592293 -0.048461083 0.064856559
0.36970499 -0.044499423 0.06474176
0.37820244 -0.042473011 0.064885765
0.3817288 -0.041241556 0.064389691
0.38279027 -0.03940687 0.064257324
0.38945183 -0.038321555 0.06212303
0.3924624 -0.037219364 0.06376946
0.34455556 -0.060967606 0.067938738
0.34395811 -0.057676692 0.066292942
0.34693676 -0.056341544 0.068033926
0.34483275 -0.053256448 0.065520078
0.34776461 -0.053111471 0.067254968
0.35302374 -0.052342243 0.066786408
0.35705131 -0.051850948 0.067406222
0.3611744 -0.051046919 0.067729972
0.35806376 -0.049239561 0.065962322
0.36292019 -0.048246153 0.066693895
0.36686274 -0.046924893 0.067319617
0.37129661 -0.046330936 0.068136565
0.37706611 -0.046174154 0.067215212
0.36701441 -0.044502053 0.066371351
0.37228748 -0.044122897 0.066344902
0.37773848 -0.043890577 0.066341639
0.38263538 -0.042464886 0.067096569
0.38724285 -0.041049875 0.068373598
0.39249727 -0.040914297 0.069457069
0.38431826 -0.03940687 0.06559965
0.38584626 -0.03940687 0.066941962
0.3936097 -0.038035326 0.066821463
0.39683908 -0.036387023 0.068030216
0.4010208 -0.035459459 0.069291219
0.40770584 -0.035133705 0.069728673
0.41041744 -0.035105944 0.069892347
0.39408326 -0.03421174 0.066191643
0.3971225 -0.034202535 0.068196006
0.40182173 -0.033818416 0.069440231
0.40829366 -0.03279981 0.068026654
0.4111084 -0.033420116 0.06916824
0.39314088 -0.021795513 0.06935697
0.34451637 -0.062357999 0.070566446
0.34640619 -0.062343396 0.072825551
0.35182676 -0.061736118 0.073479176
0.35605568 -0.060083054 0.074048132
0.36036986 -0.060218934 0.071182787
0.34451637 -0.059465002 0.070566446
0.34776837 -0.058232784 0.071585052
0.35232118 -0.057020273 0.072887287
0.35729754 -0.056970883 0.073091298
0.36208344 -0.057186767 0.073020898
0.36569357 -0.055983759 0.074528426
0.33896655 -0.050245974 0.073677421
0.34004143 -0.050722882 0.074621677
0.34615102 -0.05028455 0.074664503
0.35213026 -0.054227795 0.071930788
0.35782042 -0.053800859 0.071937993
0.36283129 -0.052452054 0.072226994
0.36640775 -0.05164982 0.073824786
0.37233552 -0.052063346 0.073834732
0.37687385 -0.051076878 0.074766442
0.38073647 -0.050840061 0.074432693
0.33796266 -0.047384534 0.072911255
0.34268498 -0.047267444 0.074513286
0.3471047 -0.047621336 0.074171223
0.35339248 -0.046131931 0.073705144
0.35573524 -0.045486115 0.074432164
0.36452523 -0.049442071 0.070839971
0.36723849 -0.049076941 0.072225198
0.37308508 -0.048664626 0.071946323
0.37659326 -0.047540959 0.073074766
0.38169473 -0.047228049 0.073277913
0.38717043 -0.047049545 0.073272891
0.39311451 -0.046237607 0.071805738
0.39611244 -0.045918748 0.072766043
0.33838686 -0.044204719 0.073389992
0.34283659 -0.043824077 0.074051976
0.34619099 -0.042916071 0.074108057
0.35267937 -0.042343862 0.07330054
0.35746798 -0.042609058 0.074502327
0.36317381 -0.041858029 0.073645905
0.36827135 -0.041448627 0.072678745
0.37084016 -0.04087704 0.074612759
0.38300768 -0.044207372 0.071103632
0.38718596 -0.04357319 0.071870044
0.39278179 -0.042959563 0.07103803
0.39729604 -0.042351097 0.07179185
0.40265408 -0.04155504 0.072185062
0.40618691 -0.040352792 0.072831213
0.35308203 -0.038548864 0.072957069
0.357822 -0.038464978 0.073913775
0.3625924 -0.037994403 0.073256172
0.3676475 -0.037719592 0.073004074
0.37164763 -0.036880922 0.074229904
0.3778812 -0.037041891 0.073050633
0.38075638 -0.036232457 0.073784649
0.3943696 -0.039377939 0.070436358
0.39785376 -0.038559228 0.070687085
0.40255198 -0.03768352 0.071501553
0.40780669 -0.037466541 0.071592048
0.41137499 -0.036327284 0.071399011
0.36823925 -0.034280416 0.072327934
0.37246224 -0.032710966 0.072730206
0.37741125 -0.03244856 0.072920881
0.38225937 -0.032443341 0.073235199
0.38700303 -0.03175202 0.073180079
0.39235145 -0.032073554 0.072035424
0.39729887 -0.031651635 0.072787799
0.37403139 -0.029536478 0.071204558
0.37802306 -0.02763187 0.071457423
0.38197896 -0.027417004 0.072795518
0.38707775 -0.02748508 0.072904401
0.39234561 -0.027186509 0.071890861
0.39738253 -0.027368918 0.0721756
0.40144083 -0.026928298 0.073690377
0.37939405 -0.024440415 0.071922332
0.38297564 -0.024026483 0.072184697
0.38682371 -0.023779407 0.072681203
0.39325586 -0.02305929 0.070789009
0.39774939 -0.022598846 0.07107611
0.40259978 -0.023005752 0.072564021
0.40549725 -0.021287922 0.073556483
0.3943696 -0.019956265 0.070436358
0.3971397 -0.019902568 0.071205966
0.40299213 -0.019360023 0.071522124
0.40569839 -0.019024368 0.072845779
0.3647958 -0.057273336 0.075070858
0.36627114 -0.055555068 0.076366901
0.34099692 -0.050563913 0.075461
0.36625719 -0.05367535 0.076132812
0.37696818 -0.052182533 0.075305633
0.34075803 -0.048815258 0.075251162
0.34868217 -0.046766188 0.075113401
0.35031226 -0.046928667 0.075657994
0.3482295 -0.043941166 0.075159408
0.35715228 -0.041107602 0.075011462
0.37195745 -0.037773289 0.075239338
0.40411803 -0.024450935 0.075006962
