# .PCD v0.7 - Point Cloud Data file format
VERSION 0.7
FIELDS x y z
SIZE 4 4 4
TYPE F F F
COUNT 1 1 1
WIDTH 1339
HEIGHT 1
VIEWPOINT 0 0 0 1 0 0 0
POINTS 1339
DATA ascii
-0.083023496 0.0067860326 0.62866676
-0.12040858 0.01018381 0.62900001
-0.11720425 0.012323551 0.62700009
-0.11488096 0.013095239 0.625
-0.087744489 0.012535295 0.62676477
-0.084066354 0.010583176 0.62900007
-0.11552429 0.01795762 0.62849998
-0.11249579 0.019189663 0.62685722
-0.091125533 0.018250097 0.62620002
-0.088665716 0.017110668 0.62819999
-0.11191525 0.022423333 0.62783337
-0.10809926 0.02310307 0.62555557
-0.095833339 0.023809526 0.625
-0.092704006 0.022788955 0.62640005
-0.11082383 0.026957145 0.62900007
-0.10770702 0.027630275 0.6267857
-0.096419536 0.028044859 0.62650001
-0.093881071 0.026910361 0.62787503
-0.10711683 0.03111778 0.62833339
-0.10247245 0.032302037 0.62726676
-0.098468587 0.031173065 0.62771434
-0.10243715 0.035343811 0.62900001
-0.13102667 -0.00060380955 0.634
-0.12772015 -0.0011212246 0.63385713
-0.12240084 -0.0009488436 0.63400006
-0.11682804 -0.0011210885 0.63371438
-0.11204287 -0.001507143 0.63249999
-0.10768744 -0.0013262859 0.63239998
-0.10336154 -0.0013276192 0.63320005
-0.098420955 -0.00060380955 0.634
-0.092354096 -0.0010866667 0.63380003
-0.08828941 -0.0012075001 0.63387501
-0.081916831 -0.0006038096 0.634
-0.13102667 0.00060380955 0.634
-0.12775679 0.002409643 0.63275003
-0.12297014 0.0018045887 0.63209093
-0.11801068 0.0015643809 0.6322
-0.11407128 0.0014030159 0.63150001
-0.10757048 0.00060095242 0.63100004
-0.1018312 0.0013528572 0.63174999
-0.097572148 0.001805159 0.63241673
-0.092951618 0.0016968834 0.63263637
-0.087779164 0.0010532143 0.632375
-0.081386104 0.0018072382 0.63300002
-0.078448698 0.0024132144 0.63362497
-0.1270624 0.0066252388 0.63229996
-0.12409477 0.0076188892 0.63150001
-0.081157289 0.0081763277 0.63257152
-0.078756578 0.0059104767 0.63320005
-0.12271824 0.011850953 0.63266665
-0.11968429 0.013231905 0.63150001
-0.085936196 0.013220953 0.63100004
-0.083428338 0.012047143 0.63249999
-0.12131786 0.015995001 0.63374996
-0.11817247 0.017351171 0.63218182
-0.086816907 0.017620476 0.63249999
-0.083797149 0.015071429 0.63300002
-0.11614191 0.022926668 0.63349998
-0.11444192 0.023449525 0.63133335
-0.090815723 0.023454763 0.63150001
-0.089216746 0.022326397 0.63357151
-0.11532763 0.026567621 0.634
-0.11285834 0.027687384 0.63200003
-0.091849916 0.027928954 0.63200003
-0.089920327 0.028364763 0.63366669
-0.11158731 0.031164445 0.63333338
-0.10782786 0.033432383 0.63250005
-0.10035905 0.034254286 0.63100004
-0.097099565 0.033025283 0.63254547
-0.093290396 0.031975243 0.6334545
-0.089967623 0.030794287 0.634
-0.10633787 0.036954999 0.63350004
-0.10229456 0.037444003 0.63206679
-0.098781638 0.036774289 0.63300002
-0.10258324 0.041395623 0.63359994
-0.099550009 0.041027144 0.63349998
-0.13692859 -0.0059640007 0.63900006
-0.13256477 -0.0060814293 0.63849998
-0.1277 -0.0060814293 0.63849998
-0.12290727 -0.0060846433 0.63887501
-0.11764266 -0.0061495248 0.63855553
-0.11249715 -0.0059292861 0.63849998
-0.10708798 -0.0060846433 0.63887501
-0.10216 -0.0060814293 0.63849998
-0.097392946 -0.0059951027 0.6385715
-0.092180416 -0.0059951032 0.63857144
-0.087205879 -0.0058814287 0.6388334
-0.082765721 -0.005477143 0.63900006
-0.077897146 -0.005477143 0.63900006
-0.13666347 -0.0025981821 0.63827276
-0.13211559 -0.0026806123 0.63550013
-0.12690815 -0.0034304764 0.63555562
-0.12235353 -0.0032720005 0.6360001
-0.11771134 -0.0034334394 0.6360001
-0.11255429 -0.0037878575 0.63625008
-0.10708097 -0.0037296603 0.63728583
-0.10218884 -0.0029214723 0.63627279
-0.097751305 -0.0025452063 0.6359334
-0.093061306 -0.0030278794 0.63563645
-0.087082602 -0.0031411259 0.63618189
-0.082573563 -0.0028494506 0.63715392
-0.077613875 -0.0024276786 0.63668764
-0.07356929 -0.0024323016 0.63841671
-0.13549906 0.0012152381 0.63800001
-0.13279819 0.002427524 0.63670009
-0.076379053 0.0024254762 0.63650006
-0.073798962 0.0021894285 0.63830006
-0.13165238 0.0064428574 0.63819999
-0.12888446 0.0086996835 0.63733339
-0.07723628 0.0076837311 0.63691676
-0.074854292 0.005477143 0.63900006
-0.12712394 0.011679881 0.63712502
-0.1239762 0.013909524 0.63500005
-0.081601173 0.012601799 0.63677782
-0.078559831 0.012219222 0.63854551
-0.12584287 0.016414922 0.63833338
-0.12286349 0.017804937 0.63663644
-0.11913811 0.019957144 0.63500005
-0.085271433 0.019352382 0.63500005
-0.082374483 0.017107178 0.63693345
-0.079479426 0.016674859 0.63900006
-0.12166691 0.022508573 0.63875002
-0.1185112 0.023035955 0.63650006
-0.08721827 0.023115933 0.63718194
-0.083491713 0.020938504 0.6385715
-0.11729674 0.027696738 0.63814288
-0.11430001 0.029633336 0.63500005
-0.090109527 0.026004763 0.63500005
-0.088749528 0.027316382 0.63740009
-0.11235688 0.033006128 0.63671434
-0.091739647 0.033816073 0.63687503
-0.08939001 0.032837622 0.63850003
-0.11144287 0.03761211 0.63842863
-0.10874519 0.037805855 0.63585722
-0.096798979 0.038095318 0.63658345
-0.093595788 0.036520682 0.63757151
-0.11015143 0.04077429 0.63900006
-0.10713866 0.042225529 0.63700002
-0.10249116 0.043851707 0.63571429
-0.098370872 0.04238629 0.63760006
-0.10528287 0.04564286 0.63900006
-0.10207058 0.046595152 0.63870001
-0.099197149 0.04564286 0.63900006
-0.14658669 -0.010835556 0.64400005
-0.14281638 -0.010420191 0.64360005
-0.13670319 -0.011034603 0.64366674
-0.13247868 -0.011398287 0.64340001
-0.12786095 -0.010665524 0.64360005
-0.12257192 -0.010418572 0.64350003
-0.11469334 -0.010426668 0.64400005
-0.10733334 -0.010426668 0.64400005
-0.14663938 -0.0077600009 0.64333338
-0.14262012 -0.0075892992 0.64205891
-0.13789935 -0.0078011653 0.64100003
-0.13255563 -0.0085523827 0.64139998
-0.12712762 -0.0085569052 0.64175004
-0.12212013 -0.0085486909 0.64112496
-0.11730358 -0.0085542854 0.64150006
-0.1122399 -0.0083533339 0.64166671
-0.10787321 -0.0084731979 0.64200002
-0.10287905 -0.0079609528 0.64300001
-0.096997015 -0.007960273 0.64285719
-0.092756197 -0.0083072111 0.64257145
-0.087853722 -0.0080777146 0.64240003
-0.082978636 -0.0076821172 0.64222229
-0.077374205 -0.0071384925 0.64225006
-0.072258793 -0.0068095238 0.64142859
-0.067510389 -0.006482 0.64210004
-0.14142968 -0.0027118372 0.64285719
-0.13924733 -0.0026428574 0.64033341
-0.070704766 -0.0024380956 0.64000005
-0.067680329 -0.0028542858 0.64216673
-0.14065096 0.0015328573 0.64350003
-0.13768838 0.0026893336 0.64140004
-0.13470477 0.0042666672 0.64000005
-0.071314186 0.0025124869 0.64122224
-0.068826042 0.0010215875 0.64333338
-0.13653062 0.0070857145 0.64285719
-0.13341536 0.0077863098 0.64112508
-0.075147152 0.0085528577 0.6415
-0.073733337 0.0070390478 0.64250004
-0.13215221 0.011869906 0.64240009
-0.12871002 0.013115715 0.64050001
-0.076033331 0.012164552 0.64211112
-0.074213341 0.01104 0.64400005
-0.13064002 0.015333334 0.64400005
-0.1281396 0.016857689 0.64200002
-0.077737011 0.016663266 0.64128578
-0.12529404 0.022003572 0.64174998
-0.12300191 0.022552384 0.64000005
-0.086552389 0.024990479 0.64000005
-0.082072213 0.022616625 0.64181823
-0.079546198 0.020192858 0.64250004
-0.12209547 0.027242567 0.64223087
-0.11857461 0.029490797 0.64066672
-0.086998388 0.02810486 0.6415
-0.08406096 0.025573716 0.64240003
-0.12164446 0.030871114 0.64400005
-0.11740815 0.033015609 0.64284623
-0.1142481 0.034213811 0.6415
-0.088519178 0.032411311 0.64212507
-0.1163289 0.036595561 0.64400005
-0.11396017 0.038326513 0.64216673
-0.091915399 0.038315561 0.64200008
-0.11180544 0.042767338 0.64150006
-0.10910477 0.043885715 0.64000005
-0.096324772 0.042976741 0.64071435
-0.093894206 0.042602386 0.64270008
-0.11101334 0.046000004 0.64400005
-0.10749334 0.047524929 0.6425001
-0.10271017 0.049016513 0.64066672
-0.098229356 0.047532041 0.64209098
-0.10610668 0.051520005 0.64400005
-0.10309023 0.051963992 0.64327288
-0.099818103 0.051440954 0.64300001
-0.15243429 -0.015428573 0.648
-0.14996572 -0.015428573 0.648
-0.13631842 -0.015420636 0.64766669
-0.13206857 -0.015428573 0.648
-0.12528001 -0.015428573 0.648
-0.12404572 -0.015428573 0.648
-0.15225847 -0.012506234 0.64772719
-0.14770375 -0.012921466 0.64600003
-0.14234215 -0.012923254 0.6460833
-0.13794762 -0.012914181 0.64566672
-0.13230491 -0.013802586 0.6461429
-0.12721351 -0.013030794 0.64633334
-0.12225627 -0.012848061 0.64707685
-0.11755197 -0.012056465 0.64671433
-0.11210947 -0.012321839 0.64678568
-0.10753246 -0.012057347 0.64678574
-0.1023171 -0.012328274 0.64718747
-0.097451821 -0.012198097 0.64679998
-0.092392474 -0.011704208 0.64674997
-0.087499045 -0.011708889 0.64699996
-0.082347825 -0.011465525 0.64719999
-0.077640481 -0.011708573 0.64699996
-0.072902188 -0.012063539 0.64714277
-0.068297148 -0.010902858 0.648
-0.063318864 -0.010985143 0.648
-0.15150858 -0.0083314292 0.648
-0.14886588 -0.0067692529 0.64628577
-0.10565715 -0.0092142867 0.64500004
-0.10205001 -0.009221429 0.64550006
-0.097671434 -0.0092142876 0.6450001
-0.090300009 -0.0092142867 0.64500004
-0.085385717 -0.0092142867 0.64500004
-0.080922544 -0.0088095246 0.64533341
-0.078014299 -0.0092142876 0.6450001
-0.072763503 -0.0092238104 0.64566672
-0.067438737 -0.0088409539 0.64766669
-0.063345067 -0.0073554595 0.64769232
-0.14686477 -0.0029273811 0.64725006
-0.14378273 -0.0018436736 0.64557153
-0.06634286 -0.0012285715 0.64500004
-0.063605204 -0.0026334201 0.64727277
-0.14502858 0.00061714288 0.648
-0.14261013 0.0029225 0.64612502
-0.070642859 0.0043000001 0.64500004
-0.067612208 0.0025212988 0.64700001
-0.063772582 0.0011100953 0.64760005
-0.1418781 0.0067792861 0.64699996
-0.13883905 0.0077936514 0.64600003
-0.07158424 0.0075903707 0.64611107
-0.069178857 0.0065361909 0.64740008
-0.14009143 0.011108572 0.648
-0.13716096 0.011943811 0.64639997
-0.13381524 0.013842858 0.64600003
-0.072921433 0.012193811 0.64669997
-0.13608001 0.017280001 0.648
-0.13302429 0.017244834 0.64664292
-0.12910049 0.01905762 0.64550006
-0.076640844 0.017853454 0.646375
-0.074616671 0.01603286 0.64750004
-0.13047549 0.021283573 0.64775002
-0.12804443 0.022162978 0.646375
-0.080720961 0.02403143 0.64700001
-0.078446247 0.022403708 0.64744443
-0.12752108 0.026367977 0.64762497
-0.12479667 0.028279526 0.64550006
-0.085385717 0.02887143 0.64500004
-0.082653441 0.027346954 0.64670002
-0.079611436 0.025302859 0.648
-0.12528001 0.030857146 0.648
-0.12276465 0.032614883 0.64612502
-0.11978572 0.033785716 0.64500004
-0.0864731 0.032313336 0.64625001
-0.08409366 0.030635875 0.64766669
-0.12138953 0.036048096 0.64700001
-0.11840989 0.037370123 0.64587498
-0.090300009 0.038700003 0.64500004
-0.088603415 0.037219461 0.64671433
-0.11637394 0.041617263 0.64737499
-0.11364286 0.044842862 0.64500004
-0.091517575 0.043128368 0.64588892
-0.089051276 0.041955397 0.64783335
-0.11540572 0.045051433 0.648
-0.11241172 0.048193242 0.64709991
-0.10934287 0.04914286 0.64500004
-0.096205249 0.048488811 0.64649999
-0.093091756 0.04664921 0.64733338
-0.08948572 0.045051433 0.648
-0.1109245 0.052775104 0.64757144
-0.10762226 0.053279743 0.64572734
-0.10164048 0.054304287 0.64550006
-0.098349944 0.05276921 0.64677781
-0.1068175 0.056877028 0.64737499
-0.10244268 0.057818156 0.64720005
-0.098666191 0.057350636 0.64750004
-0.16107334 -0.016169526 0.65300006
-0.15747674 -0.017114559 0.65171432
-0.15248066 -0.01797667 0.65083337
-0.14775789 -0.017385118 0.65187508
-0.14279227 -0.017385479 0.65187496
-0.13807389 -0.017687701 0.65158331
-0.13284984 -0.018004606 0.65183342
-0.12792274 -0.017496701 0.65139997
-0.12248484 -0.017599469 0.65118748
-0.11764205 -0.017174225 0.6517334
-0.11270243 -0.016632989 0.65118188
-0.10800375 -0.01694469 0.6514616
-0.10288184 -0.016752463 0.65141672
-0.097268596 -0.016937144 0.65171432
-0.092149965 -0.016673187 0.6520769
-0.086836196 -0.016667534 0.65254545
-0.082351148 -0.016769238 0.65210003
-0.077588573 -0.016139286 0.65175003
-0.072300956 -0.016060317 0.65133339
-0.067061909 -0.016145239 0.65200001
-0.06214286 -0.01615762 0.65250003
-0.058436431 -0.016163573 0.65275002
-0.16107334 -0.014303811 0.65300006
-0.15747111 -0.012532699 0.65146667
-0.15414287 -0.01052381 0.65000004
-0.11638096 -0.014238096 0.65000004
-0.11452382 -0.014238096 0.65000004
-0.1064762 -0.014238096 0.65000004
-0.095952384 -0.014238096 0.65000004
-0.092928104 -0.014249048 0.65050006
-0.088040009 -0.014260001 0.65100002
-0.083429366 -0.01383635 0.65050006
-0.078000009 -0.014238096 0.65000004
-0.07180953 -0.014238096 0.65000004
-0.067221545 -0.013197216 0.65030777
-0.061594691 -0.012816271 0.65108335
-0.057996005 -0.012170858 0.65200001
-0.15676764 -0.0084901601 0.65233338
-0.15356123 -0.0071756472 0.65128583
-0.060578238 -0.0075170081 0.65000004
-0.058432117 -0.007713743 0.65171432
-0.15201314 -0.0025551328 0.65266669
-0.14899573 -0.0015480954 0.65050006
-0.060903821 -0.002270794 0.6503334
-0.058636196 -0.002900318 0.65266675
-0.14748676 0.0022757938 0.65158337
-0.066003576 0.0040283334 0.65075004
-0.06189524 0.0016129526 0.6512
-0.14648762 0.0060088895 0.65266675
-0.14360154 0.008812191 0.65160006
-0.067098714 0.0077127228 0.65150005
-0.14214382 0.01241524 0.65175003
-0.13888097 0.014260001 0.65100002
-0.070960283 0.013200546 0.65114295
-0.068119794 0.011526774 0.65222228
-0.14151493 0.015954286 0.65266675
-0.13861947 0.017295649 0.6518572
-0.072762869 0.017415557 0.65153337
-0.13598858 0.021112382 0.65200001
-0.13321486 0.022633731 0.65108335
-0.0760343 0.022326857 0.6512
-0.073535405 0.022371273 0.65250003
-0.13239418 0.026230359 0.65187502
-0.12855192 0.028808098 0.65050006
-0.08087834 0.028200241 0.65075004
-0.077464603 0.027210589 0.65194118
-0.074006669 0.026120003 0.65300006
-0.12729554 0.03202422 0.65200013
-0.08728572 0.034047622 0.65000004
-0.082288697 0.032420479 0.65150005
-0.078018822 0.030772621 0.65275002
-0.12500286 0.035448574 0.65300006
-0.12242668 0.038079623 0.65120006
-0.086563297 0.037395459 0.65077782
-0.0839798 0.03678064 0.65211117
-0.12117858 0.042258259 0.65250009
-0.11877303 0.042551752 0.65066671
-0.08672674 0.04205158 0.65153849
-0.083957151 0.041045718 0.65300006
-0.12002762 0.045399051 0.65300006
-0.11714307 0.047091857 0.6515556
-0.11452382 0.048904765 0.65000004
-0.091705404 0.04816233 0.65111119
-0.088262871 0.046217147 0.65200007
-0.11625168 0.05159881 0.65275002
-0.11416778 0.052120484 0.65150005
-0.096077837 0.053042997 0.65085721
-0.092946678 0.051659342 0.65230769
-0.11208735 0.056886811 0.65228575
-0.1087693 0.058567382 0.65075004
-0.096292734 0.056919575 0.65154552
-0.093907624 0.055971432 0.65300006
-0.11007716 0.061568581 0.65300006
-0.10731239 0.06192797 0.65200007
-0.10240398 0.062065087 0.65166676
-0.098058745 0.060616203 0.65166676
-0.16270821 -0.025928382 0.65760005
-0.1664062 -0.022031905 0.65625006
-0.16260768 -0.022516487 0.65668756
-0.1578431 -0.022096558 0.65707701
-0.15258788 -0.022515003 0.65662503
-0.14754139 -0.022508515 0.65643758
-0.1429562 -0.021657145 0.65720004
-0.13778286 -0.021670094 0.65760005
-0.13240737 -0.021775845 0.65663642
-0.12749928 -0.021250952 0.65625006
-0.12265009 -0.021171974 0.65657151
-0.11736601 -0.021647524 0.65690005
-0.11290857 -0.021807965 0.65763646
-0.10814922 -0.021087302 0.65766674
-0.10277334 -0.020680001 0.65800005
-0.09729334 -0.021087302 0.65766674
-0.092676193 -0.021290952 0.65750003
-0.087667152 -0.020664286 0.65750003
-0.082218423 -0.021076826 0.65733337
-0.077975251 -0.021217145 0.65800011
-0.072961912 -0.021217145 0.65800011
-0.067471117 -0.020680001 0.65800011
-0.062666669 -0.020680001 0.65800005
-0.058280006 -0.020680001 0.65800011
-0.16647971 -0.017709527 0.65633339
-0.1628826 -0.017870652 0.65527278
-0.15907145 -0.019338097 0.65500003
-0.13661429 -0.019338097 0.65500003
-0.11665238 -0.019338097 0.65500003
-0.11228572 -0.019338097 0.65500003
-0.10667144 -0.019338097 0.65500009
-0.10230496 -0.019112192 0.65580004
-0.097988576 -0.01934794 0.6553334
-0.09232381 -0.019338097 0.65500003
-0.087734863 -0.019094478 0.6552
-0.081968568 -0.019088572 0.65500003
-0.077499531 -0.018750239 0.65625006
-0.072514169 -0.018754167 0.65637505
-0.067462027 -0.018739883 0.65587503
-0.062452864 -0.018735955 0.65575004
-0.057060953 -0.01791032 0.65600014
-0.053246111 -0.017540557 0.65775001
-0.16669334 -0.014413334 0.65800005
-0.16318773 -0.012199762 0.65691674
-0.055991434 -0.012904763 0.65566671
-0.053476293 -0.012773811 0.65750003
-0.16231145 -0.0082588587 0.65700001
-0.1580656 -0.0063360548 0.65600002
-0.056561671 -0.0074995244 0.65625006
-0.054520003 -0.0087733343 0.65800005
-0.15719955 -0.0028160322 0.65716672
-0.15374351 -0.0022876193 0.6553334
-0.057457913 -0.0016270478 0.65720004
-0.15604001 0.0006266667 0.65800005
-0.15272167 0.0023986511 0.65675008
-0.14909048 0.004366667 0.65500003
-0.062301639 0.003485851 0.65700006
-0.058816195 0.00062571431 0.65700006
-0.15153858 0.0056357151 0.65750003
-0.14825763 0.0075061908 0.65683335
-0.065500006 0.0081095239 0.65500003
-0.063908003 0.0066280006 0.65660012
-0.14677115 0.012262573 0.65690005
-0.14421001 0.013734763 0.65550005
-0.066754654 0.013287977 0.65662503
-0.14635715 0.016076509 0.65766668
-0.14282611 0.018010667 0.65660006
-0.070526354 0.018099684 0.6553334
-0.068584338 0.017303493 0.6566667
-0.14127493 0.021076193 0.65733337
-0.13832323 0.022741904 0.65600008
-0.071730837 0.022035357 0.65637499
-0.069560006 0.021306667 0.65800005
-0.13657986 0.027108416 0.65683335
-0.13320249 0.028837908 0.65539998
-0.075826675 0.029453335 0.65800005
-0.073320001 0.025693335 0.65800005
-0.13598667 0.030706668 0.65800005
-0.1323653 0.03219004 0.65676928
-0.12877843 0.033911116 0.6553334
-0.080471434 0.034309525 0.65500003
-0.078416578 0.032893147 0.6566
-0.13123691 0.036645956 0.65775001
-0.12766853 0.037638165 0.65646678
-0.1241381 0.039300002 0.65500003
-0.081745297 0.037574288 0.65633339
-0.07958667 0.035720002 0.65800005
-0.12673144 0.04154826 0.65766668
-0.12395402 0.04280844 0.65685719
-0.085461907 0.044290479 0.65500003
-0.083187155 0.042688817 0.65675002
-0.12196206 0.046908442 0.65671432
-0.11914763 0.048657149 0.65500003
-0.087170362 0.047960598 0.65612501
-0.084471434 0.045677144 0.65700001
-0.12085477 0.051348098 0.65750003
-0.11841873 0.052993547 0.65633339
-0.091229521 0.053437531 0.65700001
-0.088850483 0.051934924 0.65700001
-0.11651775 0.057086788 0.65687501
-0.11397548 0.058394052 0.65575004
-0.095880009 0.059533339 0.65800005
-0.092534699 0.056773335 0.65714294
-0.11258844 0.061973751 0.65728581
-0.10729524 0.064252384 0.65500003
-0.10168096 0.064252391 0.65500009
-0.097329341 0.063052006 0.65680003
-0.1071154 0.067387037 0.65653855
-0.10244167 0.067462496 0.65587503
-0.098724641 0.067121081 0.65712506
-0.10627081 0.071195245 0.65766668
-0.10271087 0.071772955 0.65760005
-0.099640004 0.070813335 0.65800005
-0.16070478 -0.026609525 0.66000003
-0.1574994 -0.027721433 0.6615001
-0.15244056 -0.027088176 0.66141677
-0.14736357 -0.026450953 0.66125
-0.14232115 -0.026875241 0.66240007
-0.13749501 -0.026490478 0.6622501
-0.13247488 -0.026495598 0.66237503
-0.1276087 -0.026699685 0.66222233
-0.12258736 -0.0264298 0.66300005
-0.11737965 -0.026505359 0.66262507
-0.11254369 -0.026401909 0.6622858
-0.10756668 -0.026418645 0.66271436
-0.10260715 -0.026204286 0.66300005
-0.095345721 -0.025888573 0.66300005
-0.091978103 -0.025888573 0.66300005
-0.086505719 -0.025888573 0.66300005
-0.082085721 -0.025888573 0.66300005
-0.15777145 -0.024514288 0.66000003
-0.14520001 -0.024514288 0.66000003
-0.14191076 -0.023996737 0.66057146
-0.13671288 -0.024113812 0.66050005
-0.13170287 -0.024277715 0.66040003
-0.12706763 -0.023904288 0.66050005
-0.12234117 -0.023740955 0.66177785
-0.1174343 -0.024292573 0.6608001
-0.11152255 -0.02410762 0.6603334
-0.10701867 -0.023544954 0.66100001
-0.10240176 -0.023293812 0.66100001
-0.097464487 -0.023549048 0.66110003
-0.092049047 -0.023958573 0.66200006
-0.087380961 -0.02331778 0.66166669
-0.082970962 -0.023460001 0.66125
-0.077567905 -0.023800667 0.66110003
-0.072263815 -0.023617622 0.66125005
-0.067711577 -0.023121981 0.66161549
-0.063085407 -0.02289704 0.66166675
-0.057721235 -0.022243133 0.66185725
-0.052849974 -0.02257924 0.66220009
-0.048366114 -0.022291191 0.66241682
-0.050914288 -0.0176 0.66000003
-0.048225868 -0.0179822 0.66161549
-0.044831432 -0.019574286 0.66300005
-0.16786286 -0.012113571 0.66075003
-0.051397622 -0.012166509 0.66083336
-0.049411751 -0.014087938 0.66233343
-0.16697524 -0.0075603812 0.66160011
-0.1631308 -0.0056685722 0.66133344
-0.05594286 -0.0056571434 0.66000003
-0.053431328 -0.0074926987 0.66177785
-0.16161272 -0.0029415877 0.66200006
-0.15926954 -0.00062952383 0.66100001
-0.055971116 -0.0023050797 0.6603334
-0.054615434 -0.0029015241 0.66220009
-0.15770525 0.0026452381 0.6613
-0.15400001 0.0044000004 0.66000003
-0.060971431 0.0044000004 0.66000003
-0.057779126 0.0027909528 0.66149998
-0.054934289 0.0012628572 0.66300005
-0.15637392 0.0066893338 0.66260004
-0.15277621 0.0080855563 0.6615001
-0.14897144 0.0094285719 0.66000003
-0.062305026 0.0079531604 0.66081822
-0.058993578 0.0069411909 0.66250008
-0.15155061 0.012401587 0.66211122
-0.1490843 0.013839524 0.66050005
-0.06328252 0.012423335 0.66164297
-0.05998572 0.010734286 0.66300005
-0.15091144 0.015785715 0.66300005
-0.14797397 0.018136932 0.66177779
-0.066249527 0.018120423 0.66111118
-0.064550802 0.01619016 0.66233337
-0.14593621 0.022327051 0.66220009
-0.14330202 0.023173124 0.66155565
-0.071710959 0.024532858 0.66050005
-0.068643101 0.022986669 0.66125005
-0.14586002 0.025888573 0.66300005
-0.1417079 0.026937554 0.66214293
-0.13878953 0.028615048 0.66180009
-0.072246023 0.02812756 0.66181254
-0.069211438 0.026296509 0.66266674
-0.13726491 0.032855105 0.6615715
-0.13388573 0.03394286 0.66000003
-0.076463915 0.033511329 0.66111112
-0.073780552 0.031801227 0.66214293
-0.13555239 0.035937145 0.66200006
-0.13300589 0.03797286 0.66083336
-0.080578104 0.039660003 0.66100001
-0.078350134 0.037657667 0.66200006
-0.13135007 0.042663071 0.66200012
-0.1281489 0.043835245 0.6606667
-0.081387356 0.042716879 0.66100007
-0.13070573 0.046094287 0.66300005
-0.1271151 0.047694921 0.66183341
-0.12340041 0.048681527 0.66040003
-0.085679054 0.049140479 0.66150004
-0.082946934 0.047522515 0.66209102
-0.1256543 0.051145718 0.66300005
-0.12310424 0.053039689 0.66211122
-0.087546453 0.053116616 0.66133338
-0.12087222 0.057598576 0.66216677
-0.11866525 0.058861434 0.66100001
-0.091775075 0.058684856 0.66127282
-0.088521592 0.056561589 0.66233343
-0.11697631 0.06227155 0.66212505
-0.11340985 0.064356521 0.6603334
-0.095614761 0.06479191 0.66050005
-0.093335256 0.062596783 0.66184628
-0.11555143 0.065037146 0.66300005
-0.11222932 0.067977592 0.66230774
-0.096666671 0.067699052 0.66125005
-0.093451433 0.065668575 0.66300005
-0.11155865 0.071877286 0.66285723
-0.10812382 0.072852068 0.66133344
-0.10163353 0.073676191 0.66119999
-0.099134289 0.071351431 0.66300005
-0.10698002 0.075616196 0.66242868
-0.10265429 0.076157145 0.66242868
-0.15516667 -0.031033335 0.66500002
-0.15235938 -0.031969529 0.66688889
-0.14753704 -0.031726126 0.66814291
-0.14269514 -0.03201725 0.66788894
-0.13741715 -0.031810477 0.66799998
-0.13217953 -0.031774525 0.6672501
-0.12772508 -0.031613655 0.66833347
-0.12233144 -0.031220002 0.66900003
-0.11754534 -0.031456195 0.66860008
-0.11219639 -0.031456195 0.66860008
-0.10704 -0.031220002 0.66900003
-0.10321715 -0.031220002 0.66900003
-0.086014293 -0.031220002 0.66900003
-0.082828581 -0.031220002 0.66900003
-0.077731431 -0.031220002 0.66900003
-0.073908575 -0.031220002 0.66900003
-0.15516667 -0.029766669 0.66500002
-0.15171067 -0.02953124 0.66540003
-0.14712727 -0.029172262 0.66587502
-0.142332 -0.02953124 0.66539997
-0.1375362 -0.029155716 0.66549999
-0.13284233 -0.029068166 0.66557145
-0.12744239 -0.029325239 0.66575003
-0.12243716 -0.028971536 0.66611111
-0.11778083 -0.029105717 0.66642857
-0.11269122 -0.028966563 0.66600001
-0.10756287 -0.028951854 0.66566664
-0.10249401 -0.028567843 0.66653848
-0.097773686 -0.027938308 0.6666429
-0.092517339 -0.028088385 0.66720003
-0.087697282 -0.028077342 0.66693336
-0.082487553 -0.028554684 0.66624999
-0.077498339 -0.02795238 0.667
-0.072609402 -0.027850673 0.66760004
-0.067560554 -0.027698781 0.66742861
-0.062449023 -0.027856383 0.66773337
-0.057243817 -0.027350955 0.66783345
-0.05190156 -0.027194723 0.66681826
-0.04748686 -0.026354289 0.66840011
-0.043962859 -0.026122859 0.66900003
-0.072833337 -0.024700001 0.66500002
-0.061463498 -0.024712382 0.66533339
-0.057451434 -0.024290159 0.66533339
-0.046002623 -0.023478096 0.66624999
-0.04286534 -0.02264286 0.66780013
-0.046034481 -0.016359432 0.66580003
-0.043287415 -0.01828889 0.66733336
-0.050070956 -0.011408096 0.66550004
-0.047184989 -0.012761686 0.66746157
-0.050944872 -0.0073984135 0.66588891
-0.048161592 -0.0078498414 0.66833335
-0.16681144 -0.0036022225 0.66766667
-0.16377297 -0.0016483812 0.66600007
-0.052305482 -0.0027530955 0.66708338
-0.049060002 -0.0044600004 0.66900003
-0.16205594 0.0022700685 0.6672858
-0.055431433 0.0038228575 0.66900003
-0.053678416 0.00212254 0.66833341
-0.16119716 0.0063714292 0.66900003
-0.1580482 0.0079857139 0.66539997
-0.057008006 0.0078710495 0.66659999
-0.054157145 0.0063714292 0.66900003
-0.15663747 0.011658731 0.66766667
-0.15436287 0.013342541 0.667
-0.060892012 0.013604382 0.6674
-0.058040597 0.011927263 0.66787505
-0.15290286 0.017660953 0.66825002
-0.062735245 0.01729016 0.66688889
-0.15127715 0.021853019 0.66833341
-0.14860821 0.022756383 0.66740006
-0.06668207 0.022440478 0.6668334
-0.14546953 0.028585717 0.66700006
-0.14342096 0.028557463 0.66633332
-0.068501912 0.027907621 0.66600001
-0.14236572 0.033048734 0.66733336
-0.13919175 0.033161908 0.66533339
-0.071790472 0.033043176 0.6657778
-0.06903334 0.031033335 0.66500002
-0.14215431 0.036493339 0.66833341
-0.13761473 0.037877992 0.66655552
-0.1349 0.038633335 0.66500002
-0.075974569 0.038304903 0.66557145
-0.073492795 0.037155919 0.6677143
-0.13659535 0.041904133 0.66777784
-0.13373381 0.043099526 0.66550004
-0.080433339 0.043066669 0.66500002
-0.07813175 0.041925713 0.66700006
-0.074545719 0.040777147 0.66900003
-0.13571143 0.04587429 0.66900003
-0.13268055 0.047249261 0.6665715
-0.12983334 0.048766669 0.66500002
-0.080433339 0.048766669 0.66500002
-0.079523817 0.047080003 0.66800004
-0.13100739 0.050876431 0.66775006
-0.12767465 0.052339409 0.666125
-0.085542858 0.052593656 0.66533339
-0.082651362 0.051995102 0.66638464
-0.12649095 0.056960717 0.66825008
-0.12368573 0.057467051 0.66600001
-0.087250471 0.05734551 0.66655564
-0.084230803 0.055800956 0.66833341
-0.12242205 0.062074561 0.6680001
-0.11933778 0.063576512 0.66533339
-0.090657465 0.062764131 0.6656667
-0.089283578 0.061323103 0.66725004
-0.12042001 0.066262864 0.66900003
-0.11739465 0.067371093 0.66563636
-0.095633343 0.06903334 0.66500002
-0.092520103 0.067539617 0.66691673
-0.11723673 0.071924128 0.66699994
-0.11395878 0.072864905 0.66528577
-0.097910047 0.072264858 0.66718185
-0.094297148 0.070722863 0.66900003
-0.1115751 0.076900005 0.66728574
-0.10760437 0.078413069 0.66628575
-0.10228334 0.078216672 0.66500002
-0.099293076 0.077309124 0.66771436
-0.14725056 -0.036305804 0.67090917
-0.14257513 -0.036766734 0.67253333
-0.13713798 -0.035887744 0.67287505
-0.13239716 -0.035662863 0.67266673
-0.12773906 -0.035304762 0.67400002
-0.12132001 -0.035304762 0.67400002
-0.11618477 -0.035304762 0.67400002
-0.11361715 -0.035304762 0.67400002
-0.081521913 -0.035304762 0.67400002
-0.078954294 -0.035304762 0.67400002
-0.15122858 -0.03381905 0.67000002
-0.14816575 -0.033563811 0.67000002
-0.14236541 -0.033835877 0.67033339
-0.13782859 -0.03381905 0.67000002
-0.13287169 -0.033856906 0.67075002
-0.12712246 -0.033540957 0.67171437
-0.12255403 -0.033175789 0.67171437
-0.11733635 -0.0333298 0.67114288
-0.1123811 -0.033322588 0.67100006
-0.10758037 -0.033300124 0.67237508
-0.1021902 -0.032912862 0.67230004
-0.097311705 -0.032167792 0.67181826
-0.092659064 -0.032400697 0.6718182
-0.087619685 -0.032620955 0.67155558
-0.082498103 -0.033256665 0.67150003
-0.077705316 -0.033147488 0.67114288
-0.07264962 -0.032873623 0.67150009
-0.067756355 -0.032601111 0.67116678
-0.062860645 -0.032177463 0.67122227
-0.057765175 -0.031584218 0.67285717
-0.052548453 -0.030761074 0.67287499
-0.047249008 -0.0312871 0.67290908
-0.0424265 -0.031253852 0.67218184
-0.037146192 -0.030422382 0.67250001
-0.093800008 -0.028714288 0.67000002
-0.070828579 -0.029990477 0.67000002
-0.066361904 -0.029990477 0.67000002
-0.060619052 -0.029990477 0.67000002
-0.058066666 -0.029990477 0.67000002
-0.0542381 -0.028714288 0.67000002
-0.046966262 -0.028179595 0.67028582
-0.04196788 -0.027572557 0.67045462
-0.037120886 -0.027521841 0.67207152
-0.040645402 -0.02340889 0.67033339
-0.037991814 -0.023281716 0.67159998
-0.041088574 -0.017425954 0.67150003
-0.0385562 -0.018223677 0.67314285
-0.045304764 -0.011485714 0.67000002
-0.042348325 -0.012922288 0.67173338
-0.045909662 -0.007391837 0.67085719
-0.043094646 -0.008490596 0.67287505
-0.17075287 -0.0025571431 0.67150003
-0.16841209 -0.0014901588 0.67066669
-0.050860003 -0.0010638096 0.67033339
-0.048313882 -0.0028300683 0.67128581
-0.1705327 0.0027815874 0.67400002
-0.16737133 0.002377823 0.67185712
-0.16372827 0.0040450799 0.67066669
-0.051582098 0.0028160003 0.67200005
-0.1669324 0.007377143 0.67349994
-0.1629478 0.0081061916 0.6718334
-0.055680007 0.0089619057 0.67200005
-0.052568719 0.0070394562 0.67200011
-0.16138667 0.011329524 0.67333335
-0.15824345 0.013686858 0.67160004
-0.05689298 0.013621787 0.67312503
-0.15708572 0.01770688 0.67199993
-0.15378097 0.019142859 0.67000002
-0.061530482 0.018949525 0.67066669
-0.058773931 0.017457264 0.67262501
-0.15598287 0.021182859 0.67400002
-0.15274431 0.023191908 0.67174995
-0.1499524 0.023609525 0.67000002
-0.065756515 0.023620639 0.67033339
-0.063276015 0.022529354 0.67236364
-0.1515284 0.026816005 0.67360008
-0.14834325 0.027726477 0.67080003
-0.066902027 0.027942739 0.67062503
-0.064203434 0.026782477 0.67280006
-0.15084763 0.030169526 0.67400002
-0.1476744 0.031924553 0.67188889
-0.14484763 0.03381905 0.67000002
-0.067314364 0.03221897 0.67208338
-0.064768255 0.031423494 0.67333335
-0.14634192 0.035147622 0.671
-0.14310382 0.038169719 0.67020005
-0.071679056 0.036480002 0.67200005
-0.14210993 0.041636191 0.67257148
-0.13931544 0.042267811 0.67040008
-0.077325404 0.043455243 0.671
-0.073766403 0.042506807 0.67185718
-0.13744695 0.047096744 0.67214286
-0.13483906 0.047928575 0.671
-0.07713756 0.047217283 0.67257142
-0.073819056 0.045575242 0.67400002
-0.13544191 0.050710481 0.67400002
-0.13287559 0.053150363 0.67237496
-0.12953334 0.0542381 0.67000002
-0.080579534 0.053720001 0.67150003
-0.078563072 0.051975138 0.67188889
-0.13179164 0.056737531 0.6724
-0.12885906 0.058091979 0.67028582
-0.08614286 0.058704764 0.67000002
-0.082480073 0.057733398 0.67206675
-0.078954294 0.055845719 0.67400002
-0.13030668 0.060980957 0.67400002
-0.12727845 0.062563993 0.67218184
-0.1242943 0.063586675 0.671
-0.087068938 0.062925838 0.67162502
-0.083768584 0.061943814 0.67400002
-0.12218763 0.068004221 0.67271435
-0.090559527 0.068800956 0.67199999
-0.088506676 0.067290582 0.67288888
-0.12132001 0.07125143 0.67400002
-0.095998272 0.073861748 0.67050004
-0.092175469 0.072787769 0.67176926
-0.096822582 0.077638768 0.67150003
-0.092871338 0.076906465 0.67355549
-0.14154465 -0.041480359 0.67787504
-0.13729115 -0.041756671 0.67869997
-0.13386001 -0.040740002 0.67900002
-0.14142859 -0.039214287 0.67500001
-0.13767335 -0.038600475 0.67550004
-0.13250354 -0.038283531 0.67670006
-0.12758683 -0.03786638 0.67738467
-0.12268914 -0.037399322 0.67699999
-0.1175677 -0.037687417 0.67721432
-0.11197335 -0.037720799 0.67700005
-0.10734115 -0.03739566 0.67693746
-0.10310906 -0.036781054 0.67750007
-0.097189531 -0.03591048 0.67733335
-0.092548586 -0.036008708 0.67685717
-0.08752542 -0.037255056 0.67673343
-0.082780249 -0.037688173 0.67641675
-0.07704518 -0.036176875 0.67657149
-0.072098173 -0.037157487 0.67764294
-0.067203596 -0.036952462 0.67699999
-0.062080007 -0.036387939 0.67822224
-0.057525404 -0.036195874 0.67866671
-0.052997265 -0.036193695 0.67862499
-0.048212387 -0.035804387 0.67860001
-0.044620004 -0.035566669 0.67900002
-0.036213338 -0.035566669 0.67900002
-0.096428573 -0.034071431 0.67500001
-0.090642862 -0.034071431 0.67500001
-0.089357145 -0.034071431 0.67500001
-0.061897151 -0.034172386 0.67700005
-0.057143241 -0.033667434 0.67720008
-0.052753337 -0.033453811 0.67550009
-0.047984574 -0.03383448 0.67540002
-0.042205717 -0.033945527 0.67760003
-0.037215587 -0.032997929 0.67690915
-0.03246218 -0.032003678 0.67785728
-0.032674365 -0.027222933 0.67684633
-0.035838418 -0.021887939 0.67600006
-0.03358274 -0.021957261 0.67812496
-0.036337148 -0.017417463 0.67733335
-0.034273334 -0.018753335 0.67900002
-0.040500004 -0.010928572 0.67500001
-0.037912384 -0.013210954 0.67666674
-0.041917011 -0.0070933341 0.67714286
-0.038996194 -0.0092641283 0.67866671
-0.04654881 -0.0020928574 0.67650008
-0.043592174 -0.0030880431 0.67866665
-0.17256631 0.0034805716 0.67660004
-0.047976192 0.0023074832 0.67814291
-0.043844003 0.0014226668 0.67900002
-0.17185001 0.0066680959 0.67750001
-0.16900048 0.0083709527 0.676
-0.052213337 0.0087493882 0.67685723
-0.049337782 0.0073257154 0.67866671
-0.17007336 0.012286669 0.67900008
-0.16717947 0.012910873 0.67775005
-0.1628125 0.013514573 0.67570013
-0.053172994 0.012718436 0.67735732
-0.049793337 0.011640001 0.67900002
-0.16716336 0.016490001 0.67900002
-0.16289733 0.017552555 0.67799997
-0.15902096 0.018670477 0.67600006
-0.057024192 0.017892763 0.67580003
-0.054508578 0.016589843 0.67866677
-0.16166668 0.020046668 0.67900002
-0.15790164 0.022188438 0.67671436
-0.060606197 0.023211906 0.67699999
-0.058499813 0.021308575 0.67799997
-0.15582953 0.026726289 0.6778
-0.15331067 0.027933909 0.67580003
-0.062263619 0.027330477 0.67680007
-0.1523324 0.032275241 0.67775005
-0.14978573 0.032785717 0.67500001
-0.070071436 0.034071431 0.67500001
-0.065217145 0.03422286 0.67800003
-0.063169688 0.031585559 0.67683339
-0.15067334 0.035566669 0.67900002
-0.14761764 0.037872545 0.67783332
-0.070925586 0.037993338 0.67614299
-0.067492969 0.03710103 0.67792308
-0.14593124 0.04252629 0.67860001
-0.14321177 0.044015557 0.67633337
-0.071440175 0.042607795 0.67690915
-0.069193341 0.041386671 0.67900002
-0.14182298 0.047515027 0.67722219
-0.13848668 0.049169213 0.67633337
-0.075214289 0.048857145 0.67500001
-0.073233336 0.047748812 0.67750001
-0.14032668 0.051086672 0.67900002
-0.13741684 0.052886035 0.67811114
-0.076509848 0.053085085 0.67699999
-0.13644667 0.057230003 0.67900002
-0.13354215 0.05792072 0.67575002
-0.080357149 0.059142862 0.67500001
-0.07803075 0.057395924 0.67714286
-0.13215296 0.062135816 0.67820007
-0.082400419 0.062882595 0.6767143
-0.079422861 0.060051434 0.67800003
-0.12743229 0.067193128 0.67766672
-0.12416334 0.068193808 0.67550004
-0.08614134 0.067858674 0.67600006
-0.08446382 0.067056194 0.67700005
-0.1261 0.070486672 0.67900002
-0.12351811 0.071889907 0.67760003
-0.088108405 0.072048664 0.67709094
-0.090548575 -0.046251431 0.68400002
-0.13662858 -0.04424648 0.68120003
-0.13243754 -0.043022539 0.68233341
-0.1275235 -0.043030798 0.68246669
-0.12257143 -0.042231433 0.68216676
-0.11748938 -0.042272225 0.68283337
-0.11244182 -0.042249609 0.68245459
-0.10770027 -0.042125542 0.68236369
-0.10347588 -0.041651435 0.6833334
-0.097176515 -0.042039793 0.68377781
-0.09236858 -0.04293238 0.68299997
-0.087454297 -0.042754948 0.68253845
-0.082243346 -0.042045236 0.68266672
-0.077432275 -0.042295769 0.68322229
-0.072739296 -0.042215794 0.68191671
-0.067661554 -0.041638691 0.68312502
-0.062468819 -0.041646194 0.68325007
-0.057557017 -0.041564092 0.68342865
-0.052076191 -0.041010004 0.68350005
-0.047519527 -0.041661434 0.68350005
-0.042969149 -0.042058293 0.68360007
-0.03905667 -0.041010004 0.68350005
-0.026836405 -0.042026244 0.6835556
-0.022519622 -0.042436194 0.68340003
-0.12110477 -0.039504763 0.68000001
-0.11462858 -0.039504763 0.68000001
-0.10154097 -0.038754608 0.6820001
-0.097687624 -0.038583241 0.6820001
-0.092454299 -0.039039869 0.68157142
-0.080952384 -0.039504763 0.68000001
-0.07785739 -0.038929287 0.68125004
-0.073828578 -0.039504763 0.68000001
-0.066704765 -0.039504763 0.68000001
-0.062169939 -0.039007761 0.68099999
-0.057033338 -0.038886193 0.68049997
-0.052151572 -0.038999457 0.68085724
-0.047590103 -0.038255241 0.68080002
-0.042709149 -0.037777979 0.68153346
-0.037853539 -0.037949461 0.68192869
-0.032626376 -0.037224762 0.68200004
-0.027282443 -0.037677445 0.68206257
-0.022862857 -0.037870653 0.68236375
-0.031085715 -0.034323812 0.68000001
-0.027296014 -0.032495297 0.68243754
-0.023768334 -0.033535954 0.68375003
-0.030482858 -0.025943812 0.68099999
-0.028011432 -0.029314287 0.68400002
-0.031175954 -0.022081906 0.68200004
-0.033198096 -0.018226668 0.68350005
-0.036034528 -0.012010715 0.68175
-0.034475237 -0.014309525 0.68300003
-0.040920004 -0.0058457148 0.68200004
-0.038336873 -0.0075186398 0.68228585
-0.041625857 -0.0019474832 0.68142867
-0.0397081 -0.0039052386 0.68350005
-0.046628576 0.0045333337 0.68000001
-0.043131433 0.0029790476 0.68000001
-0.17248255 0.0092825405 0.68000001
-0.047219731 0.0075160549 0.68185723
-0.04488286 0.0065047625 0.68300003
-0.17161906 0.011009525 0.68000001
-0.050718337 0.014305476 0.68275005
-0.04832172 0.012894668 0.68380004
-0.16819124 0.018284192 0.68080008
-0.055776194 0.018808573 0.68099999
-0.052134819 0.017427092 0.6833334
-0.16677675 0.021069799 0.68214291
-0.16306488 0.022637838 0.68263644
-0.15996191 0.022666669 0.68000001
-0.05666972 0.022356382 0.68240005
-0.053634293 0.020628572 0.68400002
-0.16179179 0.026694408 0.68362504
-0.15851021 0.027548846 0.68171436
-0.060317148 0.027241906 0.68099999
-0.057922345 0.026920956 0.68336374
-0.15741621 0.032134287 0.68300003
-0.15435906 0.03307905 0.68099999
-0.061763175 0.032724023 0.68266666
-0.059280004 0.030617144 0.68400002
-0.15569144 0.036480002 0.68400002
-0.15250945 0.038034495 0.68350005
-0.065905407 0.039111748 0.68066669
-0.063497566 0.037493758 0.68266672
-0.15116137 0.042325724 0.68371433
-0.14838096 0.043324765 0.68233341
-0.067241907 0.043037012 0.6817143
-0.064491436 0.04169143 0.68400002
-0.15048002 0.046251431 0.68400002
-0.14691006 0.047523815 0.6835556
-0.14312382 0.049866669 0.68000001
-0.071368814 0.047364052 0.68125004
-0.068620197 0.046745524 0.68360007
-0.14641991 0.052497815 0.68390006
-0.14233156 0.052744888 0.68162507
-0.1392381 0.053752385 0.68000001
-0.075771436 0.052457146 0.68000001
-0.073466457 0.052229848 0.68266672
-0.14570287 0.056240004 0.68400002
-0.14220774 0.056622982 0.68337506
-0.1388479 0.057784222 0.68171436
-0.075771436 0.055695243 0.68000001
-0.074914292 0.055371433 0.68400002
-0.14005715 0.060582861 0.68400002
-0.1368508 0.061891224 0.68244445
-0.13407739 0.063306913 0.68175006
-0.080717146 0.063839689 0.68166673
-0.079063177 0.062386036 0.68233341
-0.13239655 0.06717512 0.68312502
-0.082134522 0.067752667 0.68288231
-0.078822859 0.065794289 0.68400002
-0.13524 -0.04638667 0.68600005
-0.13216454 -0.047109045 0.68700004
-0.12752223 -0.047649637 0.68744451
-0.12262794 -0.046478733 0.68733346
-0.11767032 -0.046367627 0.68745458
-0.11259176 -0.046478733 0.68733335
-0.10735493 -0.046478733 0.68733346
-0.10221715 -0.045867622 0.68800008
-0.097093336 -0.046072114 0.68685728
-0.092930637 -0.047121115 0.68716669
-0.087599196 -0.046278097 0.68714291
-0.082545362 -0.045859408 0.68787503
-0.077276312 -0.045842979 0.68762505
-0.072049759 -0.045851193 0.6877501
-0.066648573 -0.0456708 0.68833339
-0.062926434 -0.04588405 0.68825006
-0.057703335 -0.045244288 0.68850005
-0.052665085 -0.045233335 0.68833339
-0.047090717 -0.045129288 0.68675005
-0.042215511 -0.045961365 0.68800008
-0.038020954 -0.0456708 0.68833345
-0.032590795 -0.045277145 0.68900001
-0.027083494 -0.045648895 0.68800008
-0.02226655 -0.045842502 0.68762505
-0.10257335 -0.043120004 0.68600005
-0.099524453 -0.043337785 0.68600005
-0.081666671 -0.043773334 0.68600005
-0.06807024 -0.0438531 0.68725008
-0.062789291 -0.043821193 0.68675005
-0.057168391 -0.043563049 0.68680006
-0.052381907 -0.043215245 0.6875
-0.047040001 -0.043773334 0.68600005
-0.041160002 -0.043773334 0.68600005
-0.037679907 -0.042784471 0.68689996
-0.032722384 -0.042540159 0.68716681
-0.028978731 -0.043359052 0.68633342
-0.020282859 -0.041220002 0.68700004
-0.032013334 -0.039853334 0.68600005
-0.020561907 -0.037588954 0.68760002
-0.021847621 -0.032566581 0.68763638
-0.030751431 -0.028134288 0.68700004
-0.027337147 -0.027035166 0.68723089
-0.023508983 -0.028192246 0.68842864
-0.027943518 -0.022406671 0.68730778
-0.024279049 -0.024279049 0.68900001
-0.031778522 -0.016506562 0.6872223
-0.028986478 -0.017968575 0.6886
-0.033227623 -0.012276667 0.6875
-0.03642159 -0.0074139694 0.68700004
-0.033734921 -0.008378732 0.6885556
-0.0382361 -0.0027511432 0.68750012
-0.041789528 0.0024855242 0.68780005
-0.046016827 0.0089412704 0.68700004
-0.043228813 0.0065502389 0.68775004
-0.046912383 0.013309209 0.68733335
-0.050960004 0.018946668 0.68600005
-0.04796106 0.016958097 0.68777782
-0.16771588 0.023773018 0.68700004
-0.055533338 0.024173334 0.68600005
-0.05256889 0.022322753 0.6871112
-0.049214289 0.020341907 0.68900001
-0.16621272 0.027084447 0.68800008
-0.16363168 0.028799765 0.68725002
-0.056136955 0.028396383 0.6870001
-0.054384768 0.026210479 0.68800002
-0.16231222 0.032557752 0.68745458
-0.15822239 0.034651905 0.68650007
-0.060760003 0.03462667 0.68600005
-0.058031175 0.03255862 0.68745458
-0.16076668 0.036090478 0.68900001
-0.15820825 0.03736667 0.68833339
-0.061371624 0.037557147 0.68700004
-0.059713338 0.03674667 0.68900001
-0.15673925 0.041576952 0.68860006
-0.15379468 0.042728003 0.68600005
-0.063307628 0.042132385 0.68766677
-0.15551715 0.045277145 0.68900001
-0.1524507 0.047228683 0.68766677
-0.14961334 0.047693338 0.68600005
-0.070610955 0.049035717 0.68650007
-0.067065723 0.04776429 0.68700004
-0.06477429 0.045145717 0.68700004
-0.15026763 0.051839054 0.68900001
-0.1483067 0.051613338 0.68600005
-0.070902549 0.052578524 0.68722224
-0.14700001 0.056404449 0.68600005
-0.14373335 0.058800004 0.68600005
-0.076059535 0.058625244 0.68650007
-0.072878189 0.057504851 0.68827283
-0.14155 0.061785243 0.68650001
-0.13879208 0.064275883 0.68633342
-0.07650438 0.062773421 0.6865834
-0.073640317 0.062933341 0.68833339
-0.12682858 -0.055857148 0.69000006
-0.12685131 -0.05159536 0.69012505
-0.12303001 -0.05222651 0.69266671
-0.11745947 -0.051660109 0.6924445
-0.1124481 -0.051774051 0.6925
-0.10774603 -0.05101588 0.69266671
-0.10244763 -0.050893337 0.69400001
-0.097820953 -0.050893337 0.69400001
-0.092533335 -0.050893337 0.69400001
-0.087906681 -0.050893337 0.69400001
-0.076009527 -0.050893337 0.69400001
-0.073365718 -0.050893337 0.69400001
-0.13077144 -0.049285717 0.69000006
-0.12617144 -0.049285717 0.69000006
-0.12227215 -0.049303576 0.69025004
-0.11697143 -0.049285717 0.69000006
-0.11237144 -0.049285721 0.69000006
-0.10784858 -0.049321432 0.69050002
-0.10266286 -0.048700001 0.69099998
-0.097739324 -0.048824497 0.6914286
-0.092264771 -0.049428575 0.69200003
-0.087203823 -0.048824497 0.6914286
-0.082688436 -0.048636738 0.6914286
-0.077698454 -0.04872679 0.69137502
-0.0724556 -0.048744645 0.69162506
-0.067426674 -0.047939621 0.69140005
-0.062257692 -0.048885718 0.69228584
-0.057936866 -0.047800478 0.69130003
-0.052617569 -0.047202963 0.69155562
-0.047536198 -0.047349259 0.69185716
-0.04222643 -0.048162621 0.69275004
-0.036667939 -0.048308894 0.69166672
-0.032720003 -0.047557924 0.69090915
-0.02805762 -0.047568098 0.69050002
-0.022375239 -0.048040956 0.69100004
-0.016523812 -0.046927623 0.69400001
-0.017708313 -0.042202514 0.69336373
-0.018456034 -0.037574451 0.69216675
-0.02037143 -0.030885717 0.69000006
-0.018658256 -0.032928735 0.69150007
-0.02153274 -0.027286071 0.69037503
-0.019153811 -0.029060479 0.69350004
-0.02570286 -0.021746669 0.69200009
-0.023501432 -0.022838891 0.69183338
-0.027252065 -0.016584974 0.69044447
-0.030885717 -0.012485716 0.69000006
-0.028997144 -0.012520953 0.69200003
-0.03167538 -0.0072367354 0.69085723
-0.029742859 -0.0092533343 0.69400001
-0.036484525 -0.0016430954 0.69025004
-0.033091754 -0.002767429 0.69220001
-0.040634673 0.0035508573 0.69040006
-0.037453685 0.0020983552 0.69218183
-0.045342859 0.0098571433 0.69000006
-0.042039867 0.0078066676 0.69128579
-0.045342859 0.012485716 0.69000006
-0.043665718 0.012269144 0.69260007
-0.045879528 0.0175627 0.69150007
-0.044283811 0.015862858 0.69400001
-0.17020001 0.024314288 0.69000006
-0.050928578 0.023328573 0.69000006
-0.047990862 0.022151051 0.69220001
-0.17081669 0.02770143 0.69250005
-0.16848843 0.028045241 0.69016671
-0.052540731 0.02771656 0.69161552
-0.049571432 0.025777144 0.69400001
-0.17118667 0.032386668 0.69400001
-0.16805905 0.03229418 0.69200003
-0.1644043 0.034196667 0.69050002
-0.056287386 0.03390548 0.69125003
-0.053872701 0.031884767 0.69266671
-0.16722095 0.035030477 0.69400001
-0.1629875 0.03761334 0.69285721
-0.15968573 0.038771432 0.69000006
-0.058100007 0.037573472 0.6921429
-0.16061144 0.040318098 0.69400001
-0.15827239 0.043106195 0.69100004
-0.061354153 0.041941091 0.69271433
-0.058824766 0.040318098 0.69400001
-0.15746287 0.047156431 0.69250011
-0.15377143 0.049285717 0.69000006
-0.06592153 0.048554286 0.69080007
-0.063681714 0.047070671 0.69220006
-0.15532382 0.050893337 0.69400001
-0.15267876 0.051989846 0.69099998
-0.067449935 0.052474011 0.69242871
-0.064112388 0.050893337 0.69400001
-0.070786357 0.057636511 0.69033337
-0.068826035 0.056511752 0.69266671
-0.072299622 0.062819242 0.69140005
-0.1251 -0.058909528 0.69500005
-0.12188524 -0.056715243 0.69650006
-0.11757858 -0.056243341 0.69749999
-0.11288739 -0.055115957 0.69725001
-0.10769144 -0.055175241 0.69800001
-0.10370287 -0.055175241 0.69800001
-0.092401914 -0.055175241 0.69800001
-0.088370487 -0.055148892 0.69766665
-0.12245239 -0.054496832 0.69500005
-0.11821621 -0.054143813 0.69500011
-0.11230318 -0.053614289 0.69500005
-0.10707633 -0.053113062 0.69585729
-0.10238464 -0.053135108 0.69614291
-0.097881489 -0.052514289 0.69600004
-0.092848934 -0.053057984 0.69637507
-0.087247625 -0.052791752 0.69577789
-0.082385719 -0.0522536 0.696091
-0.077253208 -0.052421097 0.69671434
-0.072722621 -0.052348331 0.69575012
-0.067757383 -0.051814526 0.69749999
-0.062087715 -0.052139711 0.69650006
-0.057543814 -0.051906906 0.69650006
-0.05118667 -0.05118667 0.69800001
-0.047862861 -0.05118667 0.69800001
-0.042544764 -0.05118667 0.69800001
-0.037200958 -0.051150002 0.69749999
-0.032242861 -0.051615812 0.69660002
-0.029228097 -0.051150002 0.69749999
-0.015954286 -0.05118667 0.69800001
-0.069500007 -0.049642861 0.69500005
-0.055679053 -0.04971429 0.69600004
-0.052516192 -0.049857151 0.69800007
-0.047622096 -0.049478095 0.69640011
-0.042392857 -0.049678575 0.69550002
-0.03839048 -0.049642861 0.69500005
-0.033757146 -0.049642861 0.69500005
-0.029185239 -0.049750004 0.69650006
-0.022601906 -0.049857147 0.69800001
-0.017266352 -0.049367622 0.69733334
-0.013290239 -0.04651691 0.69774997
-0.01522381 -0.042361908 0.69500005
-0.01305873 -0.042276088 0.69722223
-0.016116509 -0.036868472 0.69544458
-0.013002042 -0.038057555 0.69757152
-0.016595241 -0.032969207 0.69700003
-0.02051905 -0.025814287 0.69500005
-0.019236669 -0.026531907 0.69650006
-0.02213159 -0.022133492 0.69716668
-0.025814287 -0.017209526 0.69500005
-0.024288001 -0.017650669 0.69680005
-0.026557937 -0.012614763 0.69716668
-0.028072489 -0.0083270902 0.69633341
-0.031109527 -0.00066190481 0.69500005
-0.029814288 -0.0033114287 0.69566673
-0.035946671 0.0038476193 0.69640011
-0.033486906 0.0016597619 0.69625002
-0.041504953 0.0091502862 0.69620007
-0.038832858 0.0069714286 0.69700003
-0.041794863 0.012605145 0.69660008
-0.04335415 0.017360138 0.69728577
-0.046664767 0.02322159 0.69666672
-0.044539049 0.02060762 0.69800001
-0.050966669 0.029785717 0.69500005
-0.048415434 0.027857145 0.69640005
-0.052129149 0.032763433 0.69640011
-0.049857147 0.031243812 0.69800001
-0.17010954 0.036404766 0.69500005
-0.16730016 0.037351593 0.69616669
-0.16481429 0.039052382 0.69500005
-0.056140959 0.037826292 0.69680005
-0.054353338 0.035131432 0.69600004
-0.16237493 0.042195454 0.695889
