# .PCD v0.7 - Point Cloud Data file format
VERSION 0.7
FIELDS x y z
SIZE 4 4 4
TYPE F F F
COUNT 1 1 1
WIDTH 1332
HEIGHT 1
VIEWPOINT 0 0 0 1 0 0 0
POINTS 1332
DATA ascii
-0.096602552 0.056164451 0.64333338
-0.092516124 0.057265796 0.64191669
-0.087276272 0.057449605 0.64223087
-0.090160005 0.060720004 0.64400005
-0.08770667 0.061026674 0.64400005
-0.15634421 -0.016116001 0.64580005
-0.15309516 -0.016638702 0.64700001
-0.14923286 -0.015416668 0.64750004
-0.14009143 -0.015428573 0.648
-0.11232001 -0.015428573 0.648
-0.080845721 -0.015428573 0.648
-0.077730723 -0.01542262 0.64775002
-0.072794527 -0.01542262 0.64775002
-0.1630381 -0.011074286 0.64600003
-0.15623334 -0.01269524 0.64500004
-0.15234287 -0.013514287 0.64500004
-0.14756139 -0.01291262 0.64558333
-0.14280811 -0.012928095 0.64633334
-0.13765796 -0.013023957 0.64638466
-0.13271937 -0.012627145 0.64666665
-0.12762414 -0.012928572 0.64633328
-0.12239715 -0.01316511 0.64700001
-0.117461 -0.01228084 0.6465295
-0.11231439 -0.013053074 0.64699996
-0.10736619 -0.012113333 0.64666665
-0.10233986 -0.011714445 0.64733338
-0.097230494 -0.011887915 0.64646149
-0.09250363 -0.011932763 0.64579999
-0.087430485 -0.012315239 0.64649999
-0.082116202 -0.012319366 0.64666665
-0.077727266 -0.012742931 0.64653844
-0.072351627 -0.013167239 0.64600003
-0.067942284 -0.011448001 0.6462
-0.062675156 -0.011595326 0.64690906
-0.05800895 -0.012195111 0.64660001
-0.16184938 -0.0071788896 0.64616674
-0.15717094 -0.007045934 0.64561546
-0.15332405 -0.0058378577 0.64525002
-0.10082048 -0.009221429 0.64550006
-0.098900005 -0.0092142867 0.64500004
-0.065728575 -0.0092142867 0.64500004
-0.063910723 -0.0086035719 0.64525002
-0.056923814 -0.0073100538 0.64577782
-0.054671433 -0.0079857148 0.64500004
-0.16136144 -0.0028776191 0.64750004
-0.15791576 -0.0025893971 0.6475333
-0.15278205 -0.0023383494 0.64633334
-0.14927144 -0.00061428576 0.64500004
-0.057357065 -0.0024664288 0.64758331
-0.054925717 -0.0012342858 0.648
-0.15215769 0.0014980952 0.64757144
-0.14822787 0.0027710318 0.64625001
-0.062139053 0.0039990479 0.64600003
-0.05843965 0.0023125 0.64762497
-0.054925717 0.0018514286 0.648
-0.14715962 0.0060441913 0.64760005
-0.14284572 0.0076976195 0.64649999
-0.062708706 0.0075150477 0.64679998
-0.05986286 0.0055542863 0.648
-0.14127119 0.011413096 0.64775002
-0.13870573 0.012516191 0.64633334
-0.063125715 0.012009684 0.64666665
-0.05986286 0.010491429 0.648
-0.13692985 0.01662921 0.64666677
-0.13325024 0.018289525 0.6455
-0.066321909 0.017595431 0.64600003
-0.063941792 0.016793929 0.64712501
-0.13515429 0.021600001 0.648
-0.13239829 0.021840384 0.64779991
-0.12838234 0.022615559 0.64566666
-0.066741377 0.022384765 0.64688897
-0.064800009 0.021600001 0.648
-0.13021715 0.025920002 0.648
-0.12738422 0.026883239 0.64740002
-0.12397732 0.028074449 0.64550006
-0.071807079 0.028037827 0.64600009
-0.068247333 0.026986813 0.64738464
-0.12528001 0.030857146 0.648
-0.12223547 0.032022782 0.64658332
-0.11874096 0.033222862 0.64600003
-0.072074458 0.032034289 0.6468333
-0.068811432 0.030548573 0.648
-0.1207623 0.03614248 0.64760005
-0.1171039 0.036846273 0.64658332
-0.11368691 0.038100716 0.64525002
-0.07555715 0.039928574 0.64500004
-0.073382862 0.036382858 0.64750004
-0.11540572 0.040114287 0.648
-0.11274823 0.042511694 0.64690906
-0.10995715 0.044228576 0.64500004
-0.076045088 0.043454923 0.64566672
-0.074559055 0.041900955 0.64700001
-0.11088002 0.046697151 0.648
-0.10695495 0.047932863 0.6469
-0.10381429 0.049757145 0.64500004
-0.081148572 0.049181432 0.6455
-0.077792779 0.048197545 0.64741659
-0.074057147 0.045668572 0.648
-0.10553144 0.051840004 0.648
-0.10220356 0.052810483 0.64681816
-0.081500329 0.05317143 0.64666665
-0.078685723 0.051531434 0.648
-0.10059429 0.056160003 0.648
-0.097072117 0.058350481 0.64685714
-0.093444288 0.059631906 0.64550006
-0.085927628 0.058858417 0.64600009
-0.083184518 0.057530135 0.64700001
-0.095657147 0.061714292 0.648
-0.092378579 0.062817752 0.64664292
-0.087146126 0.063258812 0.6459167
-0.084207386 0.061999287 0.64775002
-0.091707431 0.066528007 0.648
-0.08776477 0.066800326 0.64744443
-0.15236668 -0.020522859 0.65300006
-0.14863525 -0.020522859 0.65300006
-0.15538096 -0.019190477 0.65000004
-0.15172261 -0.018335104 0.65100002
-0.14751177 -0.017494479 0.65133339
-0.14282642 -0.017498799 0.65146679
-0.13777202 -0.017378811 0.6516251
-0.13280763 -0.017378692 0.65162504
-0.12779394 -0.017371666 0.65137511
-0.12273692 -0.017358098 0.65087509
-0.11761697 -0.017471207 0.6509999
-0.11252117 -0.017633405 0.6512143
-0.10767227 -0.017378809 0.6516251
-0.10263032 -0.017429413 0.65217644
-0.097588509 -0.016946327 0.65207142
-0.092472993 -0.016439222 0.65245461
-0.086983465 -0.01646536 0.65237504
-0.082346015 -0.01742645 0.65161544
-0.077498332 -0.017360954 0.65100008
-0.072368577 -0.016955875 0.65133339
-0.067278527 -0.016412381 0.65136367
-0.062056955 -0.016508764 0.65160006
-0.05729663 -0.016653854 0.65200001
-0.053483814 -0.01554762 0.65300006
-0.13433334 -0.014238096 0.65000004
-0.10709524 -0.014238096 0.65000004
-0.10280167 -0.014243572 0.65025002
-0.09801589 -0.014238096 0.65000004
-0.092963576 -0.014254524 0.65075004
-0.088040009 -0.014260001 0.65100002
-0.08419048 -0.014238096 0.65000004
-0.067063339 -0.013784763 0.65050006
-0.062523812 -0.014238096 0.65000004
-0.055410672 -0.012767619 0.65080005
-0.052320451 -0.012552317 0.65246677
-0.055123493 -0.0072250804 0.6503334
-0.053421665 -0.0074540488 0.65225005
-0.15785715 -0.00061904767 0.65000004
-0.05509524 -0.0037142858 0.65000004
-0.053940006 -0.0037209527 0.65100002
-0.16082668 0.0012428572 0.65200007
-0.15728851 0.0020711911 0.65191668
-0.15324688 0.003840762 0.6504001
-0.056972392 0.0026879366 0.65100002
-0.15245621 0.0061198645 0.6518572
-0.14767382 0.0083769057 0.65150005
-0.1442381 0.0092857145 0.65000004
-0.060047623 0.0080476198 0.65000004
-0.058279734 0.006829117 0.65200013
-0.14704023 0.011948784 0.65266669
-0.14324315 0.013022572 0.65110004
-0.061140243 0.012723572 0.65175003
-0.058990479 0.010556191 0.65200001
-0.14614762 0.01554762 0.65300006
-0.14258546 0.017213877 0.65214288
-0.13896154 0.018223239 0.65080005
-0.062570959 0.017345238 0.65050006
-0.14117239 0.020522859 0.65300006
-0.13743991 0.021744657 0.65233338
-0.1332324 0.024167623 0.65066671
-0.065000005 0.02414286 0.65000004
-0.064056195 0.021144763 0.65300006
-0.13598858 0.025459049 0.65200001
-0.13294953 0.027354216 0.65161544
-0.12948048 0.028498573 0.65050006
-0.066005006 0.027271193 0.65075004
-0.13210455 0.030772621 0.65275007
-0.12780702 0.032107797 0.65172732
-0.12462001 0.034100004 0.65100002
-0.068409532 0.031717144 0.65300006
-0.12562478 0.036070481 0.65300006
-0.12298583 0.037532978 0.651375
-0.11894906 0.039030001 0.65050006
-0.07230138 0.037702225 0.65133333
-0.12124798 0.042281788 0.65287501
-0.11756595 0.042187866 0.65141666
-0.072753862 0.042050827 0.65190911
-0.12127144 0.045399051 0.65300006
-0.11650915 0.047375239 0.65280002
-0.1132234 0.04748138 0.65122223
-0.10957143 0.048285715 0.65000004
-0.075581431 0.048942383 0.65050006
-0.074117146 0.048104446 0.6503334
-0.11505239 0.050374288 0.65300006
-0.11216834 0.051579289 0.65250003
-0.10839778 0.052390479 0.65100002
-0.10461906 0.053857148 0.65000004
-0.077341594 0.052366566 0.65200007
-0.073950008 0.05095762 0.65250003
-0.11007715 0.055349529 0.65300006
-0.10704096 0.056395244 0.65250003
-0.10309204 0.057273339 0.65172726
-0.09966667 0.05819048 0.65000004
-0.081188343 0.058567859 0.65075004
-0.079145312 0.056280009 0.65142864
-0.10152604 0.061744772 0.65266675
-0.098341838 0.062160693 0.65090913
-0.082012497 0.061509885 0.65237504
-0.09671358 0.066753097 0.65200001
-0.093517832 0.067505583 0.65028572
-0.087904766 0.069023818 0.65000004
-0.084568903 0.06740953 0.65133339
-0.095151432 0.07027524 0.65300006
-0.091654561 0.07107117 0.65214288
-0.086820155 0.071627192 0.6522308
-0.083957151 0.07027524 0.65300006
-0.14783645 -0.025683573 0.65775001
-0.15120812 -0.022671273 0.65516675
-0.14728077 -0.022763334 0.65607148
-0.14267924 -0.021781387 0.65681827
-0.13765717 -0.021901272 0.65700006
-0.13240497 -0.022382351 0.65640008
-0.12754425 -0.022068499 0.65623087
-0.12266592 -0.021611238 0.65580004
-0.11756435 -0.021483704 0.65700001
-0.1129327 -0.021501588 0.65755558
-0.10796165 -0.021199185 0.65742862
-0.10246096 -0.021494392 0.65733337
-0.097540967 -0.021784415 0.65690917
-0.09289819 -0.021660287 0.6573
-0.088084303 -0.021082066 0.65750003
-0.082494102 -0.020905524 0.65720004
-0.077706672 -0.020680001 0.65800005
-0.072295815 -0.020924384 0.65780002
-0.067654289 -0.021298809 0.65775001
-0.064128898 -0.021097779 0.65800011
-0.051993575 -0.020985477 0.65775001
-0.096690476 -0.019338097 0.65500009
-0.091954291 -0.018932065 0.6553334
-0.087658241 -0.018816058 0.65542865
-0.084214292 -0.019338097 0.65500003
-0.077528581 -0.019382382 0.65649998
-0.072530612 -0.01882422 0.65571433
-0.067440011 -0.018941907 0.65566677
-0.062476195 -0.018951748 0.65600002
-0.057085525 -0.01911219 0.65580004
-0.052250139 -0.017744288 0.65535724
-0.047847144 -0.017530004 0.65735716
-0.050528575 -0.010604762 0.65500003
-0.048639171 -0.012981072 0.65687501
-0.051636577 -0.0078758104 0.65640002
-0.053419437 -0.0023763813 0.65680003
-0.16118905 0.0037490476 0.65600002
-0.15919286 0.0037461906 0.65550005
-0.053852227 0.0018792064 0.65750003
-0.16130796 0.0060514295 0.65733337
-0.15764627 0.0075085727 0.65685719
-0.1526441 0.008832382 0.65571433
-0.056956954 0.0081375251 0.65720004
-0.15604001 0.010653334 0.65800005
-0.15240948 0.01218381 0.6573078
-0.14890224 0.013953018 0.65600002
-0.060601909 0.013745716 0.65600002
-0.058358219 0.012204406 0.65712506
-0.15144446 0.016084446 0.65800011
-0.14772891 0.017710797 0.65633345
-0.061965823 0.017734712 0.65722227
-0.059533339 0.015666667 0.65800005
-0.14635715 0.021087304 0.65766668
-0.14262843 0.022657879 0.6566155
-0.13876447 0.023925081 0.6553334
-0.063110903 0.022614393 0.65755558
-0.14113145 0.026058413 0.6566667
-0.13784467 0.02764524 0.65670007
-0.065500006 0.02807143 0.65500009
-0.063485526 0.027548194 0.65740007
-0.13626668 0.0310927 0.65733337
-0.13282116 0.033393715 0.65660006
-0.12932572 0.034361906 0.65600002
-0.070544288 0.033711907 0.65550005
-0.067285717 0.032643434 0.65660006
-0.064096197 0.031108892 0.65766668
-0.13216679 0.036956858 0.6577
-0.12789342 0.037853412 0.65653855
-0.070571199 0.037471194 0.65575004
-0.068995237 0.036688957 0.65740007
-0.12715572 0.04196791 0.65770006
-0.12354369 0.04278858 0.65657151
-0.070869148 0.042872954 0.65620005
-0.069524772 0.041965403 0.65766668
-0.1218373 0.04694175 0.65716672
-0.11932953 0.047483336 0.65600002
-0.072471432 0.045607619 0.65600002
-0.12094668 0.050760005 0.65800005
-0.1176481 0.052566331 0.65707147
-0.11357691 0.053668339 0.65525001
-0.076133579 0.053668335 0.65525007
-0.07377667 0.052518576 0.65650004
-0.11635113 0.056191117 0.65800011
-0.11261211 0.056932289 0.65690011
-0.1079043 0.058951274 0.65616673
-0.077154391 0.05752334 0.65650004
-0.074422225 0.056913018 0.6566667
-0.10712953 0.062275089 0.65716672
-0.1035539 0.063060552 0.65557146
-0.081905246 0.063775085 0.65650004
-0.078929767 0.06139024 0.65775001
-0.10632446 0.06621778 0.65800011
-0.10212255 0.06728223 0.65716672
-0.098868005 0.068370096 0.65620005
-0.082717791 0.067298733 0.65633333
-0.10089334 0.070813335 0.65800005
-0.097477466 0.072430164 0.65750003
-0.092952266 0.073579885 0.65612507
-0.087957144 0.074233338 0.65500009
-0.083701238 0.07280463 0.65657151
-0.092069618 0.077265814 0.6576364
-0.087658875 0.077641495 0.6574375
-0.084349342 0.077330679 0.65800005
-0.085853338 0.080840006 0.65800005
-0.14586002 -0.030940002 0.66300005
-0.14308172 -0.031445142 0.66300005
-0.14591303 -0.027714923 0.66133344
-0.14248762 -0.027742384 0.66200012
-0.13757329 -0.027302641 0.66192311
-0.13247705 -0.026664339 0.66133338
-0.1273074 -0.026470955 0.66175008
-0.12204438 -0.026125526 0.66260004
-0.11757746 -0.026713124 0.66255563
-0.11230953 -0.02650048 0.66250008
-0.10708252 -0.027014976 0.66245466
-0.10218842 -0.027124919 0.66233349
-0.097142547 -0.0271254 0.66233343
-0.093146354 -0.026283493 0.66233343
-0.087137148 -0.025888573 0.66300005
-0.081934862 -0.026133338 0.66280007
-0.071772389 -0.025888573 0.66300005
-0.066880487 -0.026500478 0.66250008
-0.063118339 -0.025878813 0.66275007
-0.05935429 -0.025888573 0.66300005
-0.052408576 -0.025888573 0.66300005
-0.14520001 -0.024514288 0.66000003
-0.14235507 -0.024292571 0.66080004
-0.13702857 -0.024514288 0.66000003
-0.13011429 -0.024514288 0.66000003
-0.12634288 -0.024514288 0.66000003
-0.12191007 -0.024022723 0.66128582
-0.11718319 -0.02410762 0.6603334
-0.11192763 -0.023895001 0.66025001
-0.10713548 -0.023756193 0.66075003
-0.10272492 -0.023996737 0.66057146
-0.097817153 -0.024218572 0.66050005
-0.092049651 -0.024075121 0.66087508
-0.087113343 -0.02358127 0.66122234
-0.082695857 -0.023408053 0.66100007
-0.077478334 -0.023203572 0.66141671
-0.072875775 -0.023313442 0.66155559
-0.06798929 -0.023922142 0.66100001
-0.062634878 -0.023011284 0.66123086
-0.057943277 -0.022675656 0.66131258
-0.053136274 -0.023209605 0.66158336
-0.047789216 -0.022572571 0.66200012
-0.043441113 -0.022510162 0.6626668
-0.045885716 -0.0176 0.66000003
-0.043604333 -0.01782009 0.66181827
-0.046844088 -0.012317007 0.6608572
-0.044797622 -0.013249049 0.66250002
-0.050965719 -0.0069200005 0.6606667
-0.048805431 -0.0073138103 0.66210008
-0.052030694 -0.0023108996 0.66177779
-0.04943683 -0.0039968258 0.66266674
-0.05594286 0.0044000004 0.66000003
-0.053193811 0.0028319049 0.66100001
-0.16274278 0.0080360854 0.66033334
-0.055999368 0.0077600009 0.6606667
-0.054322045 0.0074776877 0.66214293
-0.16146335 0.012615714 0.66225004
-0.15772052 0.012930476 0.66100007
-0.15400001 0.014457144 0.66000003
-0.056697831 0.013209389 0.66042864
-0.054872144 0.012614049 0.66225004
-0.1610143 0.015785715 0.66300005
-0.15751536 0.01661418 0.66244453
-0.15297525 0.018257145 0.66099995
-0.060971431 0.019485716 0.66000003
-0.057996131 0.017651772 0.66192865
-0.054934289 0.015785715 0.66300005
-0.15261942 0.021780359 0.66287506
-0.14789896 0.02316815 0.66144449
-0.061241336 0.023013143 0.66020006
-0.059053548 0.022627303 0.662
-0.14593621 0.027372384 0.66220003
-0.14269386 0.028332297 0.66109103
-0.061482869 0.02770032 0.66100007
-0.059925403 0.027124763 0.66233337
-0.14586002 0.030940002 0.66300005
-0.14229518 0.032622796 0.66235727
-0.13809937 0.033214498 0.66077787
-0.066628575 0.034571432 0.66000003
-0.063517787 0.032702543 0.6603334
-0.14080858 0.03599143 0.66300005
-0.13700002 0.037351329 0.66222227
-0.1335343 0.039200958 0.6603334
-0.067184769 0.03782307 0.6606667
-0.064890005 0.036540478 0.66150004
-0.13575715 0.041042861 0.66300005
-0.13193628 0.042824522 0.66125011
-0.12850319 0.04423207 0.6603334
-0.068220638 0.043032698 0.66122228
-0.13128786 0.046708334 0.66275007
-0.1271423 0.047427434 0.66220015
-0.12348049 0.048511274 0.6615001
-0.071692795 0.048186805 0.66200012
-0.12234461 0.052551907 0.66216671
-0.073467433 0.054313909 0.66160005
-0.12051192 0.056786194 0.66250002
-0.11743212 0.058465619 0.66150004
-0.11257176 0.059744447 0.6603334
-0.076918103 0.059895243 0.66200006
-0.073765717 0.056112386 0.66200006
-0.11597239 0.061669525 0.66300005
-0.11209948 0.06285876 0.66153854
-0.10890763 0.064840958 0.66100001
-0.079093099 0.063337386 0.66175002
-0.11170731 0.06584572 0.66266674
-0.10738219 0.068317428 0.6615715
-0.10455239 0.068514287 0.66000003
-0.081067629 0.068338729 0.66100007
-0.079183817 0.066565722 0.66250002
-0.10576287 0.071700647 0.66233343
-0.10270137 0.072458915 0.66157144
-0.099314287 0.074171439 0.66000003
-0.081751116 0.071664765 0.66200006
-0.10024571 0.076286994 0.66200006
-0.097295061 0.077660762 0.66079998
-0.094285727 0.078571431 0.66000003
-0.096220717 0.082023814 0.66250008
-0.092155717 0.082929857 0.66050005
-0.088224448 0.082217254 0.66011113
-0.092049524 0.085114293 0.66200006
-0.088266671 0.085114293 0.66200006
-0.14095144 -0.031910162 0.6656667
-0.13776274 -0.031621549 0.66737503
-0.13274382 -0.031515241 0.66850007
-0.12870286 -0.031220002 0.66900003
-0.12084477 -0.031644765 0.66900003
-0.11740669 -0.031921502 0.66842866
-0.11260477 -0.031810477 0.6680001
-0.10748172 -0.031164004 0.66780007
-0.1018662 -0.031515241 0.66850007
-0.09760084 -0.031951785 0.66762507
-0.093215384 -0.031739458 0.66842866
-0.088562869 -0.031220002 0.66900003
-0.13690192 -0.029789051 0.66550004
-0.13225906 -0.029280821 0.66628575
-0.12737714 -0.029146457 0.66688889
-0.12247695 -0.028559262 0.66633332
-0.11731382 -0.029170636 0.66583341
-0.11283893 -0.02916131 0.66562498
-0.10817619 -0.029549146 0.66580003
-0.10279262 -0.029822621 0.66624999
-0.097644061 -0.029800242 0.66575003
-0.092382707 -0.02825788 0.66615385
-0.087553814 -0.028551117 0.66616666
-0.082581826 -0.028683815 0.66654551
-0.077342793 -0.027689459 0.66721427
-0.072498843 -0.028405791 0.66730767
-0.067912146 -0.028948097 0.66800004
-0.062253337 -0.027952382 0.66700006
-0.056935329 -0.02740234 0.6662727
-0.052229285 -0.026988812 0.66675007
-0.047025956 -0.026691193 0.66725004
-0.042267244 -0.027118474 0.66840011
-0.077900007 -0.024700001 0.66500002
-0.050033338 -0.024700001 0.66500002
-0.040917829 -0.023499049 0.66685718
-0.03921048 -0.023107622 0.66766679
-0.041630797 -0.017115874 0.6656667
-0.039900001 -0.019633334 0.66500002
-0.045702383 -0.010790953 0.66650003
-0.042856038 -0.012908254 0.66666663
-0.04620678 -0.008111747 0.66666675
-0.043538094 -0.0091323815 0.66900003
-0.050070956 -0.0012671429 0.66550004
-0.047525808 -0.0023664937 0.66700006
-0.051184196 0.0027960006 0.66680002
-0.047736831 0.001697778 0.66833347
-0.043962859 0.0019114286 0.66900003
-0.051755384 0.0076874006 0.66838473
-0.049060002 0.0070085721 0.66900003
-0.053934526 0.012692143 0.66624999
-0.16123001 0.018727621 0.66650003
-0.15800115 0.019132573 0.6652
-0.055478811 0.018705001 0.66575003
-0.05399524 0.016518097 0.66700006
-0.15740487 0.022250574 0.66750008
-0.15222986 0.024314605 0.66600007
-0.056884885 0.022723692 0.66737497
-0.1561 0.026122859 0.66900003
-0.15198222 0.027344858 0.66770005
-0.14848205 0.028175376 0.6658572
-0.060347624 0.029856192 0.66700006
-0.058802858 0.02701905 0.66750002
-0.1473783 0.033030856 0.667
-0.062434293 0.032805081 0.66666669
-0.14596699 0.036650162 0.66733336
-0.14254974 0.037699364 0.66588891
-0.13880429 0.038979527 0.66550004
-0.065429531 0.038749527 0.66700006
-0.064287305 0.037553973 0.66833341
-0.14222477 0.04146985 0.66816676
-0.13800621 0.042720482 0.667
-0.1349 0.043066669 0.66500002
-0.065801345 0.041621145 0.66820014
-0.064351432 0.041414291 0.66900003
-0.13674842 0.045794766 0.66783345
-0.13203049 0.048242383 0.66649997
-0.12876001 0.048840005 0.66600001
-0.06808988 0.047140837 0.66662502
-0.13099253 0.051907625 0.66814291
-0.12771206 0.052228749 0.66654545
-0.12440699 0.053438097 0.66533339
-0.07179112 0.052346461 0.66577774
-0.068529844 0.051770162 0.66833341
-0.12694061 0.056934878 0.66823083
-0.12290192 0.057326667 0.66633344
-0.072400168 0.056947783 0.66683334
-0.068174288 0.057980005 0.66900003
-0.12167504 0.061862331 0.66811121
-0.11804315 0.06278082 0.66585714
-0.076805249 0.062418576 0.66650003
-0.074545719 0.060528576 0.66900003
-0.11734859 0.067264244 0.66800004
-0.11334314 0.067854762 0.66709995
-0.10956667 0.06903334 0.66500002
-0.077850759 0.066975109 0.66614288
-0.11181859 0.072156437 0.66900009
-0.10832572 0.072617576 0.66688895
-0.10465715 0.074211434 0.66600001
-0.08161144 0.073366344 0.66600001
-0.079000488 0.072013497 0.66716671
-0.10608429 0.077412859 0.66900003
-0.10304 0.077411093 0.66672736
-0.082663029 0.077576205 0.66766667
-0.079642862 0.075820006 0.66900003
-0.13706622 -0.036090955 0.67189997
-0.13331778 -0.036535561 0.67300004
-0.11361715 -0.035304762 0.67400002
-0.10848191 -0.035304762 0.67400002
-0.097637795 -0.035252385 0.67300004
-0.093076199 -0.035304762 0.67400002
-0.067400001 -0.035304762 0.67400002
-0.064832382 -0.035304762 0.67400002
-0.1377825 -0.033584006 0.67040008
-0.13244487 -0.033165928 0.67111117
-0.12756179 -0.032611549 0.67137504
-0.12282678 -0.032932173 0.67211121
-0.11712192 -0.033920005 0.67200005
-0.11255524 -0.033894762 0.67149997
-0.10737989 -0.033237502 0.67112499
-0.10256504 -0.033336736 0.67128581
-0.097158745 -0.033953652 0.67266673
-0.091975622 -0.033644576 0.67160004
-0.087975882 -0.032592703 0.671
-0.082451433 -0.032535084 0.67200005
-0.077555716 -0.032509051 0.67189997
-0.072725721 -0.03249957 0.67145455
-0.067773499 -0.032609049 0.67133331
-0.062768325 -0.03213302 0.67206669
-0.057870056 -0.031819679 0.67266679
-0.052506037 -0.031377461 0.67233324
-0.047598984 -0.031764697 0.6727857
-0.042446673 -0.03121365 0.67188889
-0.037796196 -0.030536508 0.67266673
-0.12442858 -0.029990477 0.67000002
-0.07912381 -0.029990477 0.67000002
-0.065723814 -0.029990477 0.67000002
-0.061895244 -0.029990477 0.67000002
-0.056790482 -0.029990477 0.67000002
-0.051685721 -0.02871429 0.67000002
-0.047272623 -0.028746432 0.67075002
-0.041476194 -0.029139683 0.67000002
-0.037636749 -0.027401036 0.67175001
-0.038339432 -0.022184001 0.67320007
-0.040440004 -0.017331429 0.67400002
-0.038806196 -0.018600477 0.6735
-0.040624049 -0.012795477 0.67175007
-0.045304764 -0.0057428577 0.67000002
-0.042659596 -0.0075817695 0.67142862
-0.045338575 -0.0025533335 0.67050004
-0.044225719 -0.0038447622 0.67300004
-0.046849713 0.0030641907 0.67020005
-0.043699816 0.002688762 0.6728
-0.047260083 0.0072378581 0.67058337
-0.044160005 0.0057600006 0.67200005
-0.051237863 0.012811906 0.67250001
-0.049280003 0.010880001 0.67200005
-0.053313609 0.018199593 0.67214286
-0.16236216 0.022576667 0.67250007
-0.15853938 0.024472702 0.67033339
-0.055514291 0.022971429 0.67000002
-0.053935051 0.02216362 0.67260003
-0.16120002 0.026920002 0.67299998
-0.1574623 0.027735239 0.671
-0.15314287 0.029352382 0.67000002
-0.056787737 0.027514407 0.671875
-0.16111811 0.030169526 0.67400002
-0.15703429 0.031086668 0.67299998
-0.1527826 0.032511778 0.6717273
-0.061531056 0.033133715 0.67160004
-0.058724027 0.031819686 0.67266667
-0.15159406 0.036735956 0.67374992
-0.14835852 0.037752256 0.67185718
-0.062009454 0.037079133 0.67125005
-0.059697147 0.035946667 0.67400002
-0.14813462 0.040400006 0.67333335
-0.1438559 0.043690801 0.67133331
-0.06223195 0.042359561 0.67153853
-0.059608575 0.042303815 0.67300004
-0.14259259 0.045993339 0.67260003
-0.13814777 0.047819056 0.67200011
-0.13473858 0.048531909 0.67050004
-0.06624794 0.047716834 0.671
-0.063101389 0.046702255 0.67172736
-0.1362308 0.051541276 0.67366666
-0.13338535 0.052816577 0.67140007
-0.067295663 0.05251598 0.67155564
-0.064832382 0.05199429 0.67400002
-0.13219769 0.057102013 0.67200005
-0.12910795 0.058917463 0.67000002
-0.072180547 0.058311436 0.67071432
-0.069315717 0.057159849 0.6718334
-0.13030668 0.062264767 0.67400002
-0.12719603 0.062348578 0.6723637
-0.1235183 0.063484006 0.67060006
-0.076434292 0.063660324 0.67066669
-0.073482767 0.062895931 0.67199999
-0.12191334 0.067543052 0.67160004
-0.11877477 0.069604293 0.67050004
-0.076244354 0.068210348 0.67114288
-0.073744774 0.066906035 0.67333335
-0.12120001 0.071608894 0.67333335
-0.1171271 0.071952917 0.67122221
-0.1134816 0.073880322 0.67066669
-0.077052921 0.072933972 0.67111111
-0.081038103 0.07912381 0.67000002
-0.078213111 0.077468023 0.67225003
-0.13256668 -0.040740002 0.67900002
-0.13153143 -0.03739953 0.67700005
-0.12792769 -0.036985572 0.67761546
-0.12261041 -0.036785167 0.6775834
-0.1172412 -0.037277531 0.67713338
-0.11242981 -0.037264097 0.67690009
-0.10746001 -0.037158627 0.67655557
-0.10276009 -0.03701885 0.67678583
-0.097013913 -0.036559053 0.67819995
-0.092015721 -0.03648429 0.67799997
-0.087628298 -0.036989603 0.67769235
-0.082575597 -0.037419643 0.67737496
-0.077686958 -0.036522191 0.67750001
-0.071953893 -0.036892466 0.6775834
-0.067344226 -0.037497692 0.67714286
-0.062354054 -0.036093339 0.67675
-0.057427146 -0.036134131 0.67750001
-0.052841555 -0.036087979 0.67662501
-0.048125148 -0.035741147 0.67740005
-0.03711867 -0.035825338 0.67900002
-0.12600002 -0.034071431 0.67500001
-0.086785719 -0.034071431 0.67500007
-0.084214292 -0.034071431 0.67500001
-0.076500006 -0.034071431 0.67500001
-0.057900954 -0.034096669 0.67550004
-0.052714292 -0.034071431 0.67500001
-0.046319526 -0.034096669 0.67550004
-0.042156667 -0.033769049 0.67750001
-0.037096113 -0.032797545 0.67741668
-0.034273334 -0.032333337 0.67900002
-0.035691667 -0.026689287 0.67524999
-0.033661362 -0.027022995 0.67785716
-0.035983272 -0.022177553 0.67642862
-0.033791751 -0.022384446 0.67799997
-0.040500004 -0.017357145 0.67500001
-0.037001241 -0.017792476 0.67690009
-0.034273334 -0.017460002 0.67900002
-0.040500004 -0.010928572 0.67500001
-0.038039047 -0.013304849 0.67700005
-0.041416574 -0.0073567624 0.67740005
-0.039446671 -0.0097000003 0.67900002
-0.043089528 -0.0025102647 0.67755556
-0.047710478 0.0096714292 0.67700005
-0.048199054 0.013210475 0.67809087
-0.051453657 0.017794605 0.67533344
-0.048036508 0.017017674 0.67855555
-0.051980004 0.021632381 0.67800009
-0.049720004 0.020017143 0.67800003
-0.16288382 0.027685717 0.67600006
-0.056011431 0.026396193 0.67600006
-0.054623101 0.026180714 0.67875004
-0.16646066 0.033378735 0.6783334
-0.16273378 0.032726448 0.67784619
-0.1582025 0.033340003 0.67580003
-0.056526948 0.032446943 0.6755715
-0.05496667 0.031686671 0.67900008
-0.16102001 0.035566669 0.67900002
-0.15690885 0.036806535 0.67800009
-0.15387051 0.03772838 0.67600006
-0.058307834 0.037131112 0.67611116
-0.15584667 0.041386671 0.67900002
-0.15219247 0.042408179 0.67808336
-0.1478011 0.043319188 0.67600006
-0.059142862 0.040500004 0.67500001
-0.15126453 0.046543099 0.67875004
-0.14739566 0.047927819 0.67820007
-0.14228287 0.048930161 0.67600006
-0.13950001 0.049500003 0.67500001
-0.14582333 0.052056674 0.67900002
-0.1425291 0.052752655 0.67772728
-0.13829677 0.053388953 0.67540008
-0.066508576 0.054885719 0.67800003
-0.063737147 0.050860956 0.67600006
-0.14138061 0.057360366 0.67862499
-0.13726731 0.057357252 0.67666674
-0.13371429 0.059142862 0.67500001
-0.067103341 0.056135718 0.67750001
-0.13774002 0.060140006 0.67900008
-0.13324878 0.061528385 0.67720002
-0.12978858 0.063925721 0.67800003
-0.070939533 0.062557623 0.6771667
-0.12729846 0.066794649 0.67762506
-0.12425525 0.068887621 0.67600006
-0.072427146 0.066954762 0.67600006
-0.07525143 0.071393028 0.67533338
-0.073761724 0.07143791 0.67820007
-0.12725163 -0.04675905 0.68380004
-0.13082716 -0.042385876 0.68116677
-0.12731732 -0.042874224 0.68206251
-0.12243151 -0.042806994 0.68306673
-0.11739692 -0.042602621 0.68291676
-0.1125317 -0.042282339 0.68300009
-0.10805113 -0.041848361 0.68300003
-0.10275536 -0.041623928 0.68287504
-0.097329304 -0.042426273 0.68358344
-0.092323467 -0.042675857 0.68335718
-0.087352566 -0.04240606 0.68309098
-0.082372233 -0.042272221 0.68283337
-0.077514291 -0.042394981 0.68290919
-0.072820544 -0.04291375 0.68268758
-0.068045981 -0.042271081 0.68281823
-0.062205724 -0.041564088 0.68342865
-0.057284765 -0.041010004 0.68350005
-0.052076194 -0.041010004 0.68350005
-0.047880001 -0.041365717 0.68400002
-0.04296381 -0.041010004 0.68350005
-0.037740715 -0.040995002 0.68325001
-0.032571431 -0.041040003 0.68400002
-0.028272003 -0.041561145 0.68400002
-0.12758097 -0.039504763 0.68000001
-0.12304763 -0.039504763 0.68000001
-0.11980953 -0.039504763 0.68000001
-0.11246985 -0.039504763 0.68000001
-0.10750477 -0.039504763 0.68000001
-0.10091113 -0.039111748 0.68066669
-0.097391672 -0.03895786 0.68175
-0.092492118 -0.039056465 0.68185723
-0.088076197 -0.039504763 0.68000001
-0.077319689 -0.039092384 0.68033338
-0.07355953 -0.039210003 0.68050003
-0.067499526 -0.039591905 0.68150008
-0.062281694 -0.038756195 0.68199998
-0.057106789 -0.038936552 0.68137503
-0.052018333 -0.039014764 0.68275005
-0.047469318 -0.038366456 0.68277782
-0.042845123 -0.037653934 0.68162507
-0.037789267 -0.038379747 0.68090916
-0.032469168 -0.037667979 0.68187499
-0.027694581 -0.037411362 0.68361545
-0.031805322 -0.032455161 0.68158334
-0.028865715 -0.034074605 0.68366671
-0.031511672 -0.027615478 0.68225008
-0.031789765 -0.021736428 0.68124998
-0.033100002 -0.018173335 0.68150002
-0.036211241 -0.012069143 0.68140006
-0.034513097 -0.013023572 0.68375003
-0.040980004 -0.0058542863 0.68300003
-0.038235437 -0.008063239 0.68280005
-0.034525715 -0.009771429 0.68400002
-0.041273814 -0.0026014289 0.6825
-0.039737146 -0.0045600003 0.68400002
-0.046116192 0.0097428579 0.68200004
-0.046338577 0.012636667 0.68050003
-0.047276195 0.018780954 0.68000001
-0.051168162 0.023123812 0.68257153
-0.048146512 0.021472543 0.68316668
-0.055047624 0.029142858 0.68000001
-0.052840121 0.026989646 0.68287504
-0.055047624 0.034323812 0.68000001
-0.053760577 0.032152191 0.68340009
-0.16657251 0.037017025 0.68187505
-0.16271159 0.038020294 0.68192309
-0.15860635 0.038247623 0.68066669
-0.056519601 0.037959598 0.68214291
-0.054029051 0.036453813 0.68350005
-0.1661143 0.041040003 0.68400002
-0.16282775 0.042009648 0.68387502
-0.1580873 0.043351691 0.68309098
-0.15413335 0.044038098 0.68000001
-0.15597397 0.046640635 0.6833334
-0.15302344 0.047894292 0.68140006
-0.15167263 0.051588096 0.68350005
-0.14800477 0.052794099 0.68100005
-0.063119769 0.051081672 0.68325001
-0.14725132 0.056460362 0.68337506
-0.14426795 0.056890167 0.68133342
-0.066827767 0.057720009 0.68314296
-0.064491436 0.05602286 0.68400002
-0.14115271 0.060928576 0.68300003
-0.13695064 0.062673613 0.68242866
-0.13308921 0.064271435 0.68166673
-0.069115721 0.061967149 0.68250006
-0.071230799 0.067985713 0.68200004
-0.069702864 0.066445723 0.68400002
-0.12571287 -0.048453815 0.6875
-0.12242734 -0.046957813 0.68669999
-0.11743001 -0.046476286 0.68730015
-0.1128194 -0.046379913 0.68763649
-0.10772921 -0.046108257 0.68833339
-0.10230657 -0.046384871 0.68811119
-0.097660862 -0.046607524 0.68730003
-0.09287405 -0.046438809 0.68674999
-0.08772108 -0.045826074 0.68737507
-0.082545362 -0.045859408 0.68787503
-0.077352919 -0.046646457 0.68766677
-0.072467051 -0.047046099 0.68800008
-0.067331433 -0.046167079 0.68828589
-0.062902868 -0.045867622 0.68800008
-0.057744768 -0.045277145 0.68900001
-0.052456673 -0.045244288 0.68850005
-0.047418099 -0.0456708 0.68833339
-0.041602474 -0.045539621 0.68900007
-0.037730955 -0.045605242 0.68900001
-0.033465717 -0.045277145 0.68900001
-0.10654446 -0.043794602 0.68633336
-0.10257335 -0.043773334 0.68600005
-0.099960007 -0.043773334 0.68600005
-0.066640005 -0.043773334 0.68600005
-0.063167438 -0.04355029 0.68660009
-0.057535242 -0.043151908 0.68650001
-0.052295122 -0.043143932 0.68637502
-0.046769392 -0.043222453 0.68614298
-0.04249762 -0.043151908 0.68650007
-0.037934288 -0.043167379 0.68675005
-0.03269048 -0.043151908 0.68649995
-0.02682014 -0.043081366 0.68685728
-0.022690305 -0.042227447 0.68790913
-0.025915559 -0.039417781 0.68600005
-0.023380954 -0.037607383 0.68675005
-0.027135534 -0.032371581 0.68723083
-0.024208574 -0.034677144 0.68700004
-0.030751431 -0.025517145 0.68700004
-0.028754152 -0.028192248 0.68842864
-0.030751431 -0.022245716 0.68700004
-0.029248953 -0.022166668 0.68860006
-0.032554667 -0.016081145 0.68640006
-0.03273667 -0.012440477 0.6875
-0.036466479 -0.0069270483 0.68620008
-0.034163814 -0.0079832394 0.68720001
-0.040623814 -0.00065523817 0.68800002
-0.038242288 -0.0030116194 0.68760008
-0.045145717 0.0085057151 0.68700004
-0.043485403 0.0080860322 0.68833339
-0.045145717 0.012431431 0.68700004
-0.043308578 0.012467619 0.68900001
-0.045233335 0.01639016 0.68833339
-0.043964766 0.015092382 0.68900001
-0.047504291 0.022606192 0.68800008
-0.051127218 0.028135108 0.68700004
-0.049214289 0.026247621 0.68900001
-0.051746458 0.032534178 0.68777782
-0.055573814 0.03922905 0.68650007
-0.053807624 0.037402861 0.68900001
-0.16529335 0.04246667 0.68600005
-0.16275907 0.043359052 0.68633336
-0.058232859 0.041875239 0.68700004
-0.16561463 0.04647873 0.68733346
-0.16261362 0.04662329 0.68772733
-0.1579901 0.048039623 0.68720007
-0.059713338 0.046589527 0.68900001
-0.15616572 0.051982544 0.68800008
-0.15326263 0.053266432 0.68625009
-0.062527858 0.053527147 0.6875
-0.15208635 0.056515243 0.68733346
-0.14770788 0.058821194 0.68625003
-0.065986671 0.059453338 0.68600005
-0.0640442 0.0577581 0.68760008
-0.14193831 0.062924959 0.68680006
-0.067196868 0.063138388 0.68770009
-0.064915717 0.062950008 0.68850005
-0.12217095 -0.051199209 0.69216669
-0.11779439 -0.051899333 0.69329995
-0.11230085 -0.051526785 0.69362497
-0.10703501 -0.050875004 0.69375002
-0.10244763 -0.050893337 0.69400001
-0.09742438 -0.05115772 0.69400001
-0.092231169 -0.051449396 0.69385725
-0.087214291 -0.05153596 0.69375002
-0.083059691 -0.051333975 0.69400001
-0.077965006 -0.050875004 0.69375002
-0.072211914 -0.051297307 0.69350004
-0.068078101 -0.051223814 0.69400001
-0.042080637 -0.050893337 0.69400001
-0.038335241 -0.050893337 0.69400001
-0.12222858 -0.049285717 0.69000006
-0.11701406 -0.049303576 0.69025004
-0.112165 -0.049010716 0.69075
-0.10766723 -0.048804086 0.69114292
-0.10288286 -0.048919052 0.6910001
-0.097608097 -0.049464289 0.69250005
-0.092003509 -0.048966669 0.69166672
-0.087168179 -0.048804086 0.69114292
-0.082688436 -0.048636738 0.6914286
-0.078118481 -0.049137145 0.69160002
-0.07212273 -0.048616331 0.69114292
-0.067302451 -0.048855107 0.69185722
-0.062270343 -0.04889565 0.69242865
-0.058040965 -0.047649845 0.69166666
-0.052648578 -0.047383815 0.69099998
-0.046912249 -0.047854289 0.6910001
-0.042309012 -0.048174977 0.69118184
-0.037094925 -0.048366457 0.69144452
-0.032674182 -0.047149107 0.69077778
-0.027669132 -0.046777546 0.69175005
-0.022295933 -0.046562951 0.69036371
-0.019084763 -0.045408573 0.69100004
-0.020736907 -0.041803572 0.69125003
-0.019084763 -0.043434288 0.69100004
-0.021080241 -0.037882145 0.69175005
-0.019140001 -0.038940001 0.69300002
-0.022734446 -0.032621909 0.69200009
-0.026663177 -0.027101908 0.69033337
-0.022861114 -0.027920794 0.69250005
-0.026840435 -0.022417059 0.6904546
-0.023785446 -0.022657281 0.6910001
-0.030908097 -0.017097622 0.69050002
-0.028145889 -0.017824158 0.69318193
-0.02445524 -0.019167621 0.69400001
-0.031049844 -0.01255143 0.6936667
-0.032268576 -0.0072428584 0.69150001
-0.036193717 -0.0014466668 0.69100004
-0.033825856 -0.0036745584 0.69257146
-0.041783817 0.0026293879 0.69014293
-0.037728745 0.002460866 0.69281822
-0.041212864 0.0077701914 0.69130009
-0.038968097 0.0066052387 0.69350004
-0.041436791 0.012498215 0.69062507
-0.045342859 0.019057143 0.69000006
-0.042856194 0.016262859 0.6923334
-0.046000004 0.022671431 0.69000006
-0.044283811 0.020489525 0.69400001
-0.047573078 0.027707275 0.6911819
-0.051257148 0.034828573 0.69000006
-0.048225909 0.032547619 0.69180006
-0.051967762 0.037496194 0.69071442
-0.048918419 0.036633972 0.6910001
-0.057276331 0.043358784 0.69128579
-0.054014158 0.041572794 0.69285721
-0.16584001 0.049357146 0.69100004
-0.16239336 0.049309529 0.69033337
-0.15968573 0.049285717 0.69000006
-0.061552387 0.048847627 0.69000006
-0.058330089 0.047346912 0.69208336
-0.05485905 0.045605719 0.69400001
-0.16518192 0.050673336 0.69100004
-0.16204821 0.052655239 0.69280005
-0.15856817 0.052920002 0.69085723
-0.06049905 0.052594669 0.69200009
-0.058550343 0.05214164 0.69300008
-0.1572981 0.056389526 0.69250005
-0.15289544 0.058765907 0.69020003
-0.14917144 0.059800003 0.69000006
-0.061942227 0.057701595 0.69111115
-0.12147715 -0.055096194 0.69700003
-0.11683106 -0.055425342 0.69779998
-0.11229049 -0.055148892 0.69766665
-0.1083562 -0.055175241 0.69800007
-0.095725723 -0.055175241 0.69800001
-0.092269532 -0.055096194 0.69700003
-0.087886989 -0.056008261 0.69733334
-0.084303819 -0.055096194 0.69700003
-0.067140959 -0.055175241 0.69800007
-0.12179048 -0.053614289 0.69500005
-0.11759843 -0.054055564 0.69500005
-0.11252382 -0.053614289 0.69500005
-0.10738286 -0.053029522 0.6960001
-0.10240518 -0.053146128 0.69628584
-0.098079532 -0.05301667 0.69583344
-0.093118295 -0.053380381 0.69540006
-0.087655112 -0.054181639 0.69500011
-0.082012981 -0.052854408 0.69587511
-0.077610008 -0.053068098 0.69650006
-0.072912388 -0.05302953 0.6960001
-0.067292258 -0.052873693 0.69612503
-0.062591814 -0.052117147 0.69620007
-0.058125243 -0.051482383 0.69749999
-0.051851429 -0.05118667 0.69800001
-0.047510616 -0.051682867 0.69700009
-0.042568576 -0.052116007 0.69620007
-0.03682898 -0.052165851 0.69585729
-0.032534763 -0.051789686 0.69716668
-0.029442541 -0.051580321 0.69733334
-0.056394927 -0.049761914 0.69666672
-0.052491751 -0.049833339 0.69766665
-0.048366673 -0.049690481 0.69566673
-0.032433338 -0.049642861 0.69500005
-0.028528256 -0.049761914 0.69666672
-0.023233335 -0.048458099 0.69700003
-0.019278096 -0.041215241 0.69800001
-0.020592857 -0.035871908 0.69749999
-0.020578096 -0.033190478 0.69700003
-0.019250477 -0.032526668 0.69700003
-0.021180954 -0.028461907 0.69500005
-0.026903814 -0.015770858 0.69580013
-0.024525717 -0.017233334 0.69600004
-0.027878417 -0.013497143 0.69700003
-0.029914288 -0.0099714296 0.69800001
-0.032147624 -0.0019888096 0.6960001
-0.035426479 0.0030527622 0.69660008
-0.033443496 0.0011076191 0.69766665
-0.037986945 0.0080519738 0.69628578
-0.039052382 0.011252382 0.69500005
-0.042095378 0.01787932 0.69528586
-0.043111242 0.021889145 0.69640005
-0.045715243 0.028489208 0.69566673
-0.043874282 0.02792 0.69800001
-0.045835719 0.032550953 0.69749999
-0.050966669 0.039052382 0.69500005
-0.04905048 0.037117146 0.69600004
-0.052439325 0.042767212 0.69700009
-0.049857147 0.041880004 0.69800001
-0.056261908 0.048319053 0.69500005
-0.053712863 0.047745813 0.69630009
-0.16349049 0.0549381 0.69500005
-0.05638776 0.052786402 0.69657153
-0.060233336 0.058247622 0.69500005
-0.057885118 0.057222739 0.69662505
-0.11122534 -0.061287433 0.70100003
-0.10704548 -0.061552864 0.70250005
-0.10325334 -0.061013337 0.70400006
-0.11600001 -0.057333335 0.70000005
-0.11205335 -0.058028273 0.70033336
-0.107246 -0.057758767 0.70030016
-0.10285828 -0.057442918 0.7013126
-0.09782178 -0.057798244 0.70214289
-0.092586406 -0.057617694 0.70228571
-0.086976364 -0.057762705 0.70250005
-0.0824214 -0.05743634 0.70184624
-0.077942863 -0.056982391 0.70250005
-0.072212175 -0.056446876 0.70277786
-0.067394651 -0.05803179 0.70237505
-0.063085243 -0.056538392 0.70170003
-0.057598811 -0.056260716 0.70325005
-0.052027278 -0.056774635 0.70281821
-0.047513653 -0.056884449 0.7026667
-0.043507464 -0.056227461 0.70283335
-0.037629146 -0.055838671 0.70300001
-0.031818233 -0.056088168 0.70228583
-0.027448891 -0.056240641 0.70300001
-0.023913652 -0.056096517 0.70400012
-0.018102858 -0.055649526 0.70400006
-0.075333342 -0.054000005 0.70000005
-0.074000008 -0.054000005 0.70000005
-0.061333336 -0.054000005 0.70000005
-0.056863692 -0.053195599 0.70037496
-0.052230801 -0.053119686 0.70011109
-0.047333341 -0.054000005 0.70000005
-0.042666666 -0.054000005 0.70000005
-0.037129845 -0.054025721 0.70033336
-0.032666668 -0.054000005 0.70000005
-0.027374763 -0.052750576 0.70109999
-0.022754999 -0.052206427 0.70275003
-0.017541781 -0.052178863 0.70300013
-0.014060001 -0.050214291 0.70300001
-0.016864445 -0.047623601 0.70211112
-0.014080001 -0.048944764 0.70400006
-0.016743572 -0.042864524 0.70325005
-0.014080001 -0.044251435 0.70400006
-0.018206788 -0.037422501 0.70162505
-0.019360954 -0.034048572 0.70100003
-0.024666669 -0.015333334 0.70000005
-0.027770886 -0.01135592 0.70142865
-0.024807621 -0.012739048 0.70400006
-0.030042859 -0.0073438101 0.70100003
-0.028411431 -0.0083561912 0.70200002
-0.030114289 -0.0024552383 0.7026667
-0.032435238 0.0031920637 0.70144445
-0.035927624 0.0076144771 0.70120001
-0.033731114 0.0064784135 0.70366669
-0.038395435 0.012708574 0.70240009
-0.040782861 0.018721905 0.70200002
-0.039389528 0.016692383 0.70100009
-0.046065718 0.024701906 0.70100003
-0.042208862 0.023241809 0.70130008
-0.041362703 0.027352542 0.70050001
-0.046000004 0.032666668 0.70000005
-0.042798098 0.032126825 0.7003333
-0.047498647 0.037178915 0.70242858
-0.044453658 0.035965402 0.70366669
-0.05103302 0.043902226 0.70200008
-0.051480003 0.046800956 0.70200002
-0.055333339 0.054000005 0.70000005
-0.053561911 0.052224766 0.70300007
-0.10170477 -0.062054291 0.70566672
-0.09744858 -0.061830483 0.70566666
-0.092919998 -0.061946675 0.70700002
-0.087875389 -0.061888445 0.70742863
-0.08238478 -0.062006541 0.70657146
-0.078068584 -0.061693974 0.70666665
-0.073185526 -0.061595052 0.7076
-0.067277826 -0.061888441 0.70742857
-0.062673144 -0.061864771 0.7076
-0.057947151 -0.0617662 0.70749998
-0.052262861 -0.061888445 0.70742863
-0.047460005 -0.061900828 0.70757145
-0.042480003 -0.061360009 0.70800006
-0.030342858 -0.060685717 0.708
-0.027299289 -0.061675481 0.70775002
-0.02332324 -0.061342668 0.70779997
-0.018655241 -0.060460955 0.70800006
-0.011462858 -0.060011432 0.708
-0.092657149 -0.059757147 0.70500004
-0.08734905 -0.059799526 0.70550001
-0.076932386 -0.059463814 0.70550007
-0.072698101 -0.059254289 0.70585716
-0.067142859 -0.059757147 0.70500004
-0.062244385 -0.059287816 0.70580006
-0.057824768 -0.059170473 0.70599997
-0.052805144 -0.05952248 0.70539999
-0.047031909 -0.059799526 0.70550001
-0.042352915 -0.058489211 0.70588887
-0.038078099 -0.057723816 0.70640004
-0.032697145 -0.058261722 0.70640004
-0.027567621 -0.059170477 0.70600003
-0.02274905 -0.058050483 0.70599997
-0.01775343 -0.05743115 0.70609999
-0.011284167 -0.057095595 0.70737505
-0.011955092 -0.052641686 0.70653844
-0.012517238 -0.04711248 0.70670003
-0.013316001 -0.042103436 0.70620006
-0.016217006 -0.037326671 0.70528573
-0.013567757 -0.038009662 0.70728576
-0.016836669 -0.033673815 0.70716667
-0.014160001 -0.034388572 0.708
-0.023600001 -0.015508573 0.708
-0.026185716 -0.010071429 0.70500004
-0.024128439 -0.012016328 0.70657146
-0.030214287 -0.0060428577 0.70500004
-0.027343813 -0.0069466676 0.70600003
-0.024251429 -0.0074095251 0.70733333
-0.030214287 -0.0033571431 0.70500004
-0.028068891 -0.0035926988 0.70733345
-0.030310716 0.0026940478 0.70725
-0.028953334 0.00067333336 0.70700002
-0.031997554 0.0073991846 0.70628572
-0.036475956 0.012272145 0.70599997
-0.033914763 0.011904287 0.70749998
-0.037399743 0.017324073 0.70699996
-0.039400768 0.022456763 0.70600003
-0.040957145 0.034242861 0.70500004
-0.046360482 0.03930667 0.70550001
-0.04269572 0.037149765 0.70599997
-0.039726671 0.037033334 0.70700002
-0.050357144 0.042971432 0.70500004
-0.047889527 0.04234596 0.70574999
-0.050835714 0.048142862 0.70700002
-0.048750162 0.046504449 0.70766675
-0.10132001 -0.070040002 0.71400005
-0.10565461 -0.066290163 0.71266669
-0.10238513 -0.067068458 0.71312511
-0.097930752 -0.067078441 0.71272737
-0.092722148 -0.066740714 0.7132501
-0.087278791 -0.06669756 0.71357161
-0.083048768 -0.066195048 0.71360004
-0.078200005 -0.065960005 0.71400011
-0.071400009 -0.065960005 0.71400011
-0.067289218 -0.065929219 0.7136668
-0.062048256 -0.066351756 0.71333337
-0.057040006 -0.065867625 0.71300006
-0.052310478 -0.065898418 0.71333337
-0.049640004 -0.065960005 0.71400005
-0.026520003 -0.066300005 0.71400005
-0.023800002 -0.065960005 0.71400005
-0.10616191 -0.064238101 0.71000004
-0.10281691 -0.064260721 0.71025002
-0.097371437 -0.064238101 0.71000004
-0.092058338 -0.064305961 0.71074998
-0.086982623 -0.063967861 0.71074998
-0.082668103 -0.064373806 0.71150005
-0.07721106 -0.064184763 0.71240008
-0.072505236 -0.063697621 0.71150005
-0.067868955 -0.0640762 0.7112
-0.062102228 -0.063907944 0.71133339
-0.057238337 -0.064013094 0.71125001
-0.053296007 -0.064148568 0.71200007
-0.047114287 -0.064220957 0.71280003
-0.042340003 -0.063852385 0.71214288
-0.037964221 -0.062084086 0.71185726
-0.032919686 -0.061698727 0.71188897
-0.027243052 -0.063841522 0.71160001
-0.022366669 -0.063260958 0.71166676
-0.019650955 -0.062342383 0.71150005
-0.010157144 -0.06026572 0.71100003
-0.0074612712 -0.060378738 0.71233338
-0.0047533335 -0.060435243 0.71300006
-0.03651429 -0.058828574 0.71000004
-0.0073328149 -0.057129186 0.71181822
-0.0047500003 -0.058355719 0.71250004
-0.010142858 -0.050714288 0.71000004
-0.0077647627 -0.052705292 0.71255559
-0.010175001 -0.047480717 0.71224999
-0.0088400003 -0.048280001 0.71400011
-0.010850318 -0.042276673 0.71216673
-0.011523652 -0.037737306 0.71183342
-0.01760155 -0.031142503 0.71087497
-0.013068691 -0.03292679 0.71287513
-0.021668572 -0.025731431 0.71100003
-0.017647739 -0.027151074 0.71275014
-0.014280001 -0.029240001 0.71400005
-0.021975376 -0.022169119 0.71157151
-0.018804129 -0.022882542 0.7136668
-0.022786262 -0.018520409 0.71271431
-0.026593864 -0.0023360848 0.71200013
-0.023800002 -0.0047600004 0.71400005
-0.027848572 0.0024906879 0.71322232
-0.031212859 0.0088214297 0.71250004
-0.029240001 0.0068000006 0.71400005
-0.032276511 0.012413017 0.71100008
-0.03651429 0.019609526 0.71000004
-0.033635557 0.017383071 0.71111113
-0.037111431 0.022539288 0.71175003
-0.033479594 0.022029527 0.7132858
-0.037612673 0.026887147 0.7129001
-0.034226671 0.025613336 0.71400011
-0.040063813 0.033273336 0.71300006
-0.037990477 0.031886037 0.71233338
-0.042261906 0.039557144 0.71000004
-0.045706671 0.042661432 0.71100003
-0.0435821 0.042497151 0.71280003
-0.10113192 -0.071410485 0.71750003
-0.098031439 -0.070960581 0.71780008
-0.093225405 -0.071117148 0.71800011
-0.087649524 -0.070530482 0.71900004
-0.084225722 -0.070530482 0.71900004
-0.065737143 -0.070530482 0.71900004
-0.062313341 -0.070530489 0.71900004
-0.048618101 -0.070530489 0.71900004
-0.022597145 -0.07190001 0.71900004
-0.09614858 -0.068872385 0.71600002
-0.09212096 -0.068579532 0.71650004
-0.087405726 -0.068968579 0.71700001
-0.082352959 -0.068423055 0.71700001
-0.077629209 -0.068069637 0.71711111
-0.072688676 -0.068133339 0.71777785
-0.067619853 -0.068302393 0.71716666
-0.063218415 -0.068449855 0.71633339
-0.057530481 -0.067914478 0.71740001
-0.052592859 -0.068302713 0.71716666
-0.047594815 -0.067702003 0.71672726
-0.042572126 -0.067557409 0.7178182
-0.037592068 -0.067666993 0.71766675
-0.032764938 -0.067581907 0.71809089
-0.027659645 -0.068127505 0.71712506
-0.022537418 -0.06761606 0.71714294
-0.019858096 -0.065737143 0.71900004
-0.036140956 -0.064780958 0.71600002
-0.032886099 -0.06454438 0.71640009
-0.029321907 -0.064780958 0.71600002
-0.021168573 -0.06487143 0.71700001
-0.01841143 -0.063417144 0.71600002
-0.0068476195 -0.062313337 0.71900004
-0.0034238098 -0.060943812 0.71900004
-0.0036146943 -0.057366263 0.71828574
-0.0061371434 -0.05114286 0.71600002
-0.0047933338 -0.053411432 0.71900004
-0.0073217694 -0.04793565 0.7175715
-0.010228572 -0.042960003 0.71600002
-0.008202143 -0.04238072 0.71775007
-0.010235716 -0.036848098 0.71650004
-0.0088895243 -0.038292386 0.71800005
-0.011251429 -0.032731429 0.71600002
-0.013656192 -0.02799762 0.71700001
-0.016793525 -0.022254098 0.71680009
-0.021509524 -0.016729049 0.71700001
-0.018729335 -0.019278286 0.71780008
-0.022260381 -0.012701525 0.71700007
-0.022098731 -0.0075171436 0.71766675
-0.025230478 -0.00068190478 0.71600002
-0.022548286 -0.0023239048 0.71750003
-0.025912382 0.0034095242 0.71600002
-0.02300307 0.0026564025 0.71744442
-0.026925528 0.0076550483 0.71760005
-0.023466986 0.0066079376 0.71766675
-0.030717857 0.012287858 0.71675003
-0.028259188 0.011441226 0.71871436
-0.031319186 0.018051157 0.71714288
-0.032063812 0.022967305 0.71633339
-0.036140956 0.028640002 0.71600002
-0.033663657 0.028204609 0.71650004
-0.040400956 0.034922861 0.71900004
-0.036914051 0.032813575 0.71775001
-0.034841906 0.032110479 0.71733332
-0.040288575 0.03619143 0.71700001
-0.038922861 0.03619143 0.71700001
-0.096126363 -0.076855242 0.72266674
-0.092655629 -0.076685719 0.72280008
-0.087792858 -0.075398572 0.72300005
-0.082628578 -0.075054288 0.72300005
-0.079185717 -0.075054288 0.72300005
-0.047511432 -0.075054288 0.72300005
-0.096719302 -0.073397383 0.72025013
-0.091769323 -0.073768057 0.72088897
-0.087581232 -0.072675109 0.72085726
-0.082306504 -0.072308578 0.72181827
-0.077404015 -0.072319433 0.72180003
-0.072918944 -0.07169906 0.72155571
-0.067373693 -0.072188929 0.72187513
-0.062543809 -0.072854921 0.72166675
-0.057987433 -0.071866862 0.7214002
-0.052353334 -0.072141536 0.72140008
-0.047202047 -0.07252232 0.72128576
-0.042836454 -0.07210312 0.72227287
