# .PCD v0.7 - Point Cloud Data file format
VERSION 0.7
FIELDS x y z
SIZE 4 4 4
TYPE F F F
COUNT 1 1 1
WIDTH 1322
HEIGHT 1
VIEWPOINT 0 0 0 1 0 0 0
POINTS 1322
DATA ascii
-0.024990479 0.029257145 0.64000005
-0.01087943 0.028239429 0.64180005
-0.0085819056 0.026360322 0.64366674
-0.026314763 0.030593812 0.64250004
-0.021645525 0.033507243 0.64200002
-0.017093334 0.033577465 0.64100003
-0.012327224 0.032910563 0.64191675
-0.021450002 0.036465243 0.64350003
-0.017088043 0.036966987 0.64333338
-0.013117335 0.03665486 0.64360005
-0.030240001 -0.010491429 0.648
-0.0067885718 -0.010491429 0.648
-0.058100324 -0.0055428585 0.64666671
-0.052673936 -0.0077032158 0.64687502
-0.04691482 -0.0067814821 0.64722228
-0.042174548 -0.0066664945 0.64690906
-0.037071243 -0.0070219063 0.64659995
-0.031831827 -0.0068815099 0.64691663
-0.027153682 -0.0066638105 0.64663637
-0.022158576 -0.0070187631 0.64629996
-0.017437885 -0.0063604242 0.64622223
-0.01230024 -0.0061507151 0.64574999
-0.0072822226 -0.0073866667 0.64616668
-0.0024635713 -0.0076978584 0.64649999
0.0024672621 -0.0061658337 0.64737499
0.0055542863 -0.0061714291 0.648
-0.057890236 -0.0024625002 0.64662498
-0.054713815 -0.0024576192 0.64550006
-0.046071433 -0.0043000001 0.64500004
-0.043614291 -0.0043000001 0.6450001
-0.031966668 -0.0043033333 0.6455
-0.027657781 -0.0043022223 0.64533341
-0.02027143 -0.0043000001 0.64500004
-0.016585715 -0.0043000001 0.6450001
-0.0092142867 -0.0043000001 0.64500004
0.0030760174 -0.0028519481 0.64581817
0.0061660716 -0.0024660716 0.64737499
-0.057761431 0.0010280954 0.64750004
-0.053281192 0.0030802381 0.64675003
-0.049757145 0.0043000001 0.64500004
0.0034857143 0.0025291007 0.64577776
0.0055485722 0.0018501589 0.64733338
-0.051143814 0.0061619054 0.64700001
-0.048178207 0.0079955561 0.64577776
-0.00061428576 0.0092142867 0.64500004
0.0025332277 0.0075933337 0.6465556
-0.047020216 0.012115027 0.64677781
-0.043938812 0.013826906 0.64525002
-0.0011414967 0.012563539 0.64571428
0.0012330953 0.01109643 0.64725
-0.046285719 0.015840001 0.648
-0.042407479 0.017106373 0.64676923
-0.039928574 0.017200001 0.64500004
-0.0014360849 0.017446667 0.64655554
-0.037015766 0.022373443 0.6465556
-0.0059409528 0.023560002 0.64533341
-0.0039980952 0.022455715 0.64600003
-0.035122864 0.026497465 0.64700007
-0.032637011 0.027711296 0.64657146
-0.0067717466 0.027298521 0.64655554
-0.0043200003 0.026537146 0.648
-0.031450637 0.030833494 0.64750004
-0.027120953 0.032422289 0.64719999
-0.02403143 0.033890478 0.64700001
-0.010442858 0.03317143 0.64500004
-0.0086061917 0.030738097 0.64550006
-0.025302859 0.035794288 0.648
-0.022156956 0.038032766 0.64620012
-0.017287757 0.039402045 0.6450001
-0.012046001 0.038227148 0.64530003
-0.021561114 0.041479848 0.64683342
-0.017297249 0.042049631 0.64611119
-0.013535239 0.041220956 0.64600003
-0.027363811 -0.01554762 0.65300006
-0.023010477 -0.015547621 0.65300006
-0.070653975 -0.011395557 0.65266675
-0.067696311 -0.01164512 0.652125
-0.064056195 -0.011816191 0.65300006
-0.056539647 -0.012427501 0.65237504
-0.05219518 -0.012428633 0.65243751
-0.047041293 -0.012160613 0.65235722
-0.042235877 -0.011802065 0.65216672
-0.037266672 -0.011802065 0.65216672
-0.032285795 -0.012108336 0.65191668
-0.02731131 -0.01241655 0.65175003
-0.022343155 -0.012415061 0.65168756
-0.017614499 -0.01139799 0.65277779
-0.012516056 -0.011096192 0.65242857
-0.007546124 -0.011276191 0.6525715
-0.0024865477 -0.011187977 0.65262502
0.0024863095 -0.011188216 0.65262502
0.0074550002 -0.011181906 0.65224999
0.010572381 -0.011194287 0.65300006
-0.066734448 -0.0072541274 0.65283346
-0.062320959 -0.0062942863 0.65157145
-0.050581276 -0.0088777784 0.6503334
-0.047485083 -0.0088777794 0.6503334
-0.042480197 -0.0090409536 0.65020007
-0.037142858 -0.0092857145 0.65000004
-0.032822143 -0.008979762 0.65025008
-0.027114287 -0.0090380954 0.65000004
-0.022293573 -0.0092892861 0.65025008
-0.017108982 -0.0087767364 0.65157145
-0.012400953 -0.0086804777 0.65100002
-0.0086666672 -0.0092857145 0.65000004
-0.0010346032 -0.0088961925 0.65166664
0.0024802384 -0.0086838109 0.65125
0.0077040819 -0.0076170079 0.65085721
0.010973494 -0.0070398422 0.65216672
-0.06561096 -0.0034204766 0.65300006
-0.062668905 -0.0024815877 0.65149999
0.0086684534 -0.0024763097 0.65012503
0.010552144 -0.0024816669 0.65175003
-0.061816469 0.0015078912 0.6518572
-0.057091162 0.0034525173 0.65057153
0.0077590486 0.0024831747 0.65166664
-0.056354564 0.0064789122 0.65228581
-0.052693509 0.0078346329 0.65090913
0.0043377783 0.0080565093 0.65066671
0.0065870481 0.0072076195 0.65240002
-0.051579338 0.011807526 0.65250003
-0.048980005 0.013021271 0.65100002
0.0027651086 0.012688747 0.65136367
0.0055971434 0.011816191 0.65300006
-0.046864532 0.017690953 0.65175003
-0.044020005 0.019220002 0.65100002
0.00093047624 0.016430002 0.65100002
-0.045399051 0.020522859 0.65300006
-0.041973405 0.022185106 0.65221429
-0.039040003 0.022928892 0.65066671
-0.0016107619 0.022551525 0.65050006
-0.04042381 0.025498098 0.65300006
-0.037249643 0.026852978 0.65187502
-0.034047622 0.02909524 0.65000004
-0.0055714292 0.02909524 0.65000004
-0.0024788892 0.026445873 0.65083337
-0.035448574 0.030473335 0.65300006
-0.032309167 0.032929171 0.65237504
-0.02909524 0.033428572 0.65000004
-0.0064107939 0.030810161 0.65133345
-0.0043333336 0.030333335 0.65000004
-0.030473335 0.036070481 0.65300006
-0.027460223 0.037296854 0.65184623
-0.02414286 0.039000001 0.65000004
-0.025912702 0.040838417 0.65300006
-0.022971295 0.04283661 0.6518572
-0.017134922 0.043974929 0.6503334
-0.013644524 0.04341691 0.65125
-0.020926986 0.045790479 0.65266675
-0.017510859 0.04557829 0.65200001
-0.013676429 0.046003573 0.65275002
-0.077525288 -0.016803896 0.65790915
-0.072597504 -0.017524526 0.65712506
-0.067722283 -0.017401021 0.65720004
-0.062592387 -0.016801732 0.65781826
-0.058002766 -0.016787523 0.65770006
-0.052514672 -0.015917335 0.65800005
-0.047291242 -0.01663962 0.65680009
-0.042548101 -0.016895875 0.65700006
-0.037426099 -0.01739892 0.65713334
-0.03251905 -0.017511072 0.65662497
-0.027737385 -0.017519128 0.65691674
-0.02235751 -0.01793612 0.65630776
-0.017682774 -0.016774897 0.65672737
-0.012785035 -0.016183402 0.65714288
-0.0072448985 -0.016190207 0.65742862
-0.0022956352 -0.01701024 0.6574167
0.0025042065 -0.016905639 0.6574167
0.0075125005 -0.016278453 0.65737504
0.012528096 -0.016287383 0.65775001
0.017120637 -0.016076509 0.65766668
-0.076775886 -0.013016086 0.65777779
-0.07287012 -0.012745275 0.65653855
-0.066798098 -0.013266191 0.65550005
-0.062523335 -0.013964287 0.65649998
-0.05682699 -0.013946351 0.65566671
-0.048732385 -0.014369525 0.65600002
-0.042419054 -0.01434762 0.65500003
-0.037443098 -0.014353096 0.65525001
-0.033078738 -0.014354922 0.6553334
-0.017199321 -0.013812927 0.65500003
-0.012410689 -0.013520742 0.6552223
-0.0074938103 -0.013740239 0.65575004
-0.0024982146 -0.013742739 0.65587503
0.0024964288 -0.013734524 0.65550005
0.0074870242 -0.013726548 0.65512502
0.012761091 -0.012671838 0.65585726
0.017531311 -0.012521668 0.65737498
-0.071969442 -0.0081351427 0.65710008
-0.06767191 -0.0076166685 0.65550011
0.013375049 -0.0077483817 0.65620005
0.016441073 -0.0079853572 0.65762502
-0.068030484 -0.0021871431 0.65633345
0.012609662 -0.0031288436 0.65728581
-0.06735348 0.0011632654 0.65742862
-0.062813476 0.0034847623 0.65671432
-0.059261907 0.004366667 0.65500003
0.0093571432 0.004366667 0.65500003
0.010878096 0.0021260956 0.65640002
-0.061053816 0.0065752389 0.65750003
-0.058124024 0.0082637044 0.65622222
0.0088580959 0.007610477 0.65500003
0.010631748 0.006877461 0.6566667
-0.056672171 0.012030478 0.65711117
-0.053494602 0.01353016 0.65566671
0.0043733334 0.014369525 0.65600002
0.0076693515 0.012668312 0.65609103
-0.051961701 0.016764233 0.65733337
-0.04902548 0.018424049 0.65575004
0.0026585716 0.017358096 0.65675002
0.0060485722 0.016060635 0.65700001
-0.047405574 0.022475753 0.65692317
-0.044324286 0.023723334 0.65550005
-0.046164449 0.026111111 0.65800011
-0.042356756 0.027333891 0.65725005
-0.038575433 0.028588001 0.6554001
-0.041130479 0.031108892 0.65766668
-0.037338972 0.032333896 0.65708339
-0.034388095 0.033763334 0.65649998
-0.0068869055 0.033176906 0.65725005
-0.0043866672 0.031960003 0.65800005
-0.035720002 0.035720002 0.65800005
-0.032397814 0.03727667 0.65670007
-0.029363811 0.039360002 0.65600002
-0.010637144 0.039420001 0.65700001
-0.0086838109 0.037689526 0.65800011
-0.030683335 0.041329049 0.65750003
-0.027847037 0.042851143 0.6564616
-0.024328573 0.044290479 0.65500003
-0.011163131 0.042778648 0.65642858
-0.0091493344 0.042237338 0.65800005
-0.026920002 0.045700319 0.65733337
-0.022519048 0.047540959 0.65680003
-0.017419657 0.048174113 0.65536374
-0.012218096 0.047799051 0.65645462
-0.021087304 0.051152073 0.65766668
-0.017345197 0.05180702 0.65681827
-0.01376024 0.051289767 0.65675002
-0.081402183 -0.021545036 0.66257155
-0.076956831 -0.022078415 0.66233349
-0.072306767 -0.022083906 0.66250008
-0.06737683 -0.021665081 0.66255563
-0.063110799 -0.021247622 0.66266674
-0.05780844 -0.021373879 0.66285723
-0.052817151 -0.021964679 0.66236377
-0.048127625 -0.02197074 0.66254556
-0.043118838 -0.021665081 0.66255563
-0.037794642 -0.021416785 0.66137505
-0.031805716 -0.021497143 0.66000003
-0.027525609 -0.021643708 0.6618889
-0.022698989 -0.02270137 0.66206247
-0.01766024 -0.021444764 0.6622501
-0.012628572 -0.020837145 0.66300005
-0.0075725405 -0.021242065 0.66250008
-0.0024655412 -0.021962341 0.66227281
0.001577381 -0.021129288 0.66225004
0.0082085729 -0.020837147 0.66300005
0.012628572 -0.020837145 0.66300005
-0.085663818 -0.018732384 0.66300005
-0.082388066 -0.017806236 0.66127282
-0.078320004 -0.019234288 0.66000003
-0.066000007 -0.019485716 0.66000003
-0.063040577 -0.019252002 0.66060007
-0.057200007 -0.018857144 0.66000009
-0.052886244 -0.018353596 0.66036367
-0.048250318 -0.019091271 0.66083336
-0.04280762 -0.019515239 0.66100001
-0.039660003 -0.019515239 0.66100001
-0.026400002 -0.019485716 0.66000003
-0.01722762 -0.019240191 0.66020006
-0.012368147 -0.018657461 0.66033334
-0.0077553443 -0.018654183 0.66022223
-0.0031428575 -0.01917143 0.66000003
0.002514286 -0.019485716 0.66000003
0.0075461911 -0.018864525 0.66025001
0.012580952 -0.018871905 0.66049999
0.017867811 -0.018497717 0.66060001
0.021437146 -0.01765405 0.66200006
-0.081670165 -0.013016509 0.66133338
-0.079161778 -0.01195007 0.66042864
0.021309935 -0.012857689 0.66085714
-0.080648199 -0.0084558101 0.6626001
-0.077161908 -0.0077317753 0.66163647
-0.073861532 -0.0066683814 0.66060013
0.018717978 -0.0070770243 0.66062504
0.020784764 -0.0081873024 0.66133338
-0.072210096 -0.0027714288 0.66160005
0.013975811 -0.001636 0.66100001
0.017286668 -0.0032800005 0.66240007
-0.071329914 0.0018940953 0.66280007
-0.067778647 0.003510613 0.6615715
-0.064742863 0.0044000004 0.66000003
0.013355847 0.0026945453 0.66200006
0.015785715 0.00063142861 0.66300005
-0.066249683 0.0071512712 0.66250008
-0.063214384 0.0076820008 0.66110003
0.0094285719 0.0094285719 0.66000003
0.013247937 0.0063079372 0.66233343
-0.065037146 0.011365715 0.66300005
-0.062337153 0.012445371 0.66236377
-0.059098236 0.013223675 0.66114295
0.0094285719 0.01257143 0.66000003
0.010685715 0.010685715 0.66000003
-0.057627279 0.017030738 0.66227281
-0.053689942 0.018616464 0.66100007
0.0037788097 0.018893573 0.66125
0.0079007326 0.017984396 0.66161549
-0.052429289 0.022379763 0.66191673
-0.049694765 0.023904286 0.66050005
0.0017353572 0.021913931 0.66212505
0.0056828577 0.020837145 0.66300005
-0.051107146 0.026500478 0.66250002
-0.048036199 0.027768662 0.66127276
-0.04423207 0.029138735 0.6603334
0.00063142861 0.025888573 0.66300005
-0.046024766 0.030893335 0.66200006
-0.042853247 0.032771144 0.66170001
-0.039200958 0.034169845 0.6603334
-0.0064952387 0.034152385 0.66000003
-0.0036476196 0.03358629 0.66040009
-0.041042861 0.03662286 0.66300005
-0.037943941 0.037944831 0.66180009
-0.03398167 0.039015956 0.66075003
-0.0062880958 0.037729289 0.66025007
-0.0041548572 0.037395623 0.66100001
-0.03662286 0.041042861 0.66300005
-0.032710478 0.042677402 0.66163647
-0.0073473025 0.042409211 0.66133344
-0.031548098 0.046059527 0.66250002
-0.027546844 0.048164163 0.66145468
-0.02410762 0.049263179 0.6603334
-0.010718096 0.049807623 0.66200006
-0.009134762 0.046935719 0.66150004
-0.02672397 0.051974766 0.66283345
-0.022890955 0.053130642 0.6615001
-0.017983047 0.054450858 0.66020006
-0.012756906 0.053078104 0.6615001
-0.021247622 0.056589842 0.66266674
-0.017589631 0.056972701 0.66222233
-0.01389143 0.056197148 0.66300005
-0.087288581 -0.026122859 0.66900003
-0.082348771 -0.026346479 0.66820014
-0.077365197 -0.026919896 0.66766673
-0.072471127 -0.027337305 0.66750002
-0.067394212 -0.027340557 0.66758341
-0.062582098 -0.027094668 0.66780007
-0.057689723 -0.026362097 0.66860002
-0.051743813 -0.026508575 0.6680001
-0.046991322 -0.02720741 0.66777778
-0.042207111 -0.027244475 0.66761541
-0.037025083 -0.026972381 0.66900009
-0.032201335 -0.026601335 0.66820014
-0.027985876 -0.027350638 0.66783345
-0.023057148 -0.027219918 0.66745466
-0.017186986 -0.026096828 0.66833341
-0.012306668 -0.02652159 0.66833341
-0.0079117026 -0.026646666 0.66842866
-0.0021662859 -0.026377717 0.66900009
0.00063714292 -0.026122859 0.66900003
0.0095571438 -0.026122859 0.66900003
0.014017144 -0.026122859 0.66900003
0.016565714 -0.026122859 0.66900003
-0.09620858 -0.023574287 0.66900003
-0.092551731 -0.023053117 0.66807699
-0.087696314 -0.022879168 0.66724998
-0.082923397 -0.023743281 0.6657778
-0.077266671 -0.024700001 0.66500002
-0.071841151 -0.024454096 0.66520005
-0.067237832 -0.024162451 0.66514289
-0.061878193 -0.023712477 0.66569996
-0.057117503 -0.024117025 0.66637504
-0.051933341 -0.024700001 0.66500002
-0.047183335 -0.024383334 0.66500002
-0.042795245 -0.024157144 0.66500008
-0.037702858 -0.02417418 0.66600001
-0.03277456 -0.024058914 0.6672858
-0.028175648 -0.024188437 0.6658572
-0.017736787 -0.02407131 0.66512501
-0.012677858 -0.023454685 0.66558331
-0.0076115252 -0.023727527 0.66610003
-0.0026704764 -0.024543239 0.6676001
0.0028591272 -0.023420718 0.66758341
0.0074837371 -0.023332093 0.66761541
0.012691113 -0.023481747 0.66633332
0.017777622 -0.022858094 0.66662508
0.022717144 -0.02262708 0.66785711
0.026760003 -0.021662859 0.66900003
-0.091490798 -0.018254923 0.66866672
-0.088026308 -0.017545275 0.66715395
-0.084233336 -0.015833335 0.66500002
0.024108212 -0.017763214 0.666125
0.026122859 -0.017840002 0.66900003
-0.08654429 -0.013362383 0.66816676
-0.083916359 -0.01225889 0.66583335
0.023528254 -0.012717145 0.66766679
-0.082899526 -0.0076226201 0.66700006
-0.078533337 -0.0057000006 0.66500002
0.021986289 -0.0072434293 0.66720009
-0.08091715 -0.0044600004 0.66900003
-0.077236399 -0.0027207485 0.66707146
-0.074100003 -0.0012666668 0.66500002
0.018366668 -0.0012666668 0.66500002
0.021549525 -0.0025361907 0.66549999
-0.07645715 0.00063714292 0.66900003
-0.073158734 0.0031752386 0.66666675
0.017871305 0.0026621586 0.66540003
0.020923574 0.0025369048 0.66575003
-0.071558692 0.0069979769 0.66787505
-0.068225123 0.0082515478 0.66637504
0.012972383 0.0089800013 0.66671431
0.016615376 0.007172382 0.6672858
-0.066984236 0.012491959 0.66700011
-0.063966669 0.014566667 0.66500002
0.013380001 0.012318097 0.66900009
-0.065527625 0.016541906 0.66800004
-0.0623523 0.017680239 0.66691673
-0.058507305 0.019220956 0.66533339
0.010793651 0.018415239 0.66666669
-0.056714673 0.022636192 0.66760004
-0.053833336 0.024700001 0.66500002
0.0033258337 0.023596309 0.66512501
0.0072124684 0.022674806 0.6663636
-0.052180279 0.028042858 0.667
-0.048766669 0.029766669 0.66500002
-0.0011401906 0.028762287 0.6652
0.0024161905 0.027459813 0.66740006
0.0057342863 0.026122859 0.66900003
-0.050615244 0.032152381 0.66850007
-0.047155939 0.033072989 0.66663641
-0.043700002 0.034833334 0.66500002
-0.0010577778 0.032593019 0.66666675
-0.046064131 0.036936194 0.66866678
-0.04267215 0.037913337 0.66624999
-0.0019066668 0.037746988 0.6680001
-0.045237146 0.040140003 0.66900003
-0.042080957 0.041797783 0.66833335
-0.037877977 0.042632028 0.66562498
-0.034200002 0.044333335 0.66500002
-0.0061371434 0.043386035 0.66666669
-0.0033225396 0.04193249 0.66822225
-0.040140003 0.045237146 0.66900003
-0.036938943 0.046687517 0.66744447
-0.03324705 0.047459435 0.66620004
-0.029766669 0.048766669 0.66500002
-0.0069926539 0.046766806 0.66742861
-0.0038195241 0.045839526 0.66850007
-0.032038417 0.051133022 0.66833341
-0.029130749 0.052726131 0.66700006
-0.010766667 0.053200003 0.66500002
-0.0092765717 0.051979817 0.66720003
-0.026306668 0.056809146 0.66720003
-0.023476573 0.057738669 0.66619998
-0.017944448 0.058900006 0.66500008
-0.01239879 0.057389792 0.6661818
-0.021328572 0.061439052 0.66850001
-0.017563811 0.061475623 0.66820002
-0.014006192 0.06112048 0.66850001
0.028885717 -0.035304762 0.67400002
0.030169526 -0.035304762 0.67400002
-0.091702223 -0.030781588 0.67333335
-0.087022744 -0.030714881 0.671875
-0.08198414 -0.031270478 0.67311108
-0.07756725 -0.031617716 0.67200005
-0.073007204 -0.032203812 0.67177773
-0.067827031 -0.031994171 0.671875
-0.062936023 -0.031266063 0.67245454
-0.057933625 -0.031146957 0.67290002
-0.052376628 -0.031287104 0.67290908
-0.047389608 -0.03138119 0.67241663
-0.042240001 -0.03136 0.67200005
-0.036730956 -0.03135629 0.67189997
-0.03200911 -0.032011129 0.67218751
-0.027496599 -0.031699322 0.67142856
-0.022902193 -0.031986956 0.6717
-0.018105112 -0.031261992 0.67236358
-0.012814763 -0.030755479 0.67275
-0.0076742861 -0.03005762 0.67150003
-0.0025640477 -0.030777859 0.67325002
0.0022925171 -0.030719733 0.67400008
0.0078255236 -0.030408382 0.67360002
0.01281381 -0.030755479 0.67275
0.017808191 -0.031133523 0.67259997
0.022549208 -0.03108762 0.6722222
0.027346151 -0.031662337 0.67345446
0.031946667 -0.031948194 0.67359996
0.035804451 -0.031329527 0.67133331
-0.10077906 -0.026960002 0.67400002
-0.097613521 -0.027449355 0.67309088
-0.092050292 -0.027488003 0.67120004
-0.08782123 -0.027814969 0.67028582
-0.083278507 -0.028185716 0.67042857
-0.07784763 -0.029033333 0.67000002
-0.072742864 -0.029990477 0.67000002
-0.067638099 -0.029990477 0.67000002
-0.061257146 -0.028714288 0.67000002
-0.057179052 -0.028179593 0.67028576
-0.052775875 -0.028303176 0.67033339
-0.048495241 -0.028714288 0.67000002
-0.042114288 -0.029990477 0.67000002
-0.037328575 -0.029033333 0.67000002
-0.032861903 -0.028395241 0.67000002
-0.027438097 -0.029990477 0.67000002
-0.022971429 -0.029671431 0.67000002
-0.018091219 -0.027882542 0.67044449
-0.013187302 -0.028288892 0.67000002
-0.0072742864 -0.028459048 0.67000002
-0.0028270751 -0.028185716 0.67042863
0.0027291779 -0.02757732 0.67054552
0.0074941139 -0.027596107 0.671
0.012510098 -0.027701905 0.67020005
0.01812762 -0.027701909 0.67020005
0.022971433 -0.0274381 0.67000002
0.027470583 -0.027470583 0.6707778
0.032020241 -0.027537858 0.67241669
0.036541522 -0.027726287 0.67080003
-0.10077906 -0.023750478 0.67400002
-0.097592764 -0.022982346 0.67176926
-0.093800008 -0.021057144 0.67000002
0.02424762 -0.024885716 0.67000002
0.028005293 -0.023467725 0.67000002
0.031602424 -0.023452643 0.67218179
0.035200004 -0.024960002 0.67200005
-0.096333504 -0.019009367 0.67283338
-0.093537949 -0.017470319 0.67116678
0.028118812 -0.017891429 0.671
0.030080002 -0.019840002 0.67200005
-0.091892026 -0.013286549 0.67237508
-0.088601664 -0.012610715 0.67050004
0.024885718 -0.012123811 0.67000002
0.027249528 -0.012791621 0.67160004
-0.09050858 -0.0096285725 0.67400002
-0.087354459 -0.0078545464 0.67218179
-0.084290959 -0.0063852388 0.67050004
0.024261549 -0.0076610721 0.67037505
0.026551191 -0.0086378576 0.67175001
-0.085373342 -0.0044933334 0.67400002
-0.082188159 -0.0026317462 0.67244452
-0.07988096 -0.001917143 0.671
0.023644764 -0.0044733337 0.671
0.025034288 -0.0044933334 0.67400002
-0.08049953 0.0016042859 0.6735
-0.077350803 0.0027708996 0.67122221
-0.076039247 0.0073100957 0.67320007
-0.073472545 0.0080931755 0.67083335
0.019142859 0.0057428577 0.67000002
-0.071894296 0.011734287 0.67200011
-0.069207244 0.013689525 0.67160004
0.013214923 0.013853017 0.67133331
-0.067145988 0.018046398 0.67328578
-0.063857622 0.019795716 0.67050004
0.013206477 0.016542098 0.67320007
-0.062416833 0.022513336 0.67216671
-0.058885526 0.023886669 0.67060006
0.0096285725 0.022466669 0.67400002
0.01086381 0.021088572 0.671
-0.061622862 0.025676193 0.67400002
-0.057104129 0.027235771 0.67200005
-0.053839684 0.028728575 0.67033339
0.0028714288 0.029352382 0.67000002
0.0068331747 0.027326509 0.67250001
-0.056125242 0.031110002 0.6735
-0.053388152 0.032488041 0.67177778
0.0027051286 0.032395385 0.671
0.0057714293 0.031423494 0.67333335
-0.051351555 0.036632739 0.671875
-0.048363216 0.037509646 0.67037505
-0.0012761905 0.03764762 0.67000002
0.0016638096 0.036831435 0.67140001
-0.047126386 0.041747529 0.67230004
-0.043087859 0.043725953 0.67025006
-0.0010634921 0.042539686 0.67000002
0.00089619058 0.041817717 0.67140001
-0.041966535 0.046354838 0.67200005
-0.038328812 0.048550241 0.67075002
-0.0061746035 0.04875683 0.67066669
-0.0022640694 0.047548223 0.67054552
0.00063952385 0.046045244 0.67150003
-0.036587782 0.052161589 0.67200005
-0.032993179 0.053427465 0.67050004
-0.0071857148 0.05190286 0.67075002
-0.0040533338 0.05098667 0.67200011
-0.035304762 0.055845719 0.67400002
-0.031803336 0.057416029 0.67233324
-0.028426906 0.057494048 0.67075002
-0.01084762 0.059342861 0.67000002
-0.0089461915 0.057515241 0.671
-0.030169526 0.060980957 0.67400002
-0.027406789 0.062024646 0.67312503
-0.02353627 0.062938981 0.67091674
-0.018292066 0.064022236 0.67000002
-0.012671145 0.062984668 0.67210001
-0.025034288 0.066116191 0.67400002
-0.022261072 0.067103699 0.67262501
-0.017983519 0.067452975 0.67253846
-0.013893969 0.066906676 0.67333335
-0.10282001 -0.035566669 0.67900002
-0.095706671 -0.035566669 0.67900002
-0.091826677 -0.035566669 0.67900002
-0.087702543 -0.03641725 0.67877775
-0.082712382 -0.036187142 0.6785
-0.078893341 -0.035566669 0.67900002
-0.070486672 -0.035566669 0.67900002
-0.067179769 -0.035527382 0.67825007
-0.06251929 -0.036348816 0.6785
-0.057525717 -0.035549209 0.67866671
-0.052515246 -0.035741527 0.67740005
-0.048068441 -0.036075786 0.67814291
-0.042679999 -0.035566669 0.67900002
-0.03697465 -0.036329169 0.67812496
-0.032222223 -0.036735877 0.67666668
-0.027070478 -0.036094528 0.67675
-0.022577463 -0.036126036 0.67733335
-0.0012933334 -0.036213338 0.67900002
0.0024938779 -0.036113478 0.67885715
0.0081480006 -0.035825338 0.67900002
0.012926073 -0.036193691 0.67862499
0.017448982 -0.036652796 0.67857146
0.022268485 -0.036958359 0.67863637
0.026137525 -0.035924956 0.67600006
-0.11058001 -0.031686671 0.67900008
-0.10742324 -0.032162707 0.6785385
-0.10226124 -0.03215551 0.67714286
-0.097568206 -0.032210603 0.67726672
-0.09298265 -0.032858204 0.67644453
-0.087638937 -0.033510596 0.67662507
-0.08291778 -0.03372699 0.67666674
-0.078016207 -0.034172382 0.67700005
-0.071533337 -0.034155563 0.67666674
-0.066931672 -0.034109287 0.67575008
-0.062152147 -0.0338131 0.67625004
-0.057542861 -0.033710163 0.67633337
-0.053116191 -0.033824384 0.67520005
-0.047622144 -0.034109287 0.67575002
-0.042522859 -0.033504289 0.67650002
-0.037706286 -0.033844572 0.67559999
-0.027000003 -0.034071431 0.67500001
-0.021857144 -0.034071431 0.67500001
-0.017659431 -0.033905145 0.67680001
-0.012899525 -0.033541664 0.67725003
-0.0079858098 -0.032583531 0.67610008
-0.0023012247 -0.033415787 0.67657155
0.0027907938 -0.033281591 0.67633337
0.0076696118 -0.032962084 0.67618185
0.012866668 -0.033453811 0.67550009
0.017882098 -0.033577338 0.67540002
0.022307238 -0.033915244 0.67700005
0.026376193 -0.03377524 0.67550004
-0.10728402 -0.027144004 0.67860001
-0.10342547 -0.027186498 0.67527288
-0.095785722 -0.028928574 0.67500001
-0.094500005 -0.028928574 0.67500001
-0.10589297 -0.022884956 0.67880005
-0.10274591 -0.021913907 0.67680001
0.033787858 -0.022202145 0.67575002
0.035720572 -0.021531621 0.67700005
-0.10143346 -0.017765597 0.67837501
-0.098127037 -0.017534167 0.67562509
0.032314163 -0.017894099 0.67586666
0.035514291 -0.017436191 0.67799997
-0.10061525 -0.014434922 0.67866677
-0.097407788 -0.012899048 0.67733335
-0.093759224 -0.011799525 0.6758334
0.028928574 -0.012857144 0.67500001
0.032101832 -0.013344618 0.67723078
0.035514288 -0.014205715 0.67800003
-0.095383331 -0.0087299999 0.67900002
-0.092256777 -0.0077407621 0.67740005
-0.088780478 -0.0057900008 0.67550004
0.028439621 -0.0081066666 0.67560005
0.030370954 -0.0090461913 0.67850006
-0.091180004 -0.0045266668 0.67900002
-0.087624423 -0.0025757146 0.67650008
-0.083785728 -0.0010714286 0.67500007
-0.086826675 0.0015082541 0.67866671
-0.083007149 0.0029006356 0.67650002
-0.079071432 0.0045000003 0.67500001
-0.081772 0.0074940966 0.67820001
-0.078277789 0.0082379906 0.67677778
0.018053334 0.0090276189 0.67700005
0.020031907 0.0083995238 0.67850006
-0.076683298 0.012732124 0.67763638
-0.073162392 0.01394651 0.6758334
0.01743252 0.012817824 0.67785716
0.020046668 0.013580001 0.67900002
-0.075622864 0.017452067 0.67866671
-0.072285876 0.017426668 0.67766666
-0.068836674 0.018013811 0.67550004
0.013189049 0.018656192 0.67550004
0.016130954 0.01677762 0.67750001
-0.071133338 0.020046668 0.67900002
-0.06750381 0.022328572 0.67760003
0.0096428581 0.023785716 0.67500001
0.010944762 0.022533335 0.67600006
-0.065712385 0.025638729 0.67866677
-0.062656909 0.027384048 0.67650008
-0.059386671 0.028514287 0.67533338
0.0091322456 0.027398098 0.67800003
0.010993334 0.025220001 0.67900002
-0.06124929 0.031998571 0.67874998
-0.05806233 0.032433759 0.67655563
0.0072746947 0.032132655 0.67671436
-0.057094611 0.036411114 0.67866671
-0.053969406 0.037860837 0.67662507
0.0040844446 0.037827305 0.67700005
0.0062482543 0.035980321 0.67866677
-0.052293744 0.041409664 0.67785716
-0.048544388 0.043908197 0.67600006
0.0029030954 0.041892622 0.67675
-0.04728508 0.046207935 0.67700005
-0.04284082 0.048736598 0.67714292
-0.041091114 0.051416829 0.67766666
-0.038882546 0.053488255 0.67666674
-0.0062228581 0.054295242 0.67600006
-0.0045133336 0.054161906 0.67700005
-0.03605381 0.057299528 0.67600006
-0.033659689 0.059386671 0.67533338
-0.0065754293 0.057126671 0.67699999
-0.0045266668 0.056260005 0.67900002
-0.035514288 0.060051434 0.67800003
-0.031946786 0.062438935 0.677625
-0.027664287 0.064332858 0.67550004
-0.010928572 0.064285718 0.67500001
-0.0089100963 0.0618602 0.67799997
-0.030393336 0.065313339 0.67900002
-0.027044339 0.06707228 0.67788893
-0.023785716 0.06878572 0.67500001
-0.011799525 0.068013184 0.6758334
-0.0093730958 0.066581674 0.67875004
-0.025201429 0.07108143 0.67850006
-0.022241829 0.072099768 0.67691672
-0.01768579 0.072084621 0.67623091
-0.013533621 0.071538575 0.67670006
0.0045600003 -0.047554288 0.68400002
0.0058628577 -0.047554288 0.68400002
-0.10748572 -0.041040003 0.68400002
-0.092241168 -0.041888364 0.68366671
-0.08786913 -0.041750211 0.68342865
-0.082297146 -0.041040003 0.68400002
-0.076868579 -0.04169143 0.68400002
-0.072665989 -0.041589804 0.6838572
-0.067748576 -0.041040003 0.68400002
-0.062146295 -0.041300576 0.68400002
-0.056918669 -0.041288577 0.68380004
-0.052077144 -0.041010004 0.68350005
-0.047519527 -0.041661434 0.68350005
-0.04296286 -0.041661434 0.68350005
-0.0377554 -0.04231254 0.68350005
-0.032539207 -0.042302381 0.6833334
-0.02716 -0.042191174 0.68345463
-0.022320524 -0.042331778 0.68381822
-0.017588573 -0.041040003 0.68400002
-0.014320477 -0.041010004 0.68350005
-0.0071657146 -0.041040003 0.68400002
-0.0023253064 -0.041572656 0.68357146
0.0026038098 -0.041661434 0.68350005
0.0081406357 -0.042441435 0.68383336
0.012908017 -0.042415958 0.68341672
0.017187621 -0.041184764 0.68099999
-0.11719321 -0.036460362 0.68362504
-0.11222315 -0.037322763 0.6827001
-0.10770103 -0.037548639 0.6820668
-0.10274961 -0.037686877 0.68221438
-0.097571433 -0.037728891 0.68300003
-0.092524052 -0.038201511 0.68175
-0.087339371 -0.039131112 0.68100011
-0.082198516 -0.038899899 0.68200004
-0.077420168 -0.037792064 0.6821667
-0.072912462 -0.037821911 0.68233341
-0.067502066 -0.038295403 0.68149996
-0.061856069 -0.03880322 0.68187505
-0.057137068 -0.038309768 0.68175006
-0.0524581 -0.038605828 0.68188888
-0.047507148 -0.038590956 0.68099999
-0.042784765 -0.03824826 0.68066663
-0.038102858 -0.038753334 0.68099999
-0.032450952 -0.039591905 0.68150008
-0.027244644 -0.038922504 0.68112504
-0.02170057 -0.038464386 0.68220007
-0.017550319 -0.037702225 0.68250006
-0.012988872 -0.037671365 0.68193763
-0.0077894656 -0.037651256 0.68156254
-0.003027302 -0.038061116 0.68116665
0.0026674075 -0.038711861 0.68122226
0.0076105637 -0.038410742 0.68145454
0.012961429 -0.03888572 0.68049997
0.017485715 -0.038727622 0.68000001
0.020076191 -0.038209528 0.68000001
-0.11735584 -0.03304131 0.68362504
-0.1132885 -0.032574654 0.68092322
-0.10750477 -0.034323812 0.68000001
-0.10426667 -0.034323812 0.68000001
-0.0064761909 -0.034323812 0.68000001
-0.0045333337 -0.034323812 0.68000001
-0.11526072 -0.027349286 0.68375003
-0.11247858 -0.027305398 0.68266678
-0.10955493 -0.026577145 0.68066669
-0.11190613 -0.022790207 0.68371433
-0.10824668 -0.021804571 0.68140006
-0.10646977 -0.017907381 0.68375003
-0.10413453 -0.017192621 0.68124998
-0.10234804 -0.013269388 0.68200004
0.033175558 -0.011058096 0.68300009
0.035828575 -0.011725715 0.68400002
-0.10082382 -0.0084549217 0.68300009
-0.09780287 -0.0076118615 0.68172735
-0.093904771 -0.005828572 0.68000001
0.027945718 -0.0058485726 0.68233341
0.031864762 -0.0084537147 0.68279999
-0.095620006 -0.0045533339 0.68300003
-0.092524983 -0.0026712168 0.68255556
0.024032382 -0.0019485716 0.68200004
0.026815811 -0.002863619 0.68340009
-0.090482384 0.001302381 0.68350005
-0.088033661 0.0036780955 0.6813333
0.023383809 0.0025985716 0.68200004
0.025840003 0.0010857144 0.68400002
-0.086121909 0.0073761912 0.6833334
-0.084179364 0.0080092074 0.68166673
0.02191131 0.0073008337 0.68162507
-0.085337147 0.011074287 0.68400002
-0.082300015 0.012839569 0.68336368
-0.079333335 0.012952382 0.68000001
0.018349208 0.014031747 0.68000001
0.020960001 0.012100954 0.68066669
-0.080125719 0.016285716 0.68400002
-0.077791058 0.017273335 0.68180007
0.014982858 0.01889143 0.68400002
0.017897282 0.017713336 0.68157142
0.020135239 0.017540954 0.68200004
-0.076645717 0.020135239 0.68200004
-0.072964489 0.022373335 0.68228573
-0.069295242 0.023961907 0.68000001
0.013535048 0.022383049 0.68320006
0.017288256 0.021628572 0.68355554
0.020845715 0.020194286 0.68400002
-0.072119527 0.026536429 0.68375003
-0.067870192 0.027619049 0.6816923
-0.064114287 0.029142858 0.68000001
0.012476278 0.027489614 0.68281817
-0.06719853 0.03161037 0.6835556
-0.063600957 0.033147626 0.6824286
0.0093030166 0.032887779 0.68149996
0.011391905 0.031571429 0.68350005
-0.060883339 0.037269052 0.68250006
-0.058184769 0.038717784 0.68133342
0.0071533336 0.037573528 0.68260002
-0.056616861 0.042950764 0.68330008
-0.05296731 0.04388731 0.68100011
0.0041168258 0.043131433 0.68266672
0.0058371434 0.041509524 0.68099999
-0.055371433 0.046902858 0.68400002
-0.05229592 0.046907894 0.68271434
-0.047706194 0.04835476 0.68150008
-0.044685718 0.049866669 0.68000001
-0.046718098 0.05114324 0.68320006
-0.043361485 0.052883606 0.68177778
-0.0028187304 0.053555876 0.68300003
-0.04250579 0.057124548 0.68338466
-0.038781434 0.057604056 0.68149996
-0.005828572 0.058933336 0.68000001
-0.0024893652 0.057092071 0.68250006
0.00065142859 0.05667429 0.68400002
-0.04169143 0.060582861 0.68400002
-0.037507541 0.062221836 0.68291676
-0.03392572 0.063745402 0.68066669
-0.0068565086 0.062880635 0.68222225
-0.003774286 0.061311048 0.68340009
-0.036245402 0.066196516 0.68366671
-0.032236382 0.067071244 0.68240005
-0.028538099 0.068748578 0.68099999
-0.0080088899 0.06841588 0.68200004
-0.030617144 0.071005717 0.68400002
-0.027583402 0.072994292 0.68257153
-0.022054287 0.074585721 0.68099999
-0.011889841 0.073722228 0.68099999
-0.0094314292 0.071877621 0.68300009
-0.096460007 -0.045714609 0.68900001
-0.092743263 -0.045764495 0.68785727
-0.088498734 -0.045233335 0.68833339
-0.076551437 -0.045145717 0.68700004
-0.072041273 -0.04562699 0.68766677
-0.067587622 -0.045277145 0.68900001
-0.062075626 -0.045802098 0.68900007
-0.057703812 -0.045900479 0.68850005
-0.052419052 -0.045867622 0.68800008
-0.047073614 -0.045764495 0.68785727
-0.04259048 -0.045867622 0.68800008
-0.037774552 -0.046343204 0.68709099
-0.032922599 -0.046379913 0.68763649
-0.027540479 -0.045900479 0.68850005
-0.021990286 -0.046207618 0.68720007
-0.018373333 -0.045277145 0.68900001
-0.0026242859 -0.045244288 0.68850005
0.0029419051 -0.04593024 0.68650001
0.0076222229 -0.046241485 0.68599999
0.011542222 -0.04551556 0.68600005
-0.12651353 -0.041602474 0.68900007
-0.12237429 -0.04223467 0.68860006
-0.11757858 -0.042145241 0.68875003
-0.11274216 -0.042607389 0.68825006
-0.10785297 -0.042389885 0.68737507
-0.10153975 -0.042021368 0.68785727
-0.097457677 -0.042515874 0.68677777
-0.093426675 -0.043773334 0.68600005
-0.086732201 -0.043301716 0.68680006
-0.082433648 -0.043001063 0.68755561
-0.077422731 -0.043054018 0.68642867
-0.072520003 -0.043773334 0.68600005
-0.068007983 -0.043159887 0.686625
-0.063079193 -0.043268036 0.68685728
-0.057797831 -0.043231566 0.68628573
-0.052295599 -0.043143932 0.68637502
-0.047040004 -0.043773334 0.68600005
-0.04246667 -0.043773334 0.68600005
-0.029400002 -0.043773334 0.68600005
-0.020253334 -0.04246667 0.68600005
-0.017083071 -0.042965822 0.6870001
-0.012158859 -0.041968763 0.68640006
-0.0076296297 -0.042363603 0.68666679
-0.0030081908 -0.04355029 0.68660009
0.0026133333 -0.043773334 0.68600005
0.0058800005 -0.043773334 0.68600005
-0.12585734 -0.037665337 0.68900007
-0.1222659 -0.037780523 0.68718195
-0.11766417 -0.03922179 0.68637502
-0.11302667 -0.039853334 0.68600005
-0.10126667 -0.039853334 0.68600005
-0.099306673 -0.039853334 0.68600005
-0.12196843 -0.033415787 0.68800002
-0.11932048 -0.031709526 0.68650007
-0.12008286 -0.029528573 0.68900001
-0.11769604 -0.0279481 0.68783343
-0.11647081 -0.023818098 0.68833339
-0.11335429 -0.02131086 0.68640012
-0.11147191 -0.018359525 0.68850005
-0.10852715 -0.016530953 0.6875
-0.10639381 -0.012889048 0.68816674
-0.10349493 -0.01154762 0.68633336
-0.10297208 -0.0083069857 0.6886667
0.033382453 -0.0075726546 0.68728572
0.035933334 -0.009800001 0.68600005
-0.10039715 -0.0045933337 0.68900001
-0.097411528 -0.0026214288 0.68830007
-0.094217151 -0.0013085715 0.68700004
0.028756909 -0.0019602382 0.68625009
0.030796193 -0.0039304765 0.68800002
-0.095803812 0.0006561905 0.68900001
-0.092505194 0.0026935453 0.68777782
0.026837694 0.0028991839 0.68728572
-0.091647945 0.0063431757 0.68900001
-0.088516884 0.0079448996 0.6870001
0.024173334 0.0071866671 0.68600005
0.025591429 0.0059057148 0.68900001
-0.08657258 0.012705144 0.68760008
-0.085960954 0.015092382 0.68900001
-0.082460962 0.016958732 0.68777782
-0.079053335 0.018946668 0.68600005
0.021124449 0.018075559 0.68600005
-0.080711432 0.020341907 0.68900001
-0.077740118 0.022421787 0.68737507
0.012413334 0.021560002 0.68600005
0.017646907 0.023855478 0.68625009
0.020268098 0.022884287 0.68650007
-0.076362625 0.02654786 0.68825006
-0.073347054 0.028371429 0.68640006
0.016358528 0.027063638 0.68700004
0.020341907 0.025591429 0.68900001
-0.072024606 0.032084286 0.6875
-0.068481274 0.033806033 0.68700004
0.012919644 0.033200838 0.68687499
0.015409524 0.031802859 0.68849999
-0.066082865 0.035985716 0.68700004
-0.06388028 0.037505854 0.68742865
0.0090274289 0.037807241 0.68680012
0.011139048 0.036694288 0.68800002
-0.061571196 0.04126405 0.68775004
-0.059540004 0.042530477 0.68700004
0.0075397626 0.041948337 0.68825006
-0.05718419 0.046978861 0.68700004
-0.052324526 0.049053572 0.68675005
0.0031291009 0.047689103 0.68800008
0.005888572 0.0458 0.68700004
-0.051377147 0.051377147 0.68866676
-0.048323948 0.052998777 0.6870001
-0.0010903176 0.052329686 0.68683338
0.001093016 0.052008256 0.68833339
-0.046483051 0.057610679 0.68739998
-0.0013066668 0.059453338 0.68600005
0.00065333338 0.05814667 0.68600005
-0.045277145 0.06102572 0.68900001
-0.042550266 0.063060954 0.68733335
-0.039437145 0.064275876 0.68633342
-0.0028374605 0.063061915 0.68733335
0.00065333338 0.060760003 0.68600005
-0.040683813 0.066931427 0.68900001
-0.037740164 0.067844614 0.68716669
-0.033332624 0.069278345 0.68625003
-0.00620881 0.067317389 0.68625003
-0.0045933337 0.066275239 0.68900001
-0.11368382 -0.050893337 0.69400001
-0.076670483 -0.050893337 0.69400001
-0.073365718 -0.050893337 0.69400001
-0.061468575 -0.051223814 0.69400001
-0.057475876 -0.050868895 0.6936667
-0.052837148 -0.050856672 0.69350004
-0.047588579 -0.050893337 0.69400001
-0.042300954 -0.050893337 0.69400001
-0.036881145 -0.05115772 0.69400001
-0.032386668 -0.050893337 0.69400001
-0.028156573 -0.05115772 0.69400001
-0.022180412 -0.051438913 0.69371432
-0.017184764 -0.050893337 0.69400001
-0.13612366 -0.046916358 0.69383335
-0.13211058 -0.0469568 0.69263631
-0.12733077 -0.04661515 0.69129997
-0.12246477 -0.046749216 0.69133341
-0.11709988 -0.047290608 0.69153345
-0.11244369 -0.047585793 0.69169235
-0.10794853 -0.047100615 0.69235724
-0.10269897 -0.046705205 0.69245452
-0.097648159 -0.047472913 0.69122225
-0.09210626 -0.048582859 0.69244456
-0.087135486 -0.04802072 0.69225001
-0.082680218 -0.047221985 0.69135725
-0.077867851 -0.04787825 0.69153857
-0.072422013 -0.048326951 0.69129997
-0.066988796 -0.047851503 0.69115394
-0.062745862 -0.048448984 0.6914286
-0.057891671 -0.048682146 0.69075006
-0.052646674 -0.048700001 0.69100004
-0.047494184 -0.048520427 0.69155556
-0.042156313 -0.048744403 0.691625
-0.037620004 -0.049500003 0.69300002
-0.032577146 -0.049194288 0.6924001
-0.027669525 -0.048753571 0.69175005
-0.022831272 -0.048954766 0.69150007
-0.016924288 -0.047672044 0.69107145
-0.012520261 -0.04726832 0.69190913
-0.0080387946 -0.047308765 0.6918
-0.0024552385 -0.047967453 0.69163638
0.0015392065 -0.048563972 0.69216669
-0.13593589 -0.043843176 0.69400001
-0.13245374 -0.042172622 0.6919167
-0.1288 -0.04271429 0.69000006
-0.12222858 -0.044028573 0.69000006
-0.11828572 -0.044028573 0.69000006
-0.10628922 -0.04361175 0.69033337
-0.10346458 -0.043515623 0.69020003
-0.012485716 -0.044028573 0.69000006
-0.0092000011 -0.044028573 0.69000006
-0.13102606 -0.037435558 0.6936667
-0.12825468 -0.03748972 0.69060004
-0.12684464 -0.033603452 0.69187498
-0.1238903 -0.031992003 0.69120008
-0.12624191 -0.029742859 0.69400001
-0.122686 -0.027701363 0.69257146
-0.11902906 -0.026304286 0.69050002
-0.12128477 -0.023463812 0.69400001
-0.11790325 -0.021735432 0.69160002
-0.11595549 -0.018169288 0.69375002
-0.11276156 -0.016437024 0.69037503
-0.1122412 -0.012543811 0.69325006
-0.10875467 -0.012229715 0.69040006
-0.11076667 -0.0094688898 0.6936667
-0.10735726 -0.0085604237 0.69155556
-0.10361358 -0.0062492862 0.69075006
0.034196667 -0.0059185717 0.69050002
0.036840241 -0.0065783337 0.69075
-0.10509144 -0.0033047623 0.69400001
-0.10224694 -0.0024545456 0.69181824
-0.098571435 -0.0006571429 0.69000006
0.029700002 -0.00066000002 0.69300002
0.032769635 -0.0030043388 0.69277787
0.037123434 -0.0040952391 0.69360006
-0.10156636 0.0011015874 0.69400001
-0.097617909 0.0029169389 0.69121444
-0.093971431 0.0046000001 0.69000006
0.029225875 0.0030753971 0.69216675
0.031064764 0.0013219048 0.69400001
-0.097020954 0.0066006361 0.69300002
-0.092793979 0.0084244451 0.69211113
-0.088714294 0.0098571433 0.69000006
0.023674287 0.0092071434 0.69050002
0.027405038 0.0068741506 0.6921429
-0.090848342 0.012223572 0.69375002
-0.088885725 0.012511748 0.69133341
-0.087578945 0.017075239 0.69255555
-0.084114291 0.018400002 0.69000006
-0.085893102 0.021803573 0.69375002
-0.082710952 0.022410322 0.69200003
-0.079514287 0.023657145 0.69000006
-0.081698738 0.026205398 0.6936667
-0.07787738 0.027825002 0.69150007
0.018547622 0.028545335 0.6906001
0.020391114 0.028285082 0.69066668
-0.076494478 0.032104 0.69360006
-0.073049717 0.033300001 0.69100004
0.017521909 0.032933336 0.69160002
0.020400954 0.030930478 0.69100004
-0.071551904 0.036986832 0.69349998
-0.067924768 0.037662856 0.69075006
0.011852859 0.03754143 0.69150007
-0.066670381 0.041587528 0.69310009
-0.063136198 0.042813204 0.69157147
0.009130341 0.042820953 0.69171435
0.011236191 0.040318098 0.69400001
-0.062052026 0.046869412 0.69312513
-0.058799434 0.047751434 0.6906001
0.0046000001 0.049285717 0.69000006
0.0075866668 0.046989527 0.6925
-0.056628387 0.051877148 0.69300002
-0.05333019 0.053330194 0.69130003
0.0035567624 0.052943241 0.69140005
0.0059400005 0.052802384 0.69300002
-0.052628573 0.057308059 0.69309098
-0.048975002 0.057849765 0.69025004
0.0030369523 0.05661143 0.69279999
-0.051554289 0.060146671 0.69400001
-0.047314651 0.062148217 0.69237506
-0.0010974604 0.063458741 0.69166672
-0.08837112 -0.055148896 0.69766665
-0.077112384 -0.055175241 0.69800001
-0.061734289 -0.055096194 0.69700003
-0.05118667 -0.055175241 0.69800001
-0.047729909 -0.055441149 0.69800001
-0.042529766 -0.055820242 0.69774997
-0.036766354 -0.055592068 0.69766665
-0.032542862 -0.055122547 0.69733334
-0.027456988 -0.055578899 0.69749999
-0.022585716 -0.055800483 0.69749999
-0.016619049 -0.055840008 0.69800007
-0.012503725 -0.057200179 0.69763637
-0.0099476194 -0.056368575 0.69633341
-0.14558287 -0.051851429 0.69800001
-0.14225906 -0.051851433 0.69800001
-0.13747463 -0.051802225 0.69733334
-0.13231084 -0.051897742 0.69637507
-0.12762508 -0.052139152 0.69650006
-0.1225256 -0.051914971 0.69757146
-0.11767477 -0.052272674 0.69650006
-0.11259419 -0.05250572 0.695889
-0.10797843 -0.051556196 0.69700003
-0.10237334 -0.05118667 0.69800001
-0.096839435 -0.051674481 0.69740003
-0.092428401 -0.052249908 0.69620007
-0.087475717 -0.052354451 0.69583338
-0.082273021 -0.052417777 0.69666672
-0.07743036 -0.052892506 0.69637501
-0.072522335 -0.052497573 0.69577789
-0.067422092 -0.052239917 0.6959092
-0.062617384 -0.052844763 0.69575006
-0.057312388 -0.053146131 0.69628584
-0.052754976 -0.05294599 0.69614297
-0.047725722 -0.053029526 0.6960001
-0.042406909 -0.053010236 0.69575012
-0.037192792 -0.053091027 0.69557154
-0.032465085 -0.053003814 0.69566679
-0.027549798 -0.053113062 0.69585729
-0.02294038 -0.053442098 0.69620007
-0.017237738 -0.053039171 0.69612509
-0.012600319 -0.052392073 0.69633341
-0.0079580955 -0.052392066 0.69633341
-0.0036891159 -0.052123409 0.69528586
-0.14602605 -0.0489708 0.69800007
-0.14225137 -0.048154213 0.69741672
-0.13832143 -0.048205715 0.69575006
-0.13238096 -0.049642861 0.69500005
-0.12708572 -0.049642861 0.69500005
-0.12245239 -0.049642861 0.69500005
-0.11980477 -0.049642861 0.69500005
-0.10666763 -0.049690481 0.69566673
-0.10222667 -0.049785718 0.69700003
-0.097961918 -0.049642861 0.69500005
-0.012576192 -0.049642861 0.69500005
-0.0059571434 -0.049642861 0.69500005
-0.0046333335 -0.049642861 0.69500005
-0.14026476 -0.044539049 0.69800001
-0.13737811 -0.042090718 0.6960001
-0.13655977 -0.038209766 0.69774997
-0.13342489 -0.036794644 0.69612509
-0.13168779 -0.032976352 0.69716668
-0.12859525 -0.031817146 0.69600004
-0.12765418 -0.027950056 0.69688892
-0.12588239 -0.023581907 0.69749999
-0.12310417 -0.022034645 0.69587505
-0.12061119 -0.018274048 0.69774997
-0.11780275 -0.016733691 0.69587505
-0.11662406 -0.012957858 0.69775003
-0.11467429 -0.011930477 0.69600004
-0.11500382 -0.0093066674 0.69800001
-0.11225619 -0.008349143 0.69580001
-0.10809874 -0.0059685721 0.69633341
-0.10751598 -0.0028787304 0.69733334
0.033095241 -0.00066190481 0.69500005
0.03641919 -0.0016077553 0.69528586
-0.10578134 0.002256762 0.69680005
-0.10298869 0.0031664551 0.69566679
0.032750767 0.0029181906 0.69610006
0.03617667 0.0019926191 0.69700003
-0.10569715 0.0059828577 0.69800001
-0.10245025 0.0062988102 0.69625008
-0.097968176 0.0084250346 0.69571435
-0.094652385 0.009928572 0.69500005
0.028348576 0.0091183335 0.69625002
0.031672068 0.0064231753 0.69766665
-0.09635596 0.012294048 0.69774997
-0.09350124 0.012600818 0.69628584
0.024560954 0.013940001 0.69700003
0.026248813 0.012294048 0.69775003
-0.091813348 0.017035555 0.69688892
-0.089357145 0.018533334 0.69500005
0.024578573 0.015943334 0.69749999
0.025907144 0.015943334 0.69749999
-0.088079244 0.022816001 0.69640011
-0.086074613 0.026331749 0.69700003
-0.082440853 0.028218836 0.69622231
-0.078766674 0.029785717 0.69500005
-0.08084096 0.031672068 0.69766665
-0.078577384 0.032824051 0.69625002
-0.075561278 0.036561906 0.69800007
-0.073660962 0.037562668 0.69680005
0.013401716 0.0380821 0.69660008
0.015931429 0.036509525 0.69700003
-0.071487784 0.042052232 0.69716668
-0.068684131 0.043506987 0.69566673
0.012612288 0.042477246 0.69690007
-0.067161702 0.04681376 0.69666666
-0.062652387 0.048877146 0.69540006
0.0090668257 0.048865564 0.69650006
0.011284764 0.04713048 0.69700003
-0.061403338 0.051445715 0.69700003
-0.058055244 0.053419374 0.69533342
0.0078312382 0.052161146 0.69680005
-0.057189144 0.056921341 0.69660008
-0.0549381 0.058909528 0.69500005
0.0036438094 0.05862096 0.69550002
0.0065019052 0.056922484 0.69660008
-0.075763814 -0.061013337 0.70400006
-0.073081911 -0.061013337 0.70400006
-0.067718104 -0.061013337 0.70400012
-0.051626675 -0.061013337 0.70400012
-0.047295053 -0.061497718 0.70340002
-0.042879999 -0.061640482 0.70350003
-0.037984289 -0.061445877 0.70383334
-0.031735875 -0.061460324 0.70400012
-0.027271159 -0.06190899 0.70328581
-0.022957047 -0.061795145 0.70070016
-0.017799526 -0.061183974 0.70083344
-0.15156899 -0.056708038 0.7028572
-0.14732495 -0.056974463 0.70227283
-0.14266531 -0.056428891 0.7025556
-0.13749443 -0.056088716 0.70228583
-0.13269159 -0.056077421 0.70214295
-0.1267699 -0.05582286 0.70280004
-0.1220643 -0.056595717 0.70324999
-0.11728429 -0.056705244 0.7021001
-0.11238645 -0.056864679 0.70241666
-0.10715628 -0.057310686 0.70321441
-0.10244962 -0.057587069 0.7030834
-0.097721219 -0.057403885 0.70246679
-0.092432998 -0.056945022 0.70190907
-0.086894609 -0.057312384 0.70244449
-0.082335003 -0.05715929 0.70191669
-0.077508502 -0.058133572 0.70158333
-0.072134234 -0.057443392 0.70131248
-0.067470245 -0.05745199 0.70141673
-0.062978439 -0.057447009 0.70135719
-0.057740483 -0.057265379 0.70264286
-0.052319326 -0.057762317 0.70171434
-0.047358695 -0.058198456 0.70037496
-0.04269715 -0.058709055 0.70050007
-0.037685338 -0.058401532 0.70160007
-0.032252558 -0.058251519 0.70154554
-0.027863335 -0.058230005 0.70074999
-0.022671074 -0.058677264 0.70012498
-0.017748764 -0.058183622 0.70060009
-0.014000001 -0.056666672 0.70000005
-0.15154815 -0.052297931 0.70154548
-0.14777777 -0.05222223 0.70000005
-0.14266667 -0.054000005 0.70000005
-0.13733333 -0.054000005 0.70000005
-0.13361937 -0.053580642 0.70033336
-0.12666667 -0.054000005 0.70000005
-0.12275524 -0.054038577 0.70050001
-0.11066668 -0.054000005 0.70000005
-0.10715868 -0.053512957 0.70060009
-0.10274 -0.05337191 0.70050007
-0.097801439 -0.053568415 0.7001667
-0.070000008 -0.054000005 0.70000005
-0.15092406 -0.04785262 0.70275003
-0.14758451 -0.046971433 0.70028579
-0.14400001 -0.046000004 0.70000005
-0.1470203 -0.043464903 0.70214289
-0.14279804 -0.042704705 0.70064294
-0.13933334 -0.04066667 0.70000005
-0.14244191 -0.03832905 0.70300007
-0.13828066 -0.036700957 0.70066667
-0.14012954 -0.034194287 0.70400006
-0.13655548 -0.032590002 0.70200002
-0.13365772 -0.031109905 0.70100003
-0.13226746 -0.027643031 0.70172733
-0.12866667 -0.026000002 0.70000005
-0.13124211 -0.02372781 0.70380002
-0.12813061 -0.022216074 0.70162511
-0.12600501 -0.018096428 0.70375001
-0.12287778 -0.017129418 0.70077783
-0.12211588 -0.012277779 0.70322227
-0.11856394 -0.011506071 0.70037508
-0.11721402 -0.0077239466 0.70100009
-0.11316238 -0.0063419053 0.70100003
-0.11174953 -0.0031941801 0.70166671
-0.10866667 -0.00066666672 0.70000005
-0.11047143 0.00066952384 0.70300001
-0.10833892 0.0029604086 0.70157152
-0.10660572 0.0073752385 0.70400006
-0.10291772 0.0081432387 0.70080006
0.033151276 0.0077877785 0.70083344
0.036103498 0.0073561911 0.70200002
-0.10226749 0.011002177 0.70314294
-0.098793894 0.012695649 0.70157152
0.028141527 0.012937334 0.70020002
0.031865809 0.011514763 0.70290005
