# .PCD v0.7 - Point Cloud Data file format
VERSION 0.7
FIELDS x y z
SIZE 4 4 4
TYPE F F F
COUNT 1 1 1
WIDTH 1326
HEIGHT 1
VIEWPOINT 0 0 0 1 0 0 0
POINTS 1326
DATA ascii
-0.037486129 0.022492792 0.65600008
-0.034036431 0.023420716 0.65575004
-0.0012514286 0.023151429 0.65700001
0.0010434922 0.021482859 0.65700006
-0.036973339 0.025693335 0.65800011
-0.032055955 0.026427381 0.65675002
-0.028599408 0.027975598 0.65637505
-0.026489524 0.031494923 0.65700006
-0.022524763 0.033476908 0.65700006
-0.018424526 0.034036905 0.65575004
-0.0028740957 0.033622291 0.65620005
-0.016776536 0.037363034 0.65681821
-0.013852954 0.038313907 0.65520006
-0.0059261909 0.038364287 0.65500003
-0.0035967859 0.037067741 0.65687507
-0.015666667 0.040733337 0.65800005
-0.012509367 0.041902702 0.6566667
-0.0075004767 0.041879337 0.65630001
-0.080612391 -0.021258097 0.66300005
-0.077019647 -0.021464644 0.66287506
-0.072206534 -0.02154531 0.66257155
-0.067524411 -0.021456787 0.66262507
-0.062817827 -0.02136041 0.66242868
-0.057856195 -0.021961994 0.66227281
-0.053179581 -0.021650478 0.66211116
-0.048001695 -0.021653546 0.66222233
-0.043398626 -0.021804975 0.66255563
-0.038264576 -0.021089716 0.66300005
-0.03232741 -0.021808678 0.66266674
-0.027558438 -0.022425922 0.66192865
-0.022974493 -0.022525646 0.66221446
-0.018627144 -0.021152858 0.66300005
-0.0071914284 -0.02106381 0.66220009
-0.0027276191 -0.020763811 0.6606667
0.0012585715 -0.020758573 0.66050005
-0.08093863 -0.017729102 0.66222233
-0.077461362 -0.017633732 0.66125005
-0.074380964 -0.019066669 0.66000003
-0.067675248 -0.019200001 0.66100001
-0.062857151 -0.018857146 0.66000003
-0.058247622 -0.019066667 0.66000009
-0.053742863 -0.01917143 0.66000003
-0.045885716 -0.019485716 0.66000003
-0.037729289 -0.019493096 0.66025001
-0.032852195 -0.019257907 0.6608001
-0.028076192 -0.019066667 0.66000009
-0.022257715 -0.019240191 0.66020006
-0.017630637 -0.018262222 0.66116667
-0.012814075 -0.018695557 0.66166669
-0.0081780953 -0.019186191 0.66050005
-0.00062857149 -0.019485716 0.66000003
0.002784082 -0.018951157 0.6601429
0.0076020784 -0.018233942 0.66018182
0.012707811 -0.017741209 0.66053337
0.017748063 -0.017664382 0.6608001
0.021420479 -0.017641429 0.66150004
-0.08047691 -0.013570239 0.66275007
-0.07734631 -0.01246132 0.66192323
-0.074456513 -0.011955557 0.6606667
0.018374605 -0.012784761 0.66022223
0.021172382 -0.014044764 0.6603334
-0.076150291 -0.0089662867 0.66300005
-0.072572283 -0.007487196 0.66133338
0.017425399 -0.0090266671 0.66133344
-0.071526036 -0.0029447624 0.66266674
-0.06796357 -0.0015730953 0.66075003
-0.064742863 -0.00062857149 0.66000003
-0.070088573 0.00063142861 0.66300005
-0.067074291 0.0014723812 0.66233343
-0.063141741 0.0025772296 0.66118193
-0.059714291 0.0044000004 0.66000003
0.011565397 0.0039946036 0.66233343
-0.061638735 0.0061009526 0.66266674
-0.058410641 0.0079846038 0.66183341
-0.054685719 0.0094285719 0.66000003
0.0094285719 0.0075428574 0.66000003
0.011128254 0.0060882545 0.66133344
-0.05699667 0.011567779 0.66250008
-0.053398177 0.012904841 0.66091669
-0.051948737 0.016615398 0.66250008
-0.048171751 0.018157145 0.66116667
-0.044628575 0.019485716 0.66000003
0.0086742863 0.018480001 0.66000003
-0.046725716 0.020837145 0.66300005
-0.042580869 0.022407362 0.66190916
-0.039600004 0.024514288 0.66000003
-0.00063142861 0.024625717 0.66300005
0.0030410322 0.02297659 0.66091669
0.0064507145 0.022339048 0.66075003
-0.041658811 0.026510239 0.66275007
-0.037799209 0.027090952 0.6615001
-0.033214167 0.028807029 0.66112506
0.0031571432 0.025888573 0.66300005
-0.032176513 0.032036193 0.66244453
-0.028320571 0.03335562 0.6608001
-0.024514288 0.034571432 0.66000003
-0.027260533 0.036930587 0.66222233
-0.022655241 0.037757978 0.66074997
-0.019234288 0.038091432 0.66000003
-0.0015312928 0.038664088 0.66242862
-0.022208044 0.041961484 0.662
-0.01775543 0.042939432 0.66106671
-0.012571429 0.044628575 0.66000003
-0.0071729529 0.044431239 0.6608001
-0.0038723815 0.042603813 0.66200006
-0.01640524 0.046059527 0.66250002
-0.012439223 0.047179136 0.66209096
-0.0081961919 0.047147091 0.66200006
-0.0037885716 0.046094287 0.66300005
-0.069448575 -0.032494288 0.66900003
-0.038172383 -0.031173335 0.66800004
-0.092810482 -0.026122859 0.66900003
-0.087892622 -0.026750239 0.66875011
-0.082828581 -0.026759999 0.66900009
-0.077519059 -0.02697238 0.66900009
-0.07258001 -0.028014768 0.66849995
-0.067508839 -0.027844705 0.66746664
-0.062427834 -0.026937673 0.66811109
-0.057300955 -0.026740476 0.66850007
-0.052592702 -0.026508573 0.6680001
-0.046835247 -0.026646668 0.66842872
-0.042179365 -0.027485823 0.66766673
-0.037798278 -0.02787542 0.66706252
-0.032876626 -0.027216021 0.66736376
-0.02797175 -0.027337302 0.66750002
-0.023256956 -0.027198289 0.66720003
-0.017825238 -0.026103336 0.66850007
-0.014017144 -0.026122859 0.66900003
-0.0074292077 -0.026534606 0.66866678
-0.0031857146 -0.026122859 0.66900003
-0.096633337 -0.02399905 0.66900003
-0.092704289 -0.023149528 0.66900009
-0.087728806 -0.022886433 0.66749996
-0.082837082 -0.023187695 0.66630769
-0.077382863 -0.024103809 0.66600001
-0.072267503 -0.024089644 0.66562498
-0.06715858 -0.024075951 0.66525
-0.062183335 -0.024112143 0.66625005
-0.057107385 -0.024746429 0.66624999
-0.051991433 -0.024094049 0.66574997
-0.047261339 -0.024200764 0.6652
-0.042433336 -0.023976194 0.66500008
-0.037852474 -0.023565196 0.66545457
-0.033595514 -0.023997147 0.66557145
-0.029155716 -0.024718571 0.66550004
-0.020900002 -0.024066668 0.66500002
-0.017429683 -0.023346035 0.66549999
-0.012653524 -0.022730609 0.66660005
-0.0077913431 -0.023605024 0.66654557
-0.0025338095 -0.022817144 0.66549999
0.0023885719 -0.023088099 0.66875011
0.0057342863 -0.023574287 0.66900003
0.013582096 -0.023104003 0.66640002
0.017796351 -0.022245716 0.6673333
0.021652384 -0.022289526 0.66866678
-0.091536209 -0.019326668 0.66900003
-0.087730482 -0.017799405 0.66749996
-0.083744496 -0.017653337 0.66542858
0.023574287 -0.01975143 0.66900003
-0.087146923 -0.013125802 0.6679092
-0.083028108 -0.012374605 0.66633338
-0.082427822 -0.0085222861 0.66779995
-0.077819139 -0.0069782697 0.66627276
-0.074100003 -0.0057000006 0.66500002
0.018291958 -0.0071315351 0.66744453
-0.0770128 -0.0037270754 0.66828579
-0.073518917 -0.0019023132 0.66628575
0.014654287 -0.0031857146 0.66900003
0.017202858 -0.0038228575 0.66900003
-0.071959801 0.0020488889 0.66733342
-0.067928173 0.0037189119 0.66657144
-0.063966669 0.0044333334 0.66500002
0.013340001 0.0044466672 0.66700006
-0.066408575 0.0069914293 0.66725004
-0.063055873 0.0081026452 0.6657778
0.01257162 0.0081264768 0.66660005
-0.061656386 0.012078096 0.66740006
-0.058216035 0.013761112 0.6668334
0.01083143 0.013380001 0.66900003
-0.056634158 0.016635785 0.66814297
-0.052883238 0.01864324 0.66580003
0.0095000006 0.017100001 0.66500002
-0.051019456 0.0222815 0.66842866
-0.047463641 0.023357317 0.66609091
-0.044122227 0.023855558 0.66500008
-0.046703722 0.027361622 0.66810012
-0.04259662 0.02875196 0.66755563
-0.038057782 0.029177144 0.66600001
-0.00063714292 0.029308572 0.66900003
0.0022232542 0.02827326 0.66708338
-0.040747147 0.031833813 0.66850001
-0.037335239 0.03225119 0.66725004
-0.033784494 0.033965446 0.66571426
-0.00063500006 0.033016905 0.66675001
0.0017515478 0.032939885 0.66837513
-0.036317144 0.035998575 0.66900003
-0.032544125 0.03720466 0.6671111
-0.028264573 0.038909908 0.66539997
-0.0006333334 0.036100004 0.66500002
0.0021021981 0.037449013 0.66653848
-0.031220002 0.040140003 0.66900003
-0.028015317 0.042091217 0.66730779
-0.023180002 0.043953337 0.66500002
-0.0015834526 0.043074884 0.66512501
0.0011401906 0.042193145 0.66520005
-0.026455238 0.045502864 0.66666669
-0.023130752 0.046172116 0.66671431
-0.017849738 0.047761064 0.66666669
-0.014566667 0.048766669 0.66500002
-0.0066500008 0.048450004 0.66500002
-0.0024650798 0.047406878 0.66566664
0.00063428574 0.045668572 0.66600001
-0.016428763 0.051323622 0.66860008
-0.012548128 0.051838547 0.66540003
-0.0074780956 0.052097395 0.66546673
-0.003461164 0.051639788 0.66755563
-0.011833905 0.055858292 0.66799998
-0.0079057161 0.05588286 0.66785729
-0.10231962 -0.030426288 0.67400002
-0.097424768 -0.03076667 0.67299998
-0.092252225 -0.031392701 0.67266667
-0.087137148 -0.032036904 0.67275
-0.082106076 -0.031481817 0.67209089
-0.077866681 -0.032215241 0.67199999
-0.072756782 -0.031910833 0.67012501
-0.067406945 -0.031834152 0.67042863
-0.062804848 -0.031404205 0.67291659
-0.057766564 -0.030985614 0.67311108
-0.052584134 -0.031423494 0.67333335
-0.047413573 -0.031395476 0.67275
-0.042501908 -0.031824868 0.67277771
-0.036802668 -0.032186288 0.67320007
-0.032001194 -0.032000478 0.67199993
-0.027499525 -0.03197667 0.67150009
-0.023035716 -0.031355526 0.67189997
-0.01799831 -0.03094455 0.67222226
-0.012819048 -0.03076667 0.67299998
-0.007690358 -0.030761076 0.67287499
-0.0038514286 -0.030169526 0.67400002
0.0032095239 -0.030169526 0.67400002
0.0077028573 -0.030169526 0.67400002
0.012838096 -0.030169526 0.67400002
0.017973334 -0.030169526 0.67400002
0.022466671 -0.030169528 0.67400002
0.026574859 -0.030426288 0.67400002
0.030169526 -0.030169526 0.67400002
-0.10591429 -0.027601909 0.67400002
-0.1024508 -0.027534287 0.67233336
-0.097349264 -0.027607447 0.67127275
-0.092805855 -0.027832795 0.67071432
-0.087783679 -0.029261226 0.67000002
-0.083335243 -0.028969524 0.67000002
-0.07784763 -0.029352382 0.67000002
-0.065723814 -0.029990477 0.67000002
-0.062320642 -0.02871429 0.67000002
-0.057450719 -0.028725002 0.67025006
-0.051936984 -0.028310319 0.67050004
-0.047660194 -0.028492955 0.67080003
-0.042752385 -0.029565081 0.67000002
-0.035095241 -0.029990477 0.67000002
-0.032542858 -0.029990477 0.67000002
-0.028076192 -0.029990477 0.67000002
-0.022343811 -0.028728575 0.67033339
-0.017880002 -0.028097618 0.67050004
-0.012514859 -0.027710289 0.67040002
-0.0078698415 -0.028288892 0.67000002
-0.0022979048 -0.027709717 0.67040008
0.0025574607 -0.027487624 0.67116678
0.0067965719 -0.028339431 0.67320007
0.013316932 -0.027847303 0.67299992
0.017911114 -0.027506985 0.67166674
0.023017146 -0.027493333 0.67133331
0.027533654 -0.027535558 0.6723333
0.031643957 -0.026904618 0.67384613
-0.10220785 -0.02341795 0.67299998
-0.097716577 -0.022480574 0.67060006
-0.093800008 -0.022758733 0.67000002
-0.013400001 -0.024885716 0.67000002
0.0023396825 -0.024885718 0.67000002
0.017866667 -0.024885716 0.67000002
0.023744382 -0.023361716 0.67020005
0.027472544 -0.023000002 0.67083335
0.030656192 -0.022704573 0.67340004
-0.10077906 -0.01989905 0.67400002
-0.096784331 -0.018352989 0.67299992
-0.092916094 -0.017390372 0.6707778
0.024307622 -0.017910162 0.67166674
0.026656467 -0.018227348 0.67328578
-0.096285723 -0.014763811 0.67400002
-0.092121489 -0.013302435 0.67222226
-0.089120649 -0.01212381 0.67000002
0.019780954 -0.01084762 0.67000002
0.022421228 -0.012171974 0.67257148
-0.09050858 -0.0089866668 0.67400002
-0.087319218 -0.0078513427 0.67190909
-0.083154485 -0.0062584765 0.67060006
0.019780954 -0.0057428577 0.67000002
0.021670206 -0.0079551032 0.67200011
-0.085373342 -0.0044933334 0.67400002
-0.081940182 -0.002736364 0.67263633
-0.078005724 -0.0017333336 0.67057151
0.014038096 -0.0012761905 0.67000002
0.017959934 -0.0023705445 0.67007148
0.021088574 -0.0027704765 0.671
-0.080238104 0.00064190483 0.67400002
-0.076996773 0.0023078097 0.67259997
-0.073702671 0.0034489527 0.67060006
0.014258097 0.0025530162 0.67033339
0.016931787 0.0022358336 0.67087501
-0.075102866 0.0057771434 0.67400002
-0.072053812 0.0070469053 0.67249995
-0.06868583 0.0083060721 0.67087501
0.014676192 0.0063809529 0.67000002
0.015952382 0.0063809529 0.67000002
-0.067287512 0.011866562 0.67144448
-0.06364461 0.013836033 0.67050004
0.013181561 0.013296886 0.67063642
-0.062531233 0.017645648 0.67192864
-0.058001909 0.018814182 0.67088896
-0.0542381 0.019780954 0.67000002
0.012797797 0.017916728 0.67181247
-0.056616005 0.021953145 0.67400002
-0.053191792 0.023320833 0.67087501
0.0089619057 0.021120001 0.67200005
0.010880001 0.021120001 0.67200005
-0.051853202 0.026793608 0.67214286
-0.047601908 0.028969526 0.67000002
0.0044666668 0.029990477 0.67000002
0.0057428577 0.028076192 0.67000002
-0.050710481 0.030169526 0.67400002
-0.047171112 0.031945504 0.6723333
-0.042800717 0.032899525 0.67075002
-0.038923811 0.03381905 0.67000002
0.0034483809 0.032306287 0.67040008
0.0057514291 0.030035241 0.671
-0.042041432 0.036273431 0.67290002
-0.037732478 0.037733816 0.67150003
-0.033869527 0.038981907 0.671
0.0031904764 0.035095241 0.67000002
-0.035697781 0.040827941 0.67333335
-0.03239524 0.042398535 0.67172736
-0.031178668 0.046061721 0.67360002
-0.027730716 0.047770239 0.67324996
-0.023083542 0.048628028 0.67057151
-0.019780954 0.049133338 0.67000002
-0.025034288 0.051352385 0.67400002
-0.022426352 0.051901486 0.67277783
-0.018536108 0.052816804 0.67109096
-0.014676192 0.0542381 0.67000002
-0.016979763 0.056063101 0.67275006
-0.013057144 0.058113147 0.67199993
-0.0085841911 0.058805533 0.67260003
-0.10152668 -0.035566669 0.67900008
-0.097646669 -0.035566669 0.67900002
-0.091180004 -0.035566669 0.67900002
-0.087343909 -0.036531646 0.67822218
-0.082739405 -0.036651261 0.67727274
-0.077848576 -0.035762481 0.6778
-0.072642229 -0.035566669 0.67900008
-0.067253336 -0.035566669 0.67900002
-0.061819211 -0.035971589 0.67850006
-0.057517014 -0.036468029 0.67857146
-0.052987624 -0.03618715 0.6785
-0.048029423 -0.036399581 0.67844445
-0.043068003 -0.035825338 0.67900002
-0.035997786 -0.035997786 0.67900008
-0.032522116 -0.036399584 0.67844445
-0.027149525 -0.03620024 0.67874998
-0.021974405 -0.036193691 0.67862499
-0.017460002 -0.035566669 0.67900008
-0.012933334 -0.035566669 0.67900002
-0.00064666668 -0.035566669 0.67900002
0.0025866667 -0.035566669 0.67900002
0.0073720007 -0.035825338 0.67900002
0.012542096 -0.035814863 0.67880005
0.027160002 -0.035566669 0.67900002
0.030824449 -0.035997782 0.67900008
-0.11575334 -0.032333337 0.67900002
-0.11239643 -0.032298453 0.67825007
-0.10750104 -0.032397583 0.67715389
-0.10278555 -0.032975156 0.67645466
-0.097582057 -0.033387214 0.67600006
-0.09305048 -0.034248099 0.67850006
-0.08775381 -0.034197621 0.67750001
-0.082316913 -0.034084052 0.67525005
-0.076082863 -0.034172386 0.67700005
-0.072211429 -0.034172386 0.67700005
-0.067154288 -0.03422286 0.67800003
-0.06251239 -0.034155563 0.67666674
-0.057814293 -0.033549257 0.67557156
-0.052792381 -0.034121908 0.67600006
-0.047624525 -0.034109287 0.67575002
-0.042617146 -0.03422286 0.67800003
-0.037312578 -0.033955622 0.67780006
-0.032178335 -0.034109287 0.67575008
-0.027098574 -0.034197621 0.67750001
-0.022219287 -0.033813097 0.67625004
-0.017937552 -0.033578098 0.67614293
-0.012890953 -0.033516429 0.67675
-0.0077410722 -0.03354774 0.67737508
-0.0023954427 -0.032521024 0.67707145
0.002484218 -0.032482728 0.67628586
0.0077303974 -0.032856591 0.67641675
0.012863493 -0.032802545 0.67533344
0.017839048 -0.032696195 0.67554551
0.022301525 -0.033004768 0.67680013
0.027237752 -0.032980088 0.6765455
0.03223585 -0.032236941 0.6769287
0.036746006 -0.031848859 0.67690009
-0.11575334 -0.029100003 0.67900002
-0.11173941 -0.027537666 0.67818183
-0.10789281 -0.026811326 0.67566669
0.034096669 -0.028306194 0.67550004
0.036000002 -0.028285716 0.67500001
-0.11122668 -0.023926668 0.67900002
-0.10752549 -0.021955794 0.67808336
-0.10446064 -0.021664446 0.67566675
-0.10540667 -0.018753335 0.67900002
-0.1025482 -0.018056763 0.67720002
-0.099158101 -0.017104764 0.67519999
0.028165717 -0.017619431 0.67519999
0.030214287 -0.019928573 0.67500001
-0.10127784 -0.013386125 0.67857146
-0.097671524 -0.012711864 0.67672735
-0.093555436 -0.011452572 0.67559999
0.023785716 -0.012857144 0.67500001
0.026427861 -0.012890081 0.67675012
-0.095491111 -0.008406667 0.67900008
-0.092722863 -0.0081027513 0.67766666
-0.088714287 -0.0057857148 0.67500001
0.023542671 -0.0073323818 0.67540002
0.025381718 -0.0081177158 0.67640007
-0.091180004 -0.0045266668 0.67900002
-0.087658681 -0.0027260811 0.67715389
-0.083910488 -0.001072381 0.67600006
0.022820797 -0.0032277782 0.67816663
0.025182858 -0.0045200004 0.67800003
-0.086006671 0.0019400002 0.67900008
-0.082725659 0.0027110481 0.67753339
-0.078681916 0.0040736515 0.67533338
-0.081844203 0.0063356194 0.67880005
-0.077238537 0.0073316894 0.67736369
-0.073503815 0.0090266671 0.67700005
-0.075660005 0.011640001 0.67900002
-0.072163738 0.01286469 0.67792308
-0.068023816 0.014506667 0.67700005
-0.070486672 0.016166668 0.67900002
-0.06743212 0.017250614 0.67800003
-0.063642859 0.019928573 0.67500001
0.016071429 0.017357145 0.67500007
-0.065712385 0.020467937 0.67866677
-0.061943576 0.022584762 0.67750001
-0.058514766 0.022719845 0.67516673
0.0092457151 0.023438733 0.67733335
0.012549287 0.02236524 0.67575002
0.016154762 0.020678572 0.67850006
-0.060786672 0.025220001 0.67900002
-0.05716848 0.026844481 0.67750001
-0.053865716 0.028113972 0.67600006
0.0081991954 0.027079199 0.67823082
0.011286906 0.026124526 0.67725003
-0.056260005 0.030393336 0.67900002
-0.052780349 0.031880088 0.67809093
-0.048626907 0.033812623 0.67625004
0.0071016676 0.031790242 0.67774999
0.010993334 0.030393336 0.67900002
-0.047094811 0.037006672 0.67736369
-0.042921908 0.038843494 0.67600006
-0.041963406 0.041410204 0.67785716
-0.037584133 0.042739533 0.67650002
-0.034071431 0.044357147 0.67500001
-0.035850238 0.046832144 0.67825007
-0.032615148 0.048306413 0.67627281
-0.028928574 0.049500003 0.67500001
-0.03123286 0.051910952 0.67850006
-0.02717167 0.052732304 0.67658347
-0.022511747 0.054669842 0.67533338
-0.025220001 0.056260005 0.67900002
-0.022166457 0.057460003 0.67788893
-0.017937778 0.058100324 0.67533338
-0.014785715 0.05978572 0.67500001
-0.0064457147 0.059316196 0.67700005
-0.0045266668 0.05690667 0.67900002
-0.021340003 0.060140006 0.67900008
-0.017267894 0.061962049 0.67871433
-0.012885796 0.062489614 0.67641675
-0.0079098716 0.062189706 0.67700005
-0.011844445 0.066111431 0.6783334
-0.0080453688 0.066662863 0.67836362
-0.11204572 -0.041040003 0.68400002
-0.10748573 -0.041040003 0.68400002
-0.10357716 -0.041040003 0.68400002
-0.090548575 -0.041040003 0.68400002
-0.087259293 -0.041025005 0.68375003
-0.082210295 -0.041300576 0.68400002
-0.077048257 -0.041888576 0.68366671
-0.072906993 -0.042312544 0.68350005
-0.068385445 -0.041775923 0.6838572
-0.061885718 -0.041040003 0.68400002
-0.05679144 -0.042033337 0.68366671
-0.052082784 -0.042317864 0.68358338
-0.047862142 -0.041350719 0.68375003
-0.042994291 -0.041040003 0.68400002
-0.037321433 -0.041444294 0.68350005
-0.032555558 -0.042322859 0.68366671
-0.027340002 -0.041661434 0.68350005
-0.022427756 -0.041598372 0.68400007
-0.017588574 -0.041040003 0.68400002
-0.013028572 -0.041040003 0.68400002
-0.0071657151 -0.041040003 0.68400002
-0.0023265306 -0.041598372 0.68400007
0.0025126531 -0.041598372 0.68400007
0.0078171436 -0.041040003 0.68400002
0.017588573 -0.041040003 0.68400002
0.023234289 -0.04147429 0.68400002
0.027955558 -0.040960006 0.68266672
0.031085715 -0.040800001 0.68000001
-0.12594953 -0.037381526 0.68380004
-0.12229456 -0.037613269 0.68326682
-0.11729091 -0.037891973 0.68257147
-0.11270308 -0.037477352 0.68178582
-0.1078303 -0.037677795 0.68206257
-0.10286623 -0.038158536 0.6826154
-0.097384579 -0.037317526 0.68260002
-0.092466615 -0.037972998 0.68235719
-0.087323055 -0.039315429 0.68120009
-0.081685908 -0.039350286 0.68180007
-0.077552959 -0.038322672 0.6820001
-0.072598241 -0.038071658 0.68107694
-0.067575164 -0.038337544 0.68225002
-0.06244839 -0.038560957 0.68160003
-0.056969535 -0.038999461 0.68085712
-0.05253493 -0.038914606 0.68099999
-0.047744222 -0.039031573 0.68142867
-0.042684942 -0.038436282 0.6819092
-0.037996925 -0.037997954 0.68153852
-0.032143403 -0.038999461 0.68085724
-0.027240001 -0.038915243 0.68100005
-0.022100002 -0.039000481 0.68250006
-0.017537355 -0.038324237 0.68199998
-0.012989527 -0.038323656 0.6820001
-0.0077955965 -0.037682503 0.68212503
-0.0027269844 -0.037790354 0.68173337
0.0025968258 -0.038305085 0.68166673
0.0079697836 -0.038436804 0.68190914
0.013173593 -0.038456537 0.68227279
0.017535001 -0.037670083 0.68191671
0.022085417 -0.037678394 0.68206263
0.027259842 -0.038295243 0.68149996
0.032466322 -0.037769526 0.68054545
0.03561905 -0.03626667 0.68000001
-0.12616001 -0.034091432 0.68400002
-0.12191276 -0.032866009 0.68284625
-0.11795381 -0.032404765 0.68049997
0.034323812 -0.034323812 0.68000001
0.03561905 -0.034323812 0.68000001
-0.1205143 -0.029314287 0.68400002
-0.11773678 -0.027318669 0.68300003
-0.11417792 -0.026308194 0.68040007
-0.11568096 -0.02278889 0.68366671
-0.1127982 -0.021919915 0.68245459
-0.10944763 -0.020076191 0.68000001
0.031826667 -0.020135239 0.68200004
-0.11139429 -0.018240001 0.68400002
-0.1078064 -0.017533431 0.68189996
-0.10426667 -0.016190477 0.68000001
0.029142858 -0.016190477 0.68000001
0.031036511 -0.016711431 0.68366671
-0.10690518 -0.013676872 0.6838572
-0.10363881 -0.012345476 0.68225002
0.02921786 -0.012983572 0.68175006
0.031889524 -0.013666032 0.68333334
-0.10227101 -0.0087448684 0.68300003
-0.097802699 -0.0076118628 0.68172735
-0.093257152 -0.005828572 0.68000001
0.027903071 -0.0080021173 0.68133336
0.030594762 -0.0078119054 0.68350005
-0.096147627 -0.0041234926 0.68366671
-0.092744775 -0.002421472 0.68272734
-0.088723816 -0.00064761908 0.68000001
0.023598734 -0.0010812699 0.68200004
0.026428711 -0.0030583676 0.68157142
-0.090874292 0.0016285715 0.68400002
-0.088019378 0.0028130163 0.6812222
0.02406762 0.00065047626 0.68300003
-0.086544529 0.0065078577 0.68325001
-0.082352519 0.0084521091 0.6824286
-0.078361914 0.0092825405 0.68000001
-0.080422148 0.012047382 0.68375003
-0.077644393 0.013266477 0.68280011
-0.074585721 0.014269525 0.68099999
-0.077067152 0.01715032 0.68383336
-0.072905459 0.017651776 0.68181825
-0.069397151 0.018160954 0.68099999
-0.072418526 0.021197567 0.68366671
-0.067909233 0.022437437 0.68207699
-0.064114287 0.023314288 0.68000001
-0.06692227 0.026541073 0.68387502
-0.062561296 0.027567962 0.68221432
-0.058933336 0.028495241 0.68000001
-0.061847493 0.031342179 0.68357152
-0.057509016 0.0328274 0.68200004
-0.053104766 0.034323812 0.68000001
0.008646667 0.03307905 0.68099999
0.011025716 0.03242762 0.68099999
-0.056806553 0.036622979 0.68362504
-0.052278988 0.037887961 0.68250006
-0.049050801 0.038248256 0.68066669
0.0045500007 0.039000481 0.6825
0.00628254 0.037258416 0.68233341
-0.050811432 0.04169143 0.68400002
-0.047342252 0.042733252 0.68263644
-0.043352913 0.043786775 0.68166667
-0.039504763 0.044685718 0.68000001
0.0032571431 0.044948574 0.68400002
0.0058628577 0.041040003 0.68400002
-0.046251431 0.046251431 0.68400002
-0.042948335 0.046851669 0.68325007
-0.038148046 0.047809847 0.68144447
-0.037246458 0.051566035 0.6834445
-0.033510163 0.052967303 0.68099999
-0.0019428573 0.053752385 0.68000001
-0.032192089 0.056924541 0.68338472
-0.027634213 0.057515688 0.68207699
-0.023961907 0.058933336 0.68000001
-0.005828572 0.057638098 0.68000001
-0.0021442494 0.057225425 0.68100005
0.0011718096 0.058170673 0.68320006
-0.026953906 0.060808003 0.68360007
-0.022095557 0.062710956 0.68233335
-0.018367622 0.063745402 0.68066669
-0.005828572 0.063466668 0.68000001
-0.0031373017 0.06202985 0.6820001
0.0013028572 0.060582861 0.68400002
-0.020845715 0.065794289 0.68400002
-0.017271535 0.067134179 0.68288893
-0.013624953 0.068121143 0.68120003
-0.0071238102 0.068518102 0.68000001
-0.0041015879 0.067352384 0.68000001
-0.01236762 0.071690612 0.68342865
-0.0080535244 0.071968578 0.6820001
-0.0045500007 0.07150048 0.6825
-0.10827143 -0.045277145 0.68900001
-0.10236572 -0.045277145 0.68900001
-0.095147625 -0.045277145 0.68900001
-0.091866672 -0.045277145 0.68900001
-0.087929524 -0.045277145 0.68900001
-0.082811251 -0.045539625 0.68900007
-0.077022187 -0.045764495 0.68785727
-0.072267495 -0.045903947 0.68714291
-0.067622967 -0.04622487 0.68788892
-0.063275516 -0.045839597 0.68900007
-0.057621196 -0.045833811 0.68750006
-0.052107204 -0.04600434 0.68677789
-0.047381751 -0.045637306 0.68783331
-0.042389911 -0.045802098 0.68900007
-0.037714697 -0.045764495 0.68785727
-0.032656088 -0.046041694 0.68733341
-0.027520001 -0.045867622 0.68800008
-0.022554697 -0.045764495 0.68785727
-0.017181907 -0.045513336 0.68860006
-0.012467621 -0.045277145 0.68900001
-0.0078742858 -0.045277145 0.68900001
-0.0026176192 -0.045178574 0.6875
0.0026209527 -0.045211431 0.68800002
0.0086680427 -0.046545718 0.68833339
0.012281907 -0.046341907 0.6877501
0.016638668 -0.045460768 0.68780005
0.021864956 -0.045434482 0.68740004
0.025480002 -0.045080002 0.68600005
-0.1363564 -0.041077528 0.68900007
-0.13256192 -0.04225143 0.68857157
-0.12745403 -0.042704672 0.68770009
-0.12262794 -0.042551115 0.68733335
-0.11762366 -0.042422604 0.68718189
-0.11308382 -0.043007307 0.68766677
-0.10738096 -0.043215718 0.6875
-0.10176201 -0.042771906 0.68669999
-0.097520538 -0.042542756 0.6872223
-0.093025818 -0.042619739 0.68654549
-0.087641679 -0.043167859 0.68674999
-0.082295239 -0.043249801 0.68657148
-0.078656197 -0.043359052 0.68633336
-0.067070864 -0.043276194 0.68640012
-0.062987529 -0.042823147 0.68750006
-0.05910445 -0.043401591 0.68700004
-0.046817962 -0.043267217 0.68685728
-0.042528577 -0.043182861 0.68700004
-0.038338572 -0.043348417 0.6861667
-0.027440002 -0.043773334 0.68600005
-0.021827241 -0.043524768 0.68620008
-0.016999049 -0.043151904 0.68650007
-0.012422382 -0.043151908 0.68650007
-0.008061694 -0.042923491 0.68633348
-0.0030066669 -0.043524768 0.68620008
0.0027449527 -0.043524768 0.68620008
0.0078457147 -0.043151908 0.68650001
0.012417143 -0.042480845 0.6862222
0.016929787 -0.042591255 0.68609095
0.02185037 -0.042757034 0.68599999
0.026264003 -0.04246667 0.68600005
-0.13583143 -0.03871524 0.68900001
-0.13209227 -0.037847694 0.68792325
-0.12825391 -0.038204901 0.68657154
-0.12348001 -0.039853334 0.68600005
-0.098000005 -0.039853334 0.68600005
-0.13147144 -0.034424767 0.68850005
-0.12739649 -0.03247973 0.68800008
-0.12422429 -0.031383336 0.68650007
-0.12533239 -0.029528573 0.68900001
-0.12245923 -0.027502859 0.68760008
-0.11956001 -0.025480002 0.68600005
0.034778096 -0.025591429 0.68900001
0.038059048 -0.025591429 0.68900001
-0.12052032 -0.022966668 0.68900001
-0.11781429 -0.022252383 0.68725014
0.034778096 -0.024279049 0.68900001
-0.11250149 -0.016652383 0.6872223
0.032497462 -0.017663812 0.68700004
-0.11135676 -0.012722096 0.6886
-0.10864762 -0.012158859 0.68640012
0.03136 -0.011106667 0.68600005
-0.10717878 -0.0088917017 0.68800002
-0.10277334 -0.0063276198 0.68733335
-0.099960007 -0.0058800005 0.68600005
-0.10025144 -0.0026200002 0.68800002
-0.097941056 -0.0023526668 0.68650001
-0.094733343 -0.00065333338 0.68600005
0.026786668 -0.00196 0.68600005
-0.096460015 0.0016404763 0.68900001
-0.093143426 0.0027481909 0.6868
-0.091866672 0.0065619051 0.68900001
-0.087690488 0.0081424508 0.68785727
-0.084341437 0.0091528576 0.68650007
-0.086289048 0.012139524 0.68900001
-0.083197862 0.012585715 0.68650007
-0.081871569 0.015813608 0.68771434
-0.078770801 0.018547937 0.68733335
-0.076281123 0.021858256 0.68850011
-0.072926909 0.023872621 0.68675005
-0.071657628 0.026871588 0.68816674
-0.068448573 0.028121907 0.68666673
-0.070212387 0.030840954 0.68900001
-0.066742472 0.031864002 0.68840009
-0.063115954 0.033520713 0.68675005
0.009800001 0.03462667 0.68600005
0.012444763 0.0323621 0.68780011
-0.060937148 0.036694288 0.68800002
-0.05800553 0.038624953 0.68740004
0.0087546678 0.038154673 0.68599999
0.011144444 0.037365399 0.68833339
-0.056432385 0.040683813 0.68900001
-0.052822318 0.042724904 0.68714297
0.0045733335 0.043120004 0.68600005
0.0078449538 0.042491622 0.6864
-0.050915241 0.0456708 0.68833339
-0.047792114 0.047233202 0.68742859
-0.042487942 0.049023814 0.68633336
0.0032673336 0.047700476 0.68610001
0.0071961042 0.046680093 0.68681824
-0.041850485 0.051588167 0.68814296
-0.038560715 0.053266432 0.68625003
-0.00065428577 0.05365143 0.68700004
0.0019661905 0.051764287 0.68800008
-0.036765039 0.056971028 0.68757147
-0.03420794 0.059046671 0.68633342
-0.032087486 0.06164857 0.68757159
-0.027677922 0.063628055 0.6874547
-0.024173334 0.064680003 0.68600005
-0.0010898414 0.063404769 0.68633336
0.0013095238 0.062858574 0.6875
-0.025591429 0.066275239 0.68900001
-0.022515809 0.067673527 0.68720007
-0.018511115 0.069471121 0.68600005
-0.0032666668 0.065986671 0.68600005
-0.12624191 -0.050893337 0.69400001
-0.0958381 -0.050893337 0.69400001
-0.092533343 -0.050893337 0.69400001
-0.087214291 -0.051535953 0.69374996
-0.082619064 -0.051554289 0.69400001
-0.07799238 -0.050893337 0.69400001
-0.061468575 -0.050893337 0.69400001
-0.040318098 -0.050893337 0.69400001
-0.037013337 -0.050893337 0.69400001
-0.03205619 -0.051223814 0.69400001
-0.02798032 -0.050893337 0.69400001
-0.022742178 -0.051428441 0.69357145
-0.017306287 -0.051128384 0.69360006
-0.01388 -0.050893337 0.69400001
0.0046266671 -0.051554289 0.69400001
0.0072441278 -0.051381271 0.69166672
-0.14734562 -0.046912808 0.69377786
-0.14232875 -0.046844941 0.69100004
-0.13755846 -0.046732645 0.69109088
-0.13252698 -0.046737939 0.69116676
-0.12738608 -0.047057442 0.69138473
-0.1225059 -0.047424465 0.69156247
-0.11735285 -0.047471669 0.69225001
-0.11249424 -0.04771572 0.69307154
-0.10746241 -0.047524296 0.69164294
-0.10266191 -0.047383811 0.69100004
-0.097467951 -0.047090322 0.69150007
-0.092336565 -0.047867548 0.69138473
-0.087275535 -0.04818124 0.69110006
-0.082644299 -0.048035719 0.69090003
-0.077948473 -0.048528362 0.69166678
-0.0725087 -0.048780121 0.69212502
-0.067239523 -0.049002387 0.69216675
-0.062092144 -0.048589289 0.69174999
-0.057688989 -0.048657145 0.69171435
-0.053016741 -0.048875514 0.6921429
-0.047299527 -0.048355523 0.6917001
-0.04215467 -0.048348196 0.69160002
-0.037556671 -0.048759207 0.69183338
-0.033039596 -0.048855104 0.69185722
-0.027680002 -0.04877143 0.69200003
-0.022160003 -0.048488889 0.69111115
-0.017059136 -0.04818796 0.69136363
-0.012675834 -0.047904644 0.69137502
-0.0078914296 -0.047349051 0.69050002
-0.0026315476 -0.047392268 0.69112498
0.0028986668 -0.047834858 0.69180006
0.0068594567 -0.048209932 0.6907143
-0.14698465 -0.043141641 0.69385725
-0.14294602 -0.042157151 0.69166672
-0.13865717 -0.042475332 0.69000006
-0.11171429 -0.044028573 0.69000006
-0.14195961 -0.037635516 0.6932857
-0.13796906 -0.037219718 0.69050008
-0.13471429 -0.03614286 0.69000006
-0.13691355 -0.033071853 0.69299996
-0.13293526 -0.032508388 0.69100004
-0.12901905 -0.031323813 0.69000006
-0.13177644 -0.02810286 0.69369245
-0.12709983 -0.027452556 0.69081819
-0.12420001 -0.025628572 0.69000006
0.03614286 -0.026285715 0.69000006
-0.13020763 -0.02445524 0.69400001
-0.12714858 -0.022963598 0.69333333
-0.12288088 -0.022032145 0.69058341
-0.11894286 -0.02037143 0.69000006
0.034332763 -0.021441337 0.69060004
0.037347533 -0.022527622 0.69018191
-0.12192414 -0.017689843 0.6936667
-0.11730858 -0.016982606 0.69120002
0.034372766 -0.018042097 0.69139999
0.036807053 -0.018074477 0.69260007
-0.11713573 -0.012676857 0.69330007
-0.11339834 -0.012161192 0.69025004
0.034171432 -0.011171429 0.69000006
-0.11566667 -0.0092533343 0.69400001
-0.11229461 -0.0085691018 0.69222224
-0.10800557 -0.0068036513 0.69150007
-0.10448572 -0.0059142862 0.69000006
0.028935716 -0.0059185717 0.69050002
0.033159595 -0.0092991851 0.69042861
-0.10616748 -0.002863016 0.69383335
-0.10293853 -0.0026935067 0.69163638
-0.10509144 0.00066095241 0.69400001
-0.1019337 0.0021479763 0.69387507
-0.098056957 0.0032916197 0.69100004
-0.10112572 0.005948572 0.69400001
-0.097492389 0.0068227523 0.69322228
-0.092622392 0.0086974297 0.69170004
-0.088714294 0.0092000011 0.69000006
-0.091853753 0.011989253 0.69385725
-0.088597715 0.012808002 0.69320005
-0.086988956 0.016896954 0.69300002
-0.083014026 0.017957963 0.6910001
-0.085703507 0.020930162 0.69400001
-0.082434475 0.02227602 0.69345456
-0.07859429 0.022884235 0.69088894
-0.081297152 0.026438097 0.69400001
-0.077600829 0.027535811 0.69166672
-0.073226795 0.028469168 0.69112504
-0.072100557 0.032138642 0.69271433
-0.067798376 0.033570886 0.69114292
0.013490953 0.033893339 0.69100004
0.015510477 0.032010481 0.69300002
-0.066728987 0.036903948 0.69371432
-0.06288299 0.037692245 0.69085723
0.01254 0.036300004 0.69300002
-0.062310759 0.041383948 0.69285715
-0.057887722 0.042100292 0.69070005
-0.054542862 0.044028573 0.69000006
-0.056774136 0.046872541 0.69316673
-0.052861642 0.047476023 0.69145459
-0.048066035 0.049380958 0.69133341
0.0090200007 0.04862 0.69300002
-0.050893337 0.050893337 0.69400001
-0.047070824 0.052106842 0.69254559
-0.042741369 0.053825449 0.69042861
0.0032865477 0.053238463 0.69012505
0.006676327 0.051988441 0.6910001
-0.042072643 0.057315938 0.69318193
-0.038141906 0.058528572 0.69050002
0.0026350799 0.056390323 0.69116676
0.005948572 0.056180958 0.69400001
-0.04097905 0.060146671 0.69400001
-0.0371981 0.062437892 0.69333345
-0.033600718 0.063245483 0.69175005
-0.1362762 -0.055175241 0.69800001
-0.13095811 -0.055175241 0.69800001
-0.091737151 -0.055175241 0.69800001
-0.087622866 -0.055096194 0.69700003
-0.082781337 -0.055409528 0.69760001
-0.077777147 -0.055175241 0.69800007
-0.05118667 -0.055175241 0.69800001
-0.047862858 -0.055175241 0.69800001
-0.041215241 -0.055175241 0.69800001
-0.037226669 -0.055175241 0.69800001
-0.032289147 -0.055675436 0.69760001
-0.027900003 -0.055800479 0.69749999
-0.022872521 -0.055711161 0.69757146
-0.018613335 -0.055175241 0.69800001
-0.0015507936 -0.055592071 0.69766665
0.00066380959 -0.055096194 0.69700003
-0.15621907 -0.05118667 0.69800001
-0.15261036 -0.051756464 0.69800007
-0.14757714 -0.051851436 0.69800001
-0.14215176 -0.052303068 0.69711113
-0.13761438 -0.052287143 0.69670004
-0.13273017 -0.052429371 0.69683337
-0.12736176 -0.052501306 0.69618195
-0.12220901 -0.052515324 0.69636375
-0.11740887 -0.052272674 0.69650006
-0.11259274 -0.05228797 0.6965456
-0.10768928 -0.052307971 0.69681823
-0.10230001 -0.051814765 0.69749999
-0.097140148 -0.052410346 0.69657147
-0.092459187 -0.052901909 0.69557154
-0.087371431 -0.053614289 0.69500005
-0.081725143 -0.053380381 0.69540006
-0.077190891 -0.053135108 0.69614297
-0.072770566 -0.052274283 0.69636369
-0.067886673 -0.051966883 0.69655555
-0.06241728 -0.051809121 0.69614291
-0.057243217 -0.05226703 0.69687504
-0.052874465 -0.052274294 0.69636375
-0.047765639 -0.052411348 0.69658339
-0.042637408 -0.052529007 0.69654548
-0.037127025 -0.053039167 0.69612509
-0.032736193 -0.053146482 0.69580001
-0.027762013 -0.052800316 0.695889
-0.022119429 -0.053380381 0.69540006
-0.017143266 -0.053135108 0.69614297
-0.012446667 -0.052608572 0.69700003
-0.0077047623 -0.052205909 0.69740003
-0.0026555555 -0.052429371 0.69683337
0.0022265802 -0.05266555 0.69518197
-0.15655145 -0.048527621 0.69800001
-0.15255494 -0.04775637 0.69643748
-0.14802955 -0.049785718 0.69700003
-0.14297144 -0.049642861 0.69500005
-0.13767619 -0.049642861 0.69500005
-0.13247667 -0.049678575 0.69550002
-0.12907144 -0.049642861 0.69500005
-0.10259525 -0.049642861 0.69500005
-0.098623827 -0.049642861 0.69500005
-0.011252382 -0.049642861 0.69500005
-0.0079428572 -0.049642861 0.69500005
-0.0026476192 -0.049642861 0.69500005
0.0013238096 -0.049642861 0.69500005
-0.15190476 -0.043447625 0.69650006
-0.14826286 -0.041205335 0.69560015
-0.147113 -0.037691072 0.697375
-0.14348161 -0.036421593 0.69533342
-0.14186843 -0.032755084 0.69716668
-0.13877937 -0.031992063 0.69500005
-0.14026476 -0.029914288 0.69800001
-0.13714504 -0.028029701 0.69627279
-0.13392541 -0.026255559 0.69500005
-0.1362762 -0.024596192 0.69800001
-0.13241477 -0.02276778 0.69633341
-0.12863018 -0.02096032 0.69500005
-0.12662658 -0.018046033 0.69611114
-0.12345366 -0.015679684 0.69566673
-0.12230069 -0.012787756 0.69628584
-0.11980477 -0.011914287 0.69500005
-0.12047588 -0.0095050801 0.69633341
-0.11751889 -0.0086141285 0.69583338
-0.11260524 -0.0062923818 0.69550002
0.031109527 -0.0059571434 0.69500005
-0.11130787 -0.003654524 0.69774997
-0.10846549 -0.002152143 0.69550014
0.028489208 -0.002428889 0.69566673
-0.10695419 0.0021374605 0.69655561
-0.1035881 0.0036404764 0.69500005
0.026738096 0.0023247621 0.69749999
-0.10569715 0.0066476194 0.69800001
-0.10218953 0.0076323817 0.69675004
-0.097649917 0.0094076199 0.69560003
0.025925716 0.0059828577 0.69800001
-0.096783817 0.012348001 0.69700003
-0.093647823 0.013378478 0.69540006
-0.095725723 0.015954286 0.69800001
-0.09228199 0.016909763 0.69625008
-0.088695243 0.018533334 0.69500005
-0.091671914 0.020592857 0.69749999
-0.087535724 0.022547716 0.69630009
-0.084061913 0.024490478 0.69500005
-0.08575429 0.025925716 0.69800001
-0.082277723 0.027428573 0.69560003
-0.076255478 0.032161191 0.69625002
-0.073983178 0.032906987 0.69566673
0.01791 0.032172386 0.69650006
-0.071470797 0.035625082 0.69700003
-0.068700805 0.038216036 0.69583338
0.012630477 0.037891433 0.69800001
0.01522381 0.035080954 0.69500005
-0.066641197 0.040781192 0.69625008
-0.06234064 0.043548577 0.69633341
-0.058909528 0.044347622 0.69500005
0.012285953 0.042496905 0.69725001
-0.060938098 0.0468661 0.69700003
-0.05826515 0.048180576 0.69680005
-0.054276194 0.049642861 0.69500005
0.011252382 0.048319049 0.69500005
-0.055175241 0.05118667 0.69800001
-0.052420273 0.052420281 0.69671434
-0.048319049 0.054276194 0.69500005
-0.05118667 0.055175241 0.69800001
-0.047509816 0.057196289 0.69670004
-0.044347622 0.058909528 0.69500005
0.0046333335 0.057585716 0.69500005
-0.17097144 -0.061013337 0.70400006
-0.16963048 -0.061013337 0.70400006
-0.086938426 -0.061013337 0.70400012
-0.083139054 -0.061013337 0.70400006
-0.079116195 -0.061013337 0.70400006
-0.070400007 -0.061013337 0.70400006
-0.067024052 -0.061326906 0.70375001
-0.06300167 -0.060991671 0.70375001
-0.05833143 -0.061013337 0.70400012
-0.052163053 -0.061281528 0.70400006
-0.04728153 -0.061480004 0.70320004
-0.042872261 -0.061629411 0.70337504
-0.037520003 -0.061640482 0.70350003
-0.032154404 -0.061629411 0.70337504
-0.027270341 -0.061908714 0.70328581
-0.022730954 -0.061509054 0.70200002
-0.017381547 -0.061497029 0.70187509
-0.012684762 -0.060753338 0.70100009
-0.17164192 -0.059001908 0.70400006
-0.16729811 -0.057745446 0.70385718
-0.16245401 -0.056966763 0.70370007
-0.15753819 -0.056753434 0.70270008
-0.15249181 -0.056752902 0.70254546
-0.14761306 -0.057576273 0.70230782
-0.14257628 -0.056810088 0.70175016
-0.13764711 -0.056618948 0.7012223
-0.13251705 -0.056646142 0.70155561
-0.12704989 -0.056506317 0.70212501
-0.12248669 -0.056627244 0.70279998
-0.11738391 -0.056753434 0.70270008
-0.11217526 -0.05723647 0.70228583
-0.10742206 -0.057647843 0.70192319
-0.1030551 -0.05706111 0.70230782
-0.097479284 -0.057049092 0.70215398
-0.092608348 -0.058063567 0.70208347
-0.087524943 -0.058130484 0.70154548
-0.082418956 -0.058109622 0.70130008
-0.07739114 -0.057956424 0.70192319
-0.0720383 -0.057339109 0.70166671
-0.067462385 -0.057444613 0.7013334
-0.062777266 -0.05743774 0.70125008
-0.057502206 -0.057504699 0.70206255
-0.052297425 -0.057739049 0.70142871
-0.047355875 -0.058028262 0.70033342
-0.042891301 -0.057667218 0.70057142
-0.037404448 -0.058112383 0.7013334
-0.032528929 -0.058552742 0.70062494
-0.027731024 -0.058607761 0.70042861
-0.022468681 -0.058510158 0.70077783
-0.017164629 -0.057690624 0.70085728
-0.012011428 -0.05738489 0.70062506
-0.007336508 -0.057360806 0.70033336
-0.0036027622 -0.057641815 0.70050001
-0.16719513 -0.052771788 0.70362502
-0.16265781 -0.051906675 0.70053339
-0.15783422 -0.052463736 0.70025009
-0.15200001 -0.054000005 0.70000005
-0.14733335 -0.054000005 0.70000005
-0.14333335 -0.054000005 0.70000005
-0.11800001 -0.054000005 0.70000005
-0.10600001 -0.054000005 0.70000005
-0.10266667 -0.054000005 0.70000005
-0.098666668 -0.054000005 0.70000005
-0.067333341 -0.054000005 0.70000005
-0.062666669 -0.054000005 0.70000005
-0.058666669 -0.054000005 0.70000005
-0.010000001 -0.054000005 0.70000005
-0.0086666672 -0.054000005 0.70000005
-0.16537239 -0.047536194 0.70300001
-0.16240594 -0.047704127 0.70111114
-0.1584824 -0.046899848 0.7001667
-0.16113524 -0.044554763 0.70350003
-0.15686345 -0.043097977 0.70162505
-0.15337601 -0.041513529 0.70080006
-0.15192239 -0.037711527 0.70210004
-0.14829302 -0.035794608 0.70033336
-0.15085715 -0.034194287 0.70400006
-0.14704941 -0.03245274 0.7026251
-0.14394896 -0.031617526 0.70040005
-0.14549334 -0.028830478 0.70400006
-0.14228076 -0.027859578 0.70211112
-0.13953239 -0.026037145 0.70100003
-0.14080001 -0.024137145 0.70400006
-0.13739419 -0.022637989 0.70144445
-0.13419144 -0.020696191 0.70100003
-0.13610667 -0.01944381 0.70400006
-0.1322816 -0.017621748 0.7026667
-0.12809144 -0.016010953 0.70050001
-0.13074286 -0.013409525 0.70400006
-0.1273523 -0.012562224 0.70255566
-0.1242816 -0.011338731 0.70033336
-0.12232368 -0.0073511573 0.70185721
-0.11786934 -0.0062735244 0.70080006
0.033333335 -0.0066666673 0.70000005
0.035383813 -0.0060085719 0.70100003
-0.12001525 -0.0046933335 0.70400006
-0.11683186 -0.0031956616 0.70277786
-0.11341001 -0.0021695241 0.70150006
0.028666668 -0.00066666672 0.70000005
0.032070272 -0.0026712248 0.70150012
0.035832144 -0.0036830956 0.70324999
-0.1112335 0.0022290479 0.70216674
-0.10827398 0.0042244452 0.70033336
0.028333334 0.0033333336 0.70000005
0.031959619 0.0025403178 0.70200008
-0.11062858 0.0060342862 0.70400006
-0.10793985 0.007360477 0.70250005
-0.10407477 0.0086728577 0.70050001
0.027754426 0.0073454431 0.70100009
0.031864628 0.0067941509 0.70328581
-0.10653048 0.010720001 0.70350003
-0.10248138 0.011847968 0.70163649
-0.099176913 0.013024525 0.70125002
-0.10124191 0.015420954 0.70400006
-0.097262502 0.017377976 0.70187509
-0.094000004 0.019333335 0.70000005
-0.096344292 0.020740477 0.70250005
-0.09234985 0.022978097 0.7026667
-0.089333341 0.024000002 0.70000005
-0.090514295 0.026148573 0.70400006
-0.086819284 0.02705024 0.70125002
-0.084120005 0.028040003 0.70100003
-0.08211302 0.032028366 0.70222217
-0.078538582 0.033151276 0.70083344
0.017358096 0.034048572 0.70100003
-0.081127621 0.035535239 0.70400006
-0.076976538 0.037058789 0.70281821
-0.073068261 0.037906773 0.70100003
0.013676668 0.038360953 0.70050001
0.016292699 0.037046671 0.70300007
-0.075763814 0.041569524 0.70400006
-0.072182991 0.042721272 0.70306671
-0.067645244 0.043594524 0.70150006
-0.064666674 0.04466667 0.70000005
0.013696191 0.042758577 0.70150006
0.015410001 0.041540477 0.70350003
-0.070400007 0.04626286 0.70400006
-0.066626482 0.047054291 0.70380002
-0.063369907 0.047360387 0.70040005
-0.061805245 0.051096037 0.70283335
-0.057811834 0.052689135 0.70175004
-0.054000005 0.054000005 0.70000005
0.008258732 0.053784452 0.70300007
0.010057144 0.054308575 0.70400006
-0.076194294 -0.065405719 0.708
-0.060011432 -0.065405719 0.708
-0.057272859 -0.065359533 0.70749998
-0.054167625 -0.06585525 0.70800006
-0.036411431 -0.065405719 0.708
-0.032057554 -0.06594409 0.70757157
-0.028953334 -0.065313339 0.70700002
-0.17255716 -0.061100002 0.70500004
-0.16710611 -0.061708003 0.7058
-0.16300382 -0.061968818 0.70725
-0.15767144 -0.061990958 0.70749998
-0.15228096 -0.061990961 0.70750004
-0.14727373 -0.061847437 0.70740002
-0.14289738 -0.061338335 0.70774996
-0.1375543 -0.061360005 0.708
-0.13193525 -0.061809532 0.70800006
-0.12735002 -0.061990961 0.70749998
-0.12259048 -0.061968815 0.70725
-0.11744858 -0.06204287 0.70700008
-0.11264858 -0.061751436 0.70585716
-0.10759988 -0.061871078 0.70612496
-0.10225632 -0.061892748 0.706375
-0.097396672 -0.062408812 0.70649993
-0.092777394 -0.062525809 0.70591664
-0.087680414 -0.062712252 0.70585716
-0.082159191 -0.062942863 0.70628577
-0.077521279 -0.062721908 0.70644444
-0.072856806 -0.062703729 0.70654541
-0.067958578 -0.063250013 0.70649999
-0.061901432 -0.063250013 0.70649999
-0.057310119 -0.062857747 0.70587504
-0.052906513 -0.063219845 0.70616668
-0.049014289 -0.062442861 0.70500004
-0.037720717 -0.063989289 0.70725
-0.03232 -0.063966669 0.70700002
-0.028200001 -0.063785717 0.70500004
-0.17263937 -0.056426357 0.70533341
-0.16808099 -0.057668258 0.70499998
-0.16235144 -0.059488576 0.70500004
-0.15722525 -0.059799526 0.70550001
-0.15285906 -0.05946381 0.70550001
-0.14570001 -0.059757147 0.70500004
-0.14264429 -0.059884291 0.70649999
-0.13714801 -0.059624191 0.70660007
-0.13249658 -0.059321713 0.7062
-0.128066 -0.059278503 0.70614284
-0.1219762 -0.059309527 0.70500004
-0.11750001 -0.059757151 0.7050001
-0.11414286 -0.059757147 0.70500004
-0.10138573 -0.059757151 0.7050001
-0.098028578 -0.059757147 0.70500004
-0.074528575 -0.059757147 0.70500004
-0.17182446 -0.053092387 0.70566672
-0.16953573 -0.052371435 0.70500004
-0.16821572 -0.049118575 0.70650005
-0.16473335 -0.045720957 0.70600003
-0.16520001 -0.043828573 0.708
-0.16204859 -0.042418733 0.70700002
-0.15883145 -0.041443497 0.70566672
-0.1611543 -0.039782859 0.708
-0.1573547 -0.03793437 0.7070834
-0.15397525 -0.036307622 0.70600003
-0.15576001 -0.034388572 0.708
-0.15205669 -0.032791905 0.70749998
-0.14897367 -0.031585719 0.70566672
-0.15036573 -0.028994288 0.708
-0.14740124 -0.027594695 0.70671433
-0.14435716 -0.026185716 0.70500004
-0.14670065 -0.024487302 0.70766675
-0.14288756 -0.022654209 0.70658338
-0.13938001 -0.020873334 0.70700002
-0.14092572 -0.019554287 0.708
-0.1378416 -0.017575346 0.70677781
-0.13450953 -0.015890479 0.7050001
-0.13595562 -0.013069525 0.70740002
-0.13271354 -0.01203651 0.70655549
-0.12867048 -0.010414287 0.70550007
-0.131216 -0.0082262857 0.708
-0.12696588 -0.0077848993 0.70642859
-0.12421429 -0.0060428577 0.70500004
-0.12200897 -0.002961905 0.70699996
-0.11839525 -0.0011190478 0.7050001
0.034242861 -0.00067142863 0.70500004
0.037232541 -0.0015693652 0.70650005
-0.12069715 0.00067428575 0.708
-0.11715924 0.0025121216 0.70736367
-0.11351743 0.0029753747 0.70528573
0.034242861 0.0047000004 0.70500004
0.03634131 0.0026929763 0.70662498
-0.11530287 0.0060685719 0.708
-0.11247049 0.0074081644 0.70714295
-0.10944287 0.0087285722 0.70500004
0.034340002 0.0060600005 0.70700002
0.035737146 0.0067428574 0.708
-0.11125715 0.010114286 0.708
-0.10747012 0.012783215 0.706375
-0.10407144 0.014100001 0.70500004
0.028544765 0.012361906 0.70800006
0.030342858 0.012137144 0.708
-0.10653715 0.015508573 0.708
-0.10217612 0.017608494 0.70658338
-0.098700009 0.018800002 0.70500004
-0.10107191 0.020888098 0.70749998
-0.097447984 0.02305893 0.70687497
-0.093865715 0.023768574 0.70500004
0.022220001 0.023566669 0.70700002
-0.095074289 0.027645716 0.708
-0.092583574 0.02743905 0.70700002
-0.088276386 0.028350666 0.70539999
-0.090900004 0.030973336 0.70700002
-0.087334305 0.032162096 0.70646673
-0.083928578 0.03357143 0.70500004
0.019526668 0.034340002 0.70700002
0.020902859 0.034388572 0.708
0.026297145 0.034388572 0.708
-0.085634291 0.035737146 0.708
-0.082306884 0.037603386 0.70644444
-0.07922858 0.038271431 0.70500004
0.018454606 0.038175873 0.70600003
0.022248149 0.037229527 0.70788896
-0.080240004 0.041131433 0.708
-0.077493094 0.042864051 0.70599997
-0.074528575 0.044985719 0.70500004
0.017502144 0.04240429 0.70675004
-0.07705684 0.046054926 0.70766664
-0.072730958 0.047814004 0.70710003
-0.067911752 0.048411749 0.70600003
0.01318041 0.047817964 0.70714295
0.01616643 0.046476431 0.70725
-0.16252001 -0.070040002 0.71400005
-0.10132001 -0.070040002 0.71400005
-0.097920008 -0.070040002 0.71400005
-0.093160003 -0.070040002 0.71400005
-0.077656008 -0.070855998 0.71400005
-0.072760008 -0.071400002 0.71400011
-0.066640005 -0.070040002 0.71400005
-0.062560007 -0.070040002 0.71400005
-0.051000003 -0.070040002 0.71400005
-0.046920002 -0.070040002 0.71400005
-0.042160004 -0.070040002 0.71400005
-0.16241884 -0.067278728 0.71355563
-0.15761271 -0.067257777 0.71333349
-0.1522489 -0.06638255 0.7136668
-0.14742255 -0.066578105 0.71333337
-0.1426335 -0.067242384 0.71316683
-0.13717552 -0.067137063 0.71336377
-0.13249683 -0.067268252 0.71344453
-0.12825978 -0.066763572 0.71350008
-0.12240001 -0.065960005 0.71400005
-0.11696795 -0.06674318 0.71266669
-0.11287784 -0.067086674 0.71281826
-0.10736477 -0.066593803 0.71350002
-0.10208382 -0.066773981 0.71300006
-0.097589299 -0.067093901 0.7115835
-0.092417233 -0.067018613 0.71209097
-0.087474287 -0.066454291 0.71200007
-0.082543217 -0.067010224 0.71200001
