# .PCD v0.7 - Point Cloud Data file format
VERSION 0.7
FIELDS x y z
SIZE 4 4 4
TYPE F F F
COUNT 1 1 1
WIDTH 1329
HEIGHT 1
VIEWPOINT 0 0 0 1 0 0 0
POINTS 1329
DATA ascii
-0.017421771 -0.018659865 0.65000004
-0.012380954 -0.019190477 0.65000004
0.02414286 -0.019190477 0.65000004
-0.10510191 -0.013060001 0.65300006
-0.10184886 -0.012868646 0.65300006
-0.097017154 -0.012438095 0.653
-0.09208338 -0.012562478 0.65300006
-0.087466821 -0.012290258 0.65276927
-0.082697913 -0.012388155 0.65043747
-0.077449054 -0.012608306 0.65116668
-0.072017618 -0.012415713 0.65187502
-0.066953875 -0.012397559 0.65093756
-0.061964411 -0.012391428 0.65062499
-0.056990299 -0.012388751 0.65043753
-0.052069996 -0.012396904 0.65087497
-0.047125183 -0.012400178 0.65106255
-0.042541113 -0.011976985 0.65050006
-0.037142858 -0.01052381 0.65000004
-0.032314289 -0.01077143 0.65000004
-0.027857145 -0.01052381 0.65000004
-0.022079367 -0.01052381 0.65000004
-0.017457144 -0.01077143 0.65000004
-0.014238096 -0.01052381 0.65000004
-0.0015476191 -0.010833334 0.65000004
0.0023877556 -0.011054424 0.65000004
0.0068095247 -0.011142859 0.6500001
0.01246939 -0.011231294 0.65000004
0.017746033 -0.010936509 0.6500001
0.021666666 -0.01052381 0.65000004
0.027031748 -0.011349208 0.6500001
-0.086196005 -0.0088310484 0.65300006
-0.083892867 -0.0086995251 0.65250003
-0.07068985 -0.0089139696 0.65300006
-0.06695842 -0.0084993662 0.65300006
-0.062397785 -0.0084993662 0.65300006
-0.056959584 -0.0084916409 0.65244442
-0.052071877 -0.0078890119 0.65269232
-0.047072046 -0.0077264635 0.65278578
-0.042188514 -0.0075750486 0.65206677
-0.037239227 -0.0074458933 0.65168744
-0.032274466 -0.0074458937 0.65168756
-0.027401146 -0.0073132715 0.65093338
-0.022154219 -0.0077083679 0.65135717
-0.017340383 -0.0075714933 0.65180004
-0.012579593 -0.0071736067 0.6511429
-0.0072680959 -0.0071777562 0.65150011
-0.0024835719 -0.0074497629 0.65200001
0.0024811311 -0.007442798 0.65143752
0.0074397619 -0.0074378573 0.65100008
0.0124075 -0.0074420245 0.651375
0.017250225 -0.0075683184 0.65153342
0.022328096 -0.0074404767 0.65124995
0.02611075 -0.0080527896 0.65057153
-0.037314288 -0.0043533337 0.65300006
-0.033582859 -0.0043533337 0.65300006
-0.027363811 -0.0037314289 0.65300006
0.0080847628 -0.0040423814 0.65300006
0.012438096 -0.0043533337 0.65300006
0.024254287 -0.0043533337 0.65300006
0.025498098 -0.0043533337 0.65300006
-0.036973335 -0.025693335 0.65800011
-0.03254322 -0.026285596 0.657125
-0.028200001 -0.025693335 0.65800011
-0.021306667 -0.025693335 0.65800005
-0.017546667 -0.025693335 0.65800005
-0.012533334 -0.025693335 0.65800005
-0.0075108334 -0.026285594 0.657125
-0.0027730616 -0.026208166 0.65742862
0.0012533334 -0.025693335 0.65800005
0.0085644461 -0.026111111 0.65800011
0.012528095 -0.026310237 0.65775001
0.01703926 -0.026637567 0.65722221
0.022554763 -0.026104605 0.65783334
0.026481748 -0.026691271 0.65683341
-0.09650667 -0.020680001 0.65800005
-0.093140803 -0.02109254 0.6578334
-0.087942235 -0.020680001 0.65800011
-0.082201101 -0.02137796 0.65742862
-0.077439927 -0.021792987 0.65718192
-0.072459221 -0.021999685 0.65683341
-0.067577511 -0.022526903 0.65700001
-0.062722594 -0.022249116 0.65671432
-0.057522386 -0.02188508 0.6565001
-0.052508049 -0.023021059 0.65722221
-0.047345374 -0.023247188 0.65645462
-0.042472549 -0.023111431 0.65583348
-0.037509609 -0.023132302 0.65641677
-0.033098236 -0.023641907 0.65571433
-0.027499288 -0.024375001 0.65625
-0.022345478 -0.023437858 0.65625006
-0.017316906 -0.023402143 0.65525007
-0.012486905 -0.02310246 0.6555835
-0.0078009535 -0.023558097 0.65525007
-0.0024977382 -0.02372798 0.65562505
0.0025035716 -0.023149602 0.65691674
0.0075077787 -0.023152702 0.65700006
0.012112002 -0.024101336 0.65560001
0.018100319 -0.024340956 0.6553334
0.022741904 -0.023366859 0.65600008
0.026294697 -0.02290803 0.65514296
-0.15102668 -0.015666667 0.65800005
-0.141 -0.015666667 0.65800005
-0.13828446 -0.016084446 0.65800005
-0.13294287 -0.01620381 0.65800011
-0.12749286 -0.016657049 0.65750009
-0.12241782 -0.017199781 0.65761548
-0.11771245 -0.017532559 0.65743744
-0.11262858 -0.016895557 0.65700006
-0.10736281 -0.017240478 0.65650004
-0.10262825 -0.017760886 0.65592873
-0.097426198 -0.018736428 0.6557501
-0.091954291 -0.018932067 0.65533334
-0.088072255 -0.018650208 0.65585726
-0.083719052 -0.01936762 0.65600002
-0.079223812 -0.019338097 0.65500003
-0.16305868 -0.011656001 0.65800005
-0.15666668 -0.011906668 0.65800005
-0.1520015 -0.012742223 0.65800005
-0.1492362 -0.012801905 0.65800011
-0.13786668 -0.012533332 0.65800005
-0.13280287 -0.012528451 0.65775001
-0.12765805 -0.012515299 0.65706247
-0.12262804 -0.012513037 0.65693742
-0.11754453 -0.012503929 0.65650004
-0.11244733 -0.012493276 0.65593749
-0.10746446 -0.012439683 0.65526676
-0.10292858 -0.010604763 0.65500009
-0.091700003 -0.010604762 0.65500003
-0.076728575 -0.010604762 0.65500003
-0.13285334 -0.0094000008 0.65800005
-0.12763113 -0.0084251864 0.65800005
-0.12282668 -0.0081466688 0.65800005
-0.11779866 -0.0081454776 0.65791667
-0.11273336 -0.0082509089 0.65727282
-0.1075274 -0.0081259524 0.65641677
-0.10254528 -0.0079309177 0.65623081
-0.097528048 -0.0074998215 0.65643746
-0.092464767 -0.0074957144 0.65599996
-0.087900355 -0.006874199 0.65627283
-0.082245924 -0.0073215663 0.65635723
-0.077478051 -0.0074968459 0.65606254
-0.072792388 -0.0071589747 0.65584624
-0.067638785 -0.0061489809 0.65500003
-0.062154025 -0.0061526536 0.65542865
-0.057707895 -0.0061538788 0.65557146
-0.053051434 -0.0056171436 0.6553334
-0.048657149 -0.0056142863 0.65500003
-0.043042861 -0.0056142863 0.65500003
-0.023704764 -0.0056142863 0.65500003
-0.018090477 -0.0056142863 0.65500003
0.019338097 -0.0056142863 0.65500003
-0.095880009 -0.0043866672 0.65800005
-0.092711434 -0.0037583339 0.65775001
-0.087699533 -0.0037583336 0.65775001
-0.08248736 -0.0027726537 0.65757149
-0.077632859 -0.0025034531 0.65737504
-0.072589949 -0.0025018454 0.65706241
-0.067569584 -0.0025008933 0.65693748
-0.06256178 -0.0026284442 0.65733337
-0.057571016 -0.0025022025 0.65706253
-0.052559767 -0.002501548 0.65699995
-0.047532447 -0.0024998216 0.65668756
-0.042467739 -0.0024967857 0.6557501
-0.037456829 -0.0018722223 0.65550017
-0.032294832 -0.0022289802 0.65571433
-0.027489528 -0.0012490477 0.65600002
-0.02248762 -0.0024967859 0.65587503
-0.017473692 -0.0024955953 0.65525001
-0.012487143 -0.0024965478 0.65562505
-0.0074999998 -0.0024979764 0.65625
-0.002497619 -0.0024959524 0.65550005
0.0024962504 -0.0024956546 0.65531254
0.0072815879 -0.0019757142 0.65533346
0.012487858 -0.0018723018 0.65558344
0.017487263 -0.0024970239 0.6557501
0.022380829 -0.0023737149 0.65640008
0.026433971 -0.0029120639 0.65566671
-0.077080011 0.0006266667 0.65800011
-0.072693333 0.0006266667 0.65800005
-0.06830667 0.00094000006 0.65800005
-0.061726671 0.00094000006 0.65800005
-0.057583708 0.0014622223 0.65800005
-0.052908581 0.0011638094 0.65800011
-0.047000002 0.0006266667 0.65800011
-0.042211432 0.00087695243 0.65760005
-0.037359685 0.0014614816 0.65744448
-0.032821815 0.0016288573 0.6577
-0.027556574 0.0016289527 0.6576001
-0.022171428 0.00087657152 0.65760005
-0.017247895 0.001162177 0.65685719
-0.012929842 0.0010428573 0.65700006
-0.0071440004 0.00087733346 0.65800005
-0.0023349787 0.001765801 0.6577273
0.0025042859 0.0018793655 0.65750009
0.0076833768 0.0017652813 0.65736365
0.012525636 0.0018796031 0.65758336
0.01753778 0.0018796826 0.65766668
0.022136986 0.0010442857 0.6578334
-0.0037885716 -0.030940002 0.66300005
0.009457143 -0.030893335 0.66200006
0.013042541 -0.031345397 0.6626668
0.017291239 -0.031173905 0.66260004
0.022731431 -0.030940002 0.66300005
0.026520003 -0.030940002 0.66300005
-0.090294294 -0.025888573 0.66300005
-0.087137148 -0.025888573 0.66300005
-0.081960693 -0.026418643 0.66271436
-0.076946437 -0.026175 0.66225004
-0.072363816 -0.026831534 0.662
-0.067989342 -0.02681886 0.66099995
-0.062950477 -0.026440479 0.66100001
-0.058025718 -0.026490718 0.66225004
-0.053144235 -0.026677778 0.66166669
-0.048124578 -0.026835239 0.66140008
-0.042819127 -0.027302492 0.66192311
-0.037816387 -0.027733335 0.66180009
-0.032790832 -0.029007975 0.66212511
-0.027556486 -0.028139634 0.66107696
-0.022869594 -0.028003881 0.66178584
-0.017409241 -0.02813286 0.66230011
-0.012542685 -0.028234808 0.66145468
-0.0075573809 -0.028969999 0.66125
-0.0023070902 -0.02874434 0.66088891
0.0026982317 -0.027977142 0.66114295
0.0073098177 -0.028033044 0.66084623
0.012578215 -0.028931076 0.660375
0.018245172 -0.028849799 0.66057146
0.022658955 -0.02857705 0.66090006
0.026440002 -0.029587621 0.66100001
-0.13196859 -0.020837147 0.66300005
-0.12754858 -0.020837145 0.66300005
-0.12200802 -0.021070858 0.66240007
-0.11733489 -0.021448931 0.66237503
-0.11238497 -0.021064574 0.66220009
-0.10676845 -0.021606788 0.66237509
-0.10220405 -0.022374844 0.66175014
-0.09744934 -0.022538479 0.66099995
-0.091824032 -0.023184659 0.66188896
-0.087346755 -0.02319853 0.66154557
-0.083254769 -0.023450477 0.66100001
-0.078320004 -0.024262859 0.66000003
-0.073228575 -0.024200002 0.66000003
-0.061600003 -0.024514288 0.66000003
-0.057872385 -0.024532858 0.66050005
-0.054057147 -0.024514288 0.66000003
-0.024514288 -0.024514288 0.66000003
-0.16688012 -0.017003706 0.66122228
-0.16228968 -0.017194288 0.66107702
-0.15752897 -0.017523494 0.66180009
-0.15258695 -0.017777527 0.66186672
-0.14739265 -0.01763881 0.66137505
-0.14259431 -0.017965276 0.66092318
-0.13731945 -0.018520569 0.66140002
-0.13222595 -0.018670373 0.66077775
-0.12697144 -0.019066669 0.66000009
-0.12382858 -0.019485716 0.66000003
-0.11502858 -0.019485716 0.66000003
-0.11188573 -0.019485716 0.66000003
-0.10874286 -0.019485716 0.66000003
-0.16663471 -0.012576587 0.66024995
-0.16156514 -0.01297342 0.66009092
-0.15714286 -0.012661224 0.66000003
-0.15358096 -0.011942859 0.66000003
-0.14665057 -0.012426374 0.66000003
-0.14268574 -0.01257143 0.65999997
-0.16635121 -0.0080247624 0.66100001
-0.16252448 -0.0075573213 0.66143757
-0.15747014 -0.0075566671 0.66137505
-0.15240322 -0.0075551197 0.66125
-0.14739168 -0.0075565479 0.66137511
-0.14240691 -0.0075594047 0.66162509
-0.13732079 -0.0074246367 0.66080004
-0.13208358 -0.006917858 0.6604166
-0.12699962 -0.005915429 0.66080004
-0.12208167 -0.0056635719 0.66075003
-0.11709143 -0.0056657149 0.66100001
-0.1122482 -0.0059205717 0.66140002
-0.10781144 -0.0056742867 0.66200006
-0.1028762 -0.0056571434 0.66000003
-0.16606572 -0.0044200001 0.66300005
-0.16480286 -0.0044200001 0.66300005
-0.15154287 -0.0044200001 0.66300005
-0.14813314 -0.0041674287 0.66300005
-0.14291336 -0.0044200001 0.66300005
-0.13744095 -0.0039990479 0.66300011
-0.13260382 -0.0035758731 0.66266674
-0.12720011 -0.0034065717 0.66250008
-0.12235914 -0.0031526191 0.6622501
-0.11726858 -0.0031511113 0.66200012
-0.1121776 -0.0026489529 0.6624667
-0.10725197 -0.0025224406 0.6624375
-0.10214745 -0.002520893 0.66206264
-0.097483739 -0.0022023018 0.6610834
-0.092469528 -0.0012576191 0.66050005
-0.087806262 -0.0013474833 0.66057152
-0.084228575 -0.00062857149 0.66000003
-0.063485719 -0.00062857149 0.66000003
-0.10671143 0.00063142861 0.66300005
-0.10140743 0.0011365715 0.66300005
-0.097203344 0.0025254765 0.66275007
-0.092110671 0.0025243456 0.6624375
-0.087152801 0.0022540137 0.66242868
-0.082297631 0.0025234921 0.66216677
-0.077781476 0.00295392 0.66069239
-0.072622068 0.003150159 0.66116679
-0.067578711 0.0029196537 0.66090906
-0.063258976 0.0030437305 0.66091669
-0.057981364 0.0038659871 0.66071433
-0.052714076 0.0035710058 0.66155559
-0.048033632 0.0029578758 0.66161549
-0.042979486 0.0032629443 0.66100007
-0.038008578 0.0038640818 0.66042864
-0.032266669 0.0039809528 0.66000009
-0.027663654 0.0039820638 0.66016674
-0.022812471 0.0032595675 0.66036367
-0.01781545 0.0035633864 0.66022223
-0.012323429 0.0033956193 0.6602
-0.0077167102 0.0032583554 0.66018182
-0.0028914288 0.0041485718 0.66000003
0.002514286 0.0044000004 0.66000003
0.0071657151 0.0041485722 0.66000003
0.012571429 0.0044000004 0.66000003
0.0176 0.0044000004 0.66000003
0.022880001 0.0033942864 0.66000003
0.026310207 0.0022448984 0.66000009
-0.091978103 0.0056828577 0.66300005
-0.089031436 0.0056828577 0.66300005
-0.080191433 0.0056828577 0.66300005
-0.077020124 0.0063132145 0.66287506
-0.072361723 0.0059354291 0.66300005
-0.067187764 0.0064032665 0.66285723
-0.062714994 0.0070581832 0.66272736
-0.058021337 0.0066855247 0.66220015
-0.052674804 0.0072342139 0.66269237
-0.047932453 0.0074490169 0.66280007
-0.043180142 0.0073926547 0.66257155
-0.038058098 0.0065188366 0.66233343
-0.032448571 0.0072286446 0.66207707
-0.027735362 0.0075659528 0.66187513
-0.022697464 0.0069365087 0.66200006
-0.017653607 0.0072971438 0.66200012
-0.01278 0.0068208664 0.66190922
-0.0072219055 0.0072241039 0.66161549
-0.0023928257 0.0074337153 0.66126668
0.0025201789 0.0075611314 0.66143751
0.0074383505 0.007439747 0.66186672
0.012608018 0.0069356356 0.66191673
0.017653337 0.0069365087 0.66200012
0.0227027 0.0069379369 0.66216677
0.026983812 0.0071011912 0.66275007
-0.028414287 0.011050001 0.66300005
0.0027361908 0.010734286 0.66300005
0.0056828577 0.010734286 0.66300005
0.0019114288 -0.03504286 0.66900003
0.026760001 -0.03504286 0.66900003
-0.08091715 -0.031220002 0.66900003
-0.077640414 -0.031766128 0.66900009
-0.072783269 -0.031712789 0.66785723
-0.067287438 -0.03141886 0.66780007
-0.06116572 -0.031220002 0.66900003
-0.057342857 -0.031220002 0.66900003
-0.051951155 -0.031752795 0.6687144
-0.046898961 -0.032326497 0.66790915
-0.04229429 -0.032389525 0.66680002
-0.037866127 -0.031692248 0.66742867
-0.03277456 -0.031685036 0.6672858
-0.027898809 -0.031702861 0.66575003
-0.022838932 -0.031721074 0.66612506
-0.017695241 -0.03193799 0.66622221
-0.012688215 -0.031721074 0.666125
-0.0076090484 -0.0317031 0.66575003
-0.0019027214 -0.032175649 0.66614288
0.0025396035 -0.032370716 0.66641676
0.007119366 -0.032220319 0.66622227
0.012692144 -0.032996431 0.66624999
0.018039186 -0.033088706 0.66628575
0.022859288 -0.033021666 0.66675001
0.02668 -0.033034287 0.667
-0.14208287 -0.026122859 0.66900003
-0.13634858 -0.026122859 0.66900003
-0.13242525 -0.026103336 0.66850007
-0.12781087 -0.026887432 0.66900009
-0.12073858 -0.027078573 0.66900003
-0.11691145 -0.026657825 0.6687144
-0.11226574 -0.026817553 0.66814297
-0.10778804 -0.026607076 0.66742867
-0.10253525 -0.027330797 0.66733336
-0.097666495 -0.02720537 0.66709089
-0.092912868 -0.027329624 0.66729999
-0.087745361 -0.027977264 0.66762507
-0.082665406 -0.029015664 0.66711122
-0.077566147 -0.028663289 0.66609091
-0.072676674 -0.029366827 0.66550004
-0.066877149 -0.029418414 0.66666669
-0.062300712 -0.029243812 0.66750002
-0.057407897 -0.029293608 0.6665715
-0.052272253 -0.029261909 0.66585714
-0.047289528 -0.029286861 0.6656
-0.043277781 -0.029766669 0.66500008
-0.038652703 -0.029781591 0.66533339
-0.019000001 -0.029766669 0.66500002
-0.013300001 -0.029766669 0.66500002
-0.16159144 -0.020994287 0.66800004
-0.15720288 -0.021974077 0.66766673
-0.15233868 -0.022732828 0.66666663
-0.1475722 -0.022601159 0.66707146
-0.14238733 -0.022886015 0.66743743
-0.13739607 -0.023037145 0.66657138
-0.13254954 -0.023272164 0.66592306
-0.12735851 -0.023484685 0.66641676
-0.12265372 -0.023618666 0.66659999
-0.11768043 -0.024007756 0.66585714
-0.11282989 -0.023581559 0.66590911
-0.10818264 -0.023917619 0.66525
-0.10281112 -0.024700001 0.66500008
-0.098166674 -0.024700001 0.66500008
-0.092605725 -0.024737144 0.66600001
-0.15896668 -0.019633334 0.66500002
-0.16649076 -0.0017206805 0.66614288
-0.16239209 -0.0025360121 0.66606253
-0.15730287 -0.0025357145 0.66600001
-0.15248868 -0.0020065873 0.66575003
-0.14700699 -0.0019003178 0.66533333
-0.14236677 -0.0020157578 0.66545457
-0.13778925 -0.001647143 0.66549999
-0.13229893 -0.0011767348 0.66557145
-0.12809868 -0.0011401906 0.6652
-0.12291215 -0.00063357147 0.66525
-0.11797715 -0.00063428574 0.66600001
-0.11463334 -0.0006333334 0.66500002
-0.16734715 0.0014333335 0.66875005
-0.16215287 0.00095571438 0.66900003
-0.15795216 0.0012740477 0.66875011
-0.15280095 0.0012738096 0.66850007
-0.14736782 0.0022729938 0.66778576
-0.14238602 0.0025445833 0.66743749
-0.13746811 0.002547381 0.66824991
-0.13235274 0.0025470238 0.66812497
-0.12721296 0.0026703493 0.66719997
-0.12215155 0.0024306446 0.66699994
-0.11753374 0.0025429369 0.66708338
-0.1130087 0.0025410717 0.66662502
-0.10788223 0.0026657146 0.66606671
-0.10304572 0.0031683121 0.66527271
-0.086766675 0.0044333334 0.66500002
-0.084233336 0.0044333334 0.66500002
-0.16884287 0.0057342863 0.66900003
-0.14259259 0.0059891441 0.66900009
-0.13741049 0.0057342863 0.66900003
-0.13273811 0.0061590485 0.66900009
-0.12715551 0.0062804087 0.66900009
-0.12224042 0.0064624501 0.66900009
-0.11755288 0.0065307147 0.66900009
-0.11236151 0.0064600012 0.66871434
-0.10725091 0.0068589426 0.66811115
-0.10262606 0.0074418378 0.66692859
-0.097680017 0.0076133329 0.66600001
-0.092772104 0.0080636637 0.66684616
-0.087475441 0.0077467943 0.66653335
-0.082559831 0.0077372068 0.66579998
-0.077338696 0.0088751204 0.66562498
-0.072106242 0.0083581824 0.66572726
-0.067172036 0.0088717863 0.66537499
-0.061433338 0.0091833342 0.66500002
-0.056577783 0.009077779 0.66500002
-0.053833336 0.0095000006 0.66500002
-0.048766669 0.0095000006 0.66500002
-0.041166671 0.0088666677 0.66500002
-0.037728574 0.0089571439 0.66500008
-0.034411114 0.009077779 0.66500008
-0.022800002 0.0095000006 0.66500002
-0.017733335 0.0095000006 0.66500002
-0.012286667 0.0092466678 0.66500002
-0.009077779 0.009077779 0.66500008
-0.0044333334 0.0095000006 0.66500002
0.0095000006 0.0095000006 0.66500002
0.012666668 0.0095000006 0.66500002
0.017733334 0.0095000006 0.66500002
0.022800002 0.0095000006 0.66500002
0.027233336 0.0095000006 0.66500008
-0.10258001 0.01083143 0.66900003
-0.098045245 0.010823334 0.66850001
-0.093022868 0.01083143 0.66900003
-0.087925725 0.01083143 0.66900003
-0.082211219 0.011805504 0.66800004
-0.077557273 0.012716191 0.66749996
-0.072458103 0.01271369 0.66737497
-0.067360006 0.01271143 0.66724992
-0.06220381 0.011957924 0.66709095
-0.056990214 0.012434559 0.66700006
-0.052016366 0.012688513 0.66606247
-0.047096331 0.012823429 0.66646659
-0.042374287 0.012744575 0.66673332
-0.037793335 0.012508573 0.66614288
-0.032967798 0.012681013 0.6656875
-0.027696509 0.013215398 0.66600001
-0.022874825 0.012711013 0.66718745
-0.017773692 0.012698455 0.66649997
-0.012698634 0.012701849 0.66668743
-0.0077540963 0.012585843 0.66726667
-0.0024121273 0.012573272 0.66659999
0.0024883517 0.013132893 0.66630769
0.0077431118 0.012822606 0.66640013
0.012696371 0.012698634 0.66656244
0.017766312 0.012692262 0.66624999
0.022855241 0.01270012 0.66662496
0.026543809 0.012411566 0.66585714
-0.070722863 0.015928572 0.66900003
-0.067537144 0.015928572 0.66900003
-0.051950075 0.016467892 0.6687144
-0.047360957 0.016353335 0.66900009
-0.041626669 0.016353335 0.66900009
-0.037194692 0.016643131 0.6684286
-0.03280177 0.016447484 0.66785723
-0.02820815 0.016756508 0.66811121
-0.023574289 0.015928572 0.66900003
-0.00063714292 0.015928572 0.66900003
0.0025485717 0.015928572 0.66900003
0.0080704773 0.016353335 0.66900009
0.012742857 0.016948 0.66900009
0.017967431 0.016948 0.66900009
0.023574289 0.016565716 0.66900009
0.026096828 0.017186984 0.66833341
0.028885717 -0.040440004 0.67400002
-0.098211437 -0.035304762 0.67400002
-0.081521913 -0.035304762 0.67400002
-0.076311126 -0.035269845 0.67333335
-0.072535239 -0.035304762 0.67400002
-0.067400001 -0.035304762 0.67400002
-0.061532386 -0.035252385 0.67300004
-0.057353146 -0.035540573 0.67360002
-0.052548219 -0.035887744 0.67287505
-0.047324769 -0.035813812 0.67149997
-0.04211162 -0.036225524 0.67200005
-0.037449118 -0.035985447 0.6730001
-0.032230373 -0.036072064 0.6723333
-0.027542964 -0.036511645 0.67255557
-0.023056906 -0.035867624 0.67250001
-0.018299241 -0.03544629 0.67180002
-0.012498097 -0.036054764 0.67299998
-0.0074343816 -0.036273815 0.67289996
-0.0025053683 -0.036399741 0.67263633
0.0026886666 -0.037127335 0.67210001
0.0074982322 -0.036856737 0.67214286
0.01273195 -0.036336109 0.67145461
0.017936431 -0.036513738 0.67258334
0.022833889 -0.03660294 0.67225003
0.026501907 -0.037260007 0.67220008
-0.14442858 -0.030169526 0.67400002
-0.13672572 -0.030169528 0.67400002
-0.13229993 -0.031545628 0.67345458
-0.12820056 -0.030839186 0.67257148
-0.12221842 -0.03110794 0.67266667
-0.11760114 -0.031249613 0.67209095
-0.11269587 -0.031377461 0.67233336
-0.10757335 -0.031377461 0.67233324
-0.10225503 -0.032235768 0.67244446
-0.097468153 -0.032529786 0.67209095
-0.09224581 -0.031602763 0.6717
-0.0873252 -0.032098942 0.67255551
-0.082476616 -0.032609738 0.67133337
-0.077644296 -0.033550479 0.671
-0.072531432 -0.033644572 0.67159998
-0.067874297 -0.03334422 0.67142862
-0.062920384 -0.032868382 0.67140001
-0.057535477 -0.033244047 0.67125005
-0.05272286 -0.033573907 0.67020005
-0.049133338 -0.03381905 0.67000002
-0.040200002 -0.03381905 0.67000002
-0.036691811 -0.033624385 0.67119998
-0.031964049 -0.033882145 0.67124999
-0.027466035 -0.033852704 0.67066669
-0.022980716 -0.033831671 0.67025
-0.018079368 -0.03381905 0.67000002
-0.012775477 -0.033856906 0.67075002
-0.0076716673 -0.033882145 0.67124999
-0.003194286 -0.033852704 0.67066669
0.0089333337 -0.03381905 0.67000002
0.011485714 -0.03381905 0.67000002
-0.16304383 -0.026318097 0.67400002
-0.1571679 -0.026789121 0.67200011
-0.15253007 -0.02696082 0.67171425
-0.14755271 -0.027508415 0.67166674
-0.14231282 -0.0276039 0.67118186
-0.1378994 -0.027645122 0.67112499
-0.13287263 -0.028108096 0.67075002
-0.12734559 -0.027802728 0.67000002
-0.12331191 -0.027597621 0.67000002
-0.11779239 -0.028459052 0.67000002
-0.11230478 -0.028714288 0.67000002
-0.10720001 -0.028714288 0.67000002
-0.10209525 -0.029990477 0.67000002
-0.096990481 -0.029990477 0.67000002
-0.093161911 -0.029352382 0.67000002
-0.087844454 -0.029990477 0.67000002
-0.16576001 -0.024960002 0.67200005
-0.16239922 -0.023657303 0.67133331
-0.15810643 -0.02459405 0.67075002
-0.15378097 -0.024885716 0.67000002
-0.14676192 -0.024885716 0.67000002
-0.16650233 0.0035586401 0.67057151
-0.16245268 0.0034488577 0.67049998
-0.15705918 0.0038310718 0.67037499
-0.15261859 0.0038319051 0.67050004
-0.1493143 0.0044666668 0.67000002
-0.16668312 0.00720762 0.67250001
-0.16291417 0.0075643184 0.67293328
-0.15785992 0.0067922869 0.67269993
-0.15217327 0.007048226 0.67263639
-0.14747389 0.0078651719 0.67199999
-0.14254954 0.0084392391 0.67120004
-0.13782525 0.0079830159 0.67050004
-0.13271467 0.0085586682 0.67060006
-0.12808549 0.0087386258 0.67133331
-0.12274921 0.0085904775 0.6708889
-0.11728799 0.0087894052 0.67112499
-0.11243048 0.0089435717 0.67075002
-0.10794604 0.0089422241 0.67066669
-0.16304383 0.010912382 0.67400002
-0.15213144 0.010912382 0.67400002
-0.14756542 0.011334287 0.67366666
-0.14250287 0.011554287 0.67400002
-0.13697378 0.01175344 0.67311108
-0.13222773 0.012177356 0.67288888
-0.12757452 0.012468278 0.67261535
-0.12262798 0.012808214 0.67237496
-0.11770122 0.012680256 0.6724
-0.11276549 0.012815952 0.67274994
-0.10750072 0.012799762 0.671875
-0.10227334 0.013424604 0.67116666
-0.097135246 0.01342127 0.671
-0.092045397 0.013423812 0.67116666
-0.087371998 0.013560762 0.67160004
-0.083461277 0.013839367 0.67066669
-0.06269829 0.014429715 0.67040002
-0.058704764 0.014676192 0.67000002
-0.0057428577 0.014676192 0.67000002
-0.0044666668 0.014676192 0.67000002
-0.12613429 0.016368572 0.67400002
-0.12196191 0.016689524 0.67400002
-0.11728519 0.016964627 0.67400008
-0.1133604 0.01720305 0.67399997
-0.10784002 0.016689524 0.67400002
-0.10266691 0.016683571 0.67374992
-0.097016677 0.016838096 0.67349994
-0.092138909 0.01750242 0.67292303
-0.087185368 0.01795155 0.67312497
-0.082238711 0.01811422 0.67235714
-0.077624895 0.017883306 0.67213327
-0.072921023 0.017912041 0.6716429
-0.067814693 0.01855405 0.67175001
-0.062690541 0.017913038 0.67168748
-0.057520177 0.017896371 0.67106253
-0.052597996 0.018952914 0.6707778
-0.047119435 0.01877181 0.67040008
-0.042401243 0.018774765 0.67050004
-0.037037142 0.01915762 0.67050004
-0.032205448 0.019250885 0.67057151
-0.027458575 0.01915762 0.67049998
-0.022850553 0.018330552 0.67076927
-0.017902976 0.017905835 0.67137498
-0.012790478 0.017909408 0.67150003
-0.0076676798 0.017892919 0.67093742
-0.0026831748 0.018013082 0.67066675
0.0025536509 0.018514605 0.67033333
0.0074019055 0.018759999 0.67000002
0.012761906 0.019355558 0.67000002
0.017653972 0.019355558 0.67000002
0.022592096 0.018635338 0.67010009
0.026881907 0.019840002 0.67200005
-0.081521913 0.021182861 0.67400002
-0.077670485 0.021182859 0.67400002
-0.062906668 0.021182859 0.67400002
-0.057496332 0.021733066 0.67400008
-0.052636191 0.021824766 0.67400002
-0.047256514 0.022024766 0.67355549
-0.042127259 0.022615904 0.67253846
-0.037113097 0.023036074 0.671875
-0.032048892 0.022916699 0.67213333
-0.027296001 0.022556193 0.6728
-0.023464004 0.021413716 0.67320007
-0.017973334 0.021182859 0.67400002
-0.012562995 0.021733066 0.67400008
-0.0076976195 0.022450639 0.6735
-0.0025626984 0.022429049 0.67283332
0.0025638097 0.021793334 0.67299998
0.0076914285 0.021793336 0.67299998
0.01259471 0.021988997 0.67244446
0.017946668 0.021793334 0.67299998
0.022466671 0.021182861 0.67400002
0.025034288 0.021182859 0.67400002
-0.045575242 0.025034288 0.67400002
-0.041937783 0.025890162 0.67400002
-0.037872385 0.026831621 0.67400002
-0.033058096 0.026318097 0.67400002
-0.027601909 0.02503429 0.67400002
-0.0032095239 0.02503429 0.67400002
-0.056260005 -0.040740002 0.67900002
-0.053646356 -0.041151114 0.67866677
-0.048068892 -0.040740006 0.67900008
-0.042228576 -0.041151114 0.67866671
-0.03710705 -0.040986668 0.67880005
-0.031831309 -0.041525602 0.67862499
-0.0273127 -0.041508045 0.67744446
-0.021986667 -0.040740002 0.67900002
-0.017130718 -0.041048333 0.67875004
-0.012907977 -0.041303933 0.677625
-0.0074798102 -0.041653339 0.67700005
-0.0025776194 -0.041219763 0.67625004
0.0027276196 -0.042105645 0.6769231
0.0077384133 -0.041911434 0.67700005
0.012748574 -0.041888312 0.67854548
0.017794017 -0.041216873 0.67771441
0.022417976 -0.041611552 0.67737502
0.026239866 -0.041524764 0.6767143
-0.11575334 -0.035566669 0.67900002
-0.11252001 -0.035566669 0.67900002
-0.10670001 -0.035566669 0.67900002
-0.096713334 -0.035461906 0.67700005
-0.092877865 -0.035475001 0.67725003
-0.087546244 -0.036352385 0.67755562
-0.083104901 -0.036906265 0.67642856
-0.077732198 -0.036483433 0.67680001
-0.071890377 -0.036628362 0.67733335
-0.067131437 -0.037438333 0.67774999
-0.062652275 -0.037022013 0.67666668
-0.057813652 -0.038042862 0.67700005
-0.052900363 -0.038707979 0.67737502
-0.047703929 -0.038679644 0.67687505
-0.042684764 -0.03882445 0.67566675
-0.037101168 -0.038246561 0.67555559
-0.031894561 -0.038696468 0.67557156
-0.026630288 -0.038980383 0.67540002
-0.022202453 -0.03878694 0.67714292
-0.017648859 -0.038002953 0.67630011
-0.013181311 -0.03841798 0.67512506
-0.0081428578 -0.038785718 0.67500007
-0.0027009526 -0.038968764 0.67519999
0.0027857148 -0.039214291 0.67500007
0.0090000005 -0.039214287 0.67500001
0.012989715 -0.038968764 0.67520005
0.018000001 -0.039214287 0.67500001
0.022500001 -0.039214287 0.67500001
0.027000003 -0.039214287 0.67500001
-0.16296001 -0.030393336 0.67900002
-0.15727875 -0.030809525 0.67866671
-0.15195842 -0.030779686 0.67800009
-0.14728124 -0.031226803 0.67699999
-0.14245309 -0.031586755 0.67681825
-0.13761525 -0.031943403 0.67657149
-0.12664916 -0.032339431 0.67640007
-0.12266858 -0.03366781 0.67720002
-0.11721881 -0.034134526 0.67625004
-0.11255493 -0.034088258 0.67533338
-0.10819882 -0.03413453 0.67625004
-0.10390636 -0.034206033 0.67766666
-0.096211433 -0.03422286 0.67800003
-0.092807859 -0.034159765 0.67675006
-0.08829017 -0.034155559 0.67666674
-0.084214292 -0.034071431 0.67500001
-0.16558143 -0.028350003 0.67650002
-0.16212001 -0.028307145 0.67550004
-0.15703169 -0.028960716 0.67575008
-0.15243304 -0.028942859 0.67533338
-0.1680343 0.0096571436 0.67600006
-0.1607143 0.0096428581 0.67500001
-0.15689541 0.0092166681 0.67516673
-0.15332144 0.0090000005 0.67500001
-0.16671096 0.012638 0.67690009
-0.16244946 0.013186192 0.67764288
-0.15752551 0.012914168 0.6778751
-0.15246448 0.013248794 0.67723083
-0.1476211 0.013684882 0.67612505
-0.14282002 0.01415381 0.67550009
-0.13790572 0.014240954 0.67528588
-0.1328143 0.014528573 0.67500001
-0.12857144 0.014785715 0.67500001
-0.16654287 0.016589843 0.67866671
-0.16317557 0.016597781 0.67900002
-0.15757112 0.017028892 0.67899996
-0.1523101 0.017196575 0.67879999
-0.14734977 0.017449923 0.67858332
-0.14205652 0.017435556 0.67800009
-0.13740233 0.017418837 0.67733335
-0.13270676 0.017395318 0.67641675
-0.12750907 0.018271333 0.67550009
-0.12221108 0.019296786 0.67537504
-0.11742859 0.019500002 0.67500007
-0.1117527 0.01930508 0.67566675
-0.10781511 0.019210476 0.67557156
-0.10289524 0.019293096 0.67525005
-0.098251551 0.019135833 0.6753751
-0.093214296 0.019928573 0.67500007
-0.15120906 0.020031907 0.67850006
-0.1480867 0.02004667 0.67900008
-0.13709334 0.020046668 0.67900002
-0.13224334 0.020693336 0.67900002
-0.12796965 0.021651786 0.67862499
-0.12314683 0.021744605 0.67816675
-0.11726763 0.021866804 0.67814291
-0.11214818 0.021876328 0.67842859
-0.10702552 0.022181271 0.67833334
-0.10207255 0.022612069 0.67833328
-0.097503498 0.022600848 0.67799997
-0.09283518 0.02256532 0.67691672
-0.08756914 0.022537224 0.67608345
-0.082554191 0.022944236 0.67544454
-0.077125981 0.022629699 0.67536372
-0.072000012 0.022500005 0.67500013
-0.06750001 0.022500001 0.67500007
-0.063022859 0.02315167 0.67525005
-0.058242865 0.023528574 0.67500001
-0.052714288 0.023785716 0.67500001
-0.048214287 0.023785716 0.67500007
-0.022516668 0.023160478 0.67550009
-0.018007144 0.023151668 0.67525005
-0.013242858 0.023528574 0.67500001
0.0025714289 0.023785716 0.67500001
0.007714286 0.023785716 0.67500001
0.013500001 0.023785716 0.67500007
0.018000001 0.023785716 0.67500001
0.022511434 0.023154605 0.67533338
0.027070194 0.022815336 0.67670006
-0.10540667 0.025220001 0.67900002
-0.1023889 0.025220003 0.67900008
-0.096611999 0.025478667 0.67900002
-0.092473343 0.025866669 0.67900002
-0.087636188 0.026239811 0.67860001
-0.082661673 0.026478812 0.67808336
-0.077124298 0.026570953 0.67766666
-0.072246499 0.027094349 0.67731243
-0.067116551 0.027107026 0.67762494
-0.062117472 0.027250668 0.67800003
-0.057673629 0.026976194 0.67807692
-0.052895423 0.027094824 0.67731243
-0.047812521 0.027194608 0.6766001
-0.043063492 0.028016724 0.67711115
-0.036937281 0.028279323 0.67700011
-0.031757567 0.028031221 0.67744446
-0.026919784 0.027515534 0.67669231
-0.022152249 0.026861362 0.67842859
-0.017305335 0.026734287 0.67800003
-0.012891907 0.027072025 0.67675
-0.0077180364 0.027013278 0.67531264
-0.0024244695 0.027467988 0.6755386
0.0025809524 0.027087742 0.6771251
0.0077392869 0.027092384 0.67725003
0.012880954 0.027052147 0.6762501
0.017758641 0.0268698 0.6762858
0.022216463 0.027289664 0.67757148
0.02711411 0.02711292 0.67781258
-0.075660005 0.030393336 0.67900002
-0.072556004 0.030652002 0.67900002
-0.067551672 0.030705478 0.67875004
-0.061802868 0.03094762 0.67900002
-0.057553336 0.030393338 0.67900008
-0.053026669 0.03104 0.67899996
-0.047566477 0.031410094 0.67860001
-0.042674001 0.031423524 0.67889994
-0.037222046 0.030941226 0.67885715
-0.032240953 0.03094762 0.67900002
-0.027336368 0.031569093 0.67899996
-0.012673049 0.031423524 0.67889994
-0.0077518257 0.031652618 0.67825001
-0.003015873 0.030809525 0.67866671
0.0045266668 0.030393336 0.67900002
0.008406667 0.031363335 0.67899996
0.012713546 0.03124561 0.67877775
0.017196573 0.030901715 0.67880005
0.022374669 0.030652002 0.67900002
0.027121669 0.031643093 0.67808336
-0.065794289 -0.047554288 0.68400002
-0.032571428 -0.046251431 0.68400002
-0.02736 -0.046251431 0.68400002
-0.021497145 -0.046251431 0.68400002
-0.016937144 -0.046251431 0.68400002
-0.013028572 -0.046251431 0.68400002
-0.0084685721 -0.046251431 0.68400002
-0.0039085718 -0.046251431 0.68400002
0.0039052386 -0.04621762 0.68350005
0.0078034536 -0.046826314 0.68287504
0.013 -0.046800483 0.68250006
0.017550638 -0.046800163 0.68250006
0.022103216 -0.046808697 0.68262506
0.02661683 -0.046743177 0.68166679
-0.10748573 -0.041040003 0.68400002
-0.10401144 -0.04147429 0.68400002
-0.091525719 -0.041365717 0.68400002
-0.08719644 -0.040995002 0.68325001
-0.082080007 -0.041040003 0.68400002
-0.077482544 -0.041671433 0.68366671
-0.072889529 -0.042302541 0.6833334
-0.067630261 -0.04260169 0.68330777
-0.062468577 -0.042948816 0.68325001
-0.057380438 -0.04296416 0.68254548
-0.052346963 -0.043250114 0.68246156
-0.047663555 -0.043178186 0.68218184
-0.043323137 -0.04332504 0.68185723
-0.03786996 -0.043661129 0.68236369
-0.032951429 -0.043990243 0.68175
-0.026979595 -0.044224493 0.68142867
-0.022067461 -0.0434881 0.68150008
-0.01768893 -0.043658219 0.68162507
-0.013000001 -0.04420048 0.68250006
-0.008229048 -0.044395722 0.68216676
-0.002596905 -0.044136196 0.68150008
0.0019485716 -0.044817146 0.68200004
0.0077714291 -0.044685718 0.68000001
0.013349715 -0.044452958 0.68040007
0.017503493 -0.044081908 0.68066669
0.021768438 -0.044186942 0.68085724
0.025257144 -0.044685718 0.68000001
-0.14201143 -0.035828575 0.68400002
-0.13810286 -0.035828575 0.68400002
-0.12669411 -0.036328766 0.68360007
-0.12258572 -0.036667835 0.6834445
-0.11735969 -0.036879048 0.6833334
-0.11236976 -0.038216669 0.68300009
-0.10790567 -0.037819054 0.68226665
-0.10282472 -0.037657078 0.68246669
-0.097584061 -0.03838405 0.68308342
-0.092496365 -0.038477316 0.68263644
-0.087382868 -0.039150476 0.68133342
-0.082277723 -0.039124575 0.68240005
-0.07795608 -0.038979173 0.68212503
-0.073108576 -0.039149843 0.68133342
-0.067502387 -0.039591908 0.68150002
-0.062263813 -0.039562859 0.68100005
-0.16627716 -0.031828571 0.68200004
-0.16269265 -0.032577012 0.68214297
-0.1575368 -0.033133216 0.68212503
-0.15328136 -0.032578479 0.6814
-0.14730839 -0.033617336 0.6814
-0.14197405 -0.034113575 0.68225002
-0.13795073 -0.034487858 0.68325001
-0.13289143 -0.034525715 0.68400002
-0.1281451 -0.034475245 0.68300009
-0.12499049 -0.034323812 0.68000001
-0.16514286 0.018780954 0.68000001
-0.16264725 0.018273907 0.68040007
-0.15866667 0.018780954 0.68000001
-0.15413335 0.018780954 0.68000001
-0.16562858 0.020135239 0.68200004
-0.16232307 0.021929462 0.68292862
-0.15744382 0.022121787 0.68312496
-0.1523957 0.022572679 0.68315393
-0.14697437 0.022570554 0.68307698
-0.14242895 0.021933991 0.68192315
-0.13763177 0.022722859 0.68166673
-0.13264705 0.022713715 0.68140006
-0.12739544 0.023457907 0.68040007
-0.12211048 0.023599368 0.6820001
-0.11804001 0.023673335 0.68100005
-0.11314172 0.023716955 0.68040007
-0.10825969 0.023985399 0.68066669
-0.1596 0.026708573 0.68400002
-0.14711429 0.02603762 0.68350005
-0.14229064 0.026150208 0.68400007
-0.13765107 0.026196549 0.68337506
-0.13268605 0.026798256 0.68350005
-0.12743753 0.027206926 0.68339998
-0.12237905 0.027340954 0.68349993
-0.1172503 0.02745867 0.6832
-0.1124845 0.027309936 0.6827144
-0.10793404 0.027309529 0.68271428
-0.10255342 0.027724838 0.6818462
-0.097397231 0.027988747 0.68054551
-0.091995008 0.028505953 0.68024999
-0.087373726 0.028952384 0.68160009
-0.082489535 0.029228574 0.68200004
-0.078685723 0.028819051 0.68000001
-0.02072381 0.029142858 0.68000001
-0.018133335 0.029142858 0.68000001
-0.12768 0.030617144 0.68400002
-0.12181716 0.030617144 0.68400002
-0.11686629 0.030877715 0.68400002
-0.11204572 0.031268574 0.68400002
-0.10748573 0.031268574 0.68400002
-0.10267556 0.031475771 0.68377781
-0.097607069 0.031885795 0.68325007
-0.092344932 0.03186667 0.68283337
-0.087033719 0.032395113 0.68300009
-0.082256198 0.032717284 0.68314284
-0.07782799 0.032442931 0.68230778
-0.072658792 0.033232473 0.68172735
-0.067449763 0.033023737 0.68208337
-0.062570795 0.03356085 0.68199998
-0.057290047 0.033219222 0.68145454
-0.052239735 0.033869117 0.68200004
-0.048178483 0.033896577 0.68180007
-0.042846989 0.033976194 0.68166673
-0.037864342 0.033538416 0.68155557
-0.032506246 0.0335164 0.68111116
-0.026875431 0.034145527 0.68160009
-0.02208381 0.032479052 0.68200004
-0.017522302 0.032451514 0.68141669
-0.013413175 0.033967782 0.68150008
-0.0077942861 0.034424763 0.68200004
-0.0023350478 0.033347812 0.68120003
0.0024666667 0.032583497 0.6814667
0.0071420241 0.033434406 0.68162501
0.013267484 0.033869665 0.68200004
0.017715648 0.03348463 0.6817143
0.021889005 0.033219397 0.68145448
0.026708573 0.034525715 0.68400002
-0.082080007 0.035828575 0.68400002
-0.077520005 0.035828575 0.68400002
-0.07230857 0.035828575 0.68400002
-0.062537149 0.035828575 0.68400002
-0.057046536 0.036386944 0.68400007
-0.052034378 0.036998708 0.68372732
-0.047374286 0.03695548 0.68375003
-0.04296286 0.037104927 0.68350005
-0.037572931 0.037480958 0.68357152
-0.032518543 0.037642103 0.68379998
-0.027350001 0.037769765 0.68374997
-0.022148574 0.035828575 0.68400002
-0.017371431 0.036697149 0.68400002
-0.012799365 0.036662016 0.6833334
-0.0077396831 0.036673862 0.6835556
-0.0026042857 0.036466908 0.68375003
0.0023885719 0.036262862 0.68400002
0.0078171436 0.035828575 0.68400002
0.013680002 0.035828575 0.68400002
0.017328002 0.036349718 0.68400002
0.022018287 0.036089148 0.68400002
-0.029314287 0.041040003 0.68400002
0.0085304771 -0.050526671 0.68900001
0.01179524 -0.050453335 0.68800002
0.024279049 -0.050526671 0.68900001
0.026466351 -0.050964132 0.68900001
-0.095147625 -0.045277145 0.68900001
-0.09252286 -0.045277145 0.68900001
-0.088585727 -0.045277145 0.68900001
-0.082023814 -0.045277145 0.68900001
-0.076787464 -0.045594133 0.68716669
-0.072555557 -0.045755878 0.68633336
-0.068078734 -0.046040636 0.68733335
-0.062643625 -0.046689715 0.68660009
-0.058044229 -0.046268441 0.68700004
-0.052342858 -0.046454288 0.68700004
-0.046482999 -0.046671566 0.68742865
-0.042133018 -0.046792276 0.68766671
-0.037684493 -0.047035512 0.68728578
-0.032679286 -0.047710717 0.68625003
-0.02744 -0.047693338 0.68600005
-0.022452701 -0.047304131 0.68666673
-0.017006192 -0.047752228 0.68683338
-0.012435049 -0.048301723 0.68720007
-0.0076298425 -0.047740638 0.68666667
-0.0021803179 -0.047304131 0.68666673
0.0026191669 -0.047790125 0.68737507
0.0078521436 -0.049089286 0.68725002
0.012426033 -0.049047619 0.68666673
0.016999049 -0.049035717 0.68650007
0.02223786 -0.049053572 0.68675005
0.02678667 -0.049000006 0.68600005
-0.14239335 -0.040027622 0.68900001
-0.13911238 -0.040027622 0.68900001
-0.12769468 -0.040552575 0.68900007
-0.12205143 -0.040027622 0.68900001
-0.11745811 -0.040027626 0.68900001
-0.11193906 -0.041240003 0.68733335
-0.10738239 -0.042559523 0.68750006
-0.10143763 -0.042322066 0.68716669
-0.097736292 -0.042393051 0.68690008
-0.093314409 -0.042980596 0.68637514
-0.087610491 -0.043151908 0.68650007
-0.082365364 -0.043143932 0.68637502
-0.077746674 -0.043773334 0.68600005
-0.068600006 -0.043773334 0.68600005
-0.16644478 -0.03711943 0.68860006
-0.16253892 -0.037358891 0.6881668
-0.15697482 -0.037206326 0.68754554
-0.15218024 -0.036733575 0.68875009
-0.14729251 -0.037192505 0.68812501
-0.14255679 -0.037928216 0.686625
-0.1374602 -0.037477147 0.68766671
-0.13214494 -0.037221305 0.68781823
-0.12782049 -0.038247619 0.68650007
-0.12300716 -0.038930003 0.68700004
-0.11796929 -0.038234051 0.68625003
-0.11433334 -0.039853334 0.68600005
-0.10126667 -0.03854667 0.68600005
-0.16606811 -0.034651905 0.68650007
-0.16202669 -0.03462667 0.68600005
-0.15876001 -0.03462667 0.68600005
-0.15293548 -0.034639288 0.68625003
-0.14896001 -0.03462667 0.68600005
-0.16630954 0.027174763 0.68750006
-0.16244811 0.027420208 0.6877858
-0.15735735 0.027648127 0.68786681
-0.15252689 0.027496941 0.68735719
-0.14765118 0.027771344 0.68681824
-0.14253049 0.028768098 0.68650007
-0.13745159 0.02897159 0.68616676
-0.13234834 0.029084049 0.68625009
-0.16142286 0.030840954 0.68900001
-0.15682954 0.030840954 0.68900001
-0.15207215 0.031825237 0.68900007
-0.1472054 0.031715877 0.68900007
-0.14213087 0.031365905 0.68900007
-0.1376667 0.032123499 0.68833345
-0.13208914 0.032462455 0.68757159
-0.12758616 0.032934077 0.6870001
-0.12262529 0.032872386 0.68654543
-0.11777087 0.033370286 0.68700004
-0.11245524 0.033998575 0.68650007
-0.10722476 0.033998575 0.68650001
-0.10286496 0.0341141 0.68620008
-0.098035477 0.034639288 0.68625009
-0.092773348 0.03462667 0.68600005
-0.089506671 0.03462667 0.68600005
-0.11614572 0.036090478 0.68900001
-0.11286478 0.036746673 0.68900007
-0.10757548 0.036733579 0.68875009
-0.10215958 0.037274033 0.68881828
-0.097116187 0.037402865 0.68900007
-0.092468388 0.03659448 0.6886
-0.087718263 0.037313815 0.68733335
-0.082300752 0.038136296 0.68644452
-0.077037789 0.037756085 0.68744451
-0.072222456 0.038026806 0.68671435
-0.067795239 0.037136544 0.68627274
-0.062591352 0.037745804 0.68654555
-0.057748999 0.039007831 0.68644452
-0.052397337 0.039592002 0.68600005
-0.047432005 0.039592002 0.68600005
-0.04246667 0.039853334 0.68600005
-0.0392 0.039853334 0.68600005
-0.033320002 0.039853334 0.68600005
-0.022213336 0.038546674 0.68599999
-0.01715274 0.039043933 0.68612504
-0.012685525 0.039365526 0.68660003
-0.007935375 0.039301634 0.68614298
-0.0026133333 0.039200004 0.68599999
0.0027449524 0.038819622 0.68620008
0.0078438101 0.038566038 0.68633336
0.012289905 0.038308382 0.68640012
0.016988859 0.038813811 0.68610001
0.02227593 0.038670741 0.68609095
0.027445002 0.037900358 0.68612498
-0.097116202 0.040027622 0.68900001
-0.086617142 0.040027622 0.68900001
-0.08311747 0.040683813 0.68900007
-0.078742862 0.040027622 0.68900001
-0.071524769 0.040027626 0.68900001
-0.067850105 0.040552571 0.68900007
-0.063431755 0.040683813 0.68900007
-0.057041775 0.042055652 0.68842864
-0.052374851 0.042556114 0.68741673
-0.047165241 0.042581435 0.68783349
-0.042328387 0.042722862 0.68800014
-0.037789352 0.042433687 0.68736374
-0.032516509 0.042266563 0.68744451
-0.027349094 0.042722594 0.68818188
-0.022283655 0.042602073 0.6881668
-0.016667239 0.041602474 0.68900007
-0.012449525 0.041936196 0.68800008
-0.0078613339 0.042317148 0.68780011
-0.0026193652 0.042561121 0.68750012
0.0026180954 0.041905243 0.68750012
0.0080911117 0.042201586 0.6887778
0.01203016 0.042214923 0.68900007
0.017054049 0.04198119 0.68875003
0.022442143 0.042100243 0.68800008
0.02729704 0.042293657 0.68788898
-0.050526671 0.045277145 0.68900001
-0.049214289 0.045277145 0.68900001
-0.03674667 0.045277145 0.68900001
-0.033465717 0.045277145 0.68900001
-0.026903812 0.045802098 0.68900007
0.026903812 0.045277145 0.68900001
-0.072043814 -0.050893337 0.69400001
-0.057502862 -0.050893337 0.69400001
-0.046266671 -0.050893337 0.69400001
-0.042285003 -0.050875004 0.69375002
-0.037013337 -0.050893337 0.69400001
-0.032325398 -0.051456194 0.69266671
-0.027710715 -0.051462144 0.69275004
-0.022433337 -0.051462147 0.69274998
-0.016864097 -0.051780671 0.6917001
-0.012514922 -0.051382225 0.69166672
-0.0076904763 -0.051635243 0.69211113
-0.0025052384 -0.051810384 0.69210005
0.0026336513 -0.052016508 0.69133329
0.0076837037 -0.05246339 0.69144446
0.012864524 -0.051792625 0.69275004
0.017128574 -0.051388815 0.69175005
0.022404842 -0.052390557 0.6919167
0.025640955 -0.053254291 0.69033337
-0.16457716 -0.045605719 0.69400001
-0.13020763 -0.045605719 0.69400001
-0.12744191 -0.04556191 0.69333333
-0.12293715 -0.045605719 0.69400001
-0.11764953 -0.045605719 0.69400001
-0.11222972 -0.045870103 0.69400001
-0.10802644 -0.045919769 0.69375002
-0.10259315 -0.045817528 0.69320005
-0.097539239 -0.046794292 0.69200003
-0.09223263 -0.047435716 0.69175005
-0.086976506 -0.047263928 0.6924445
-0.08287552 -0.047238782 0.69300002
-0.077893615 -0.04794341 0.69228572
-0.072482266 -0.048762504 0.69187498
-0.067785718 -0.048371434 0.69100004
-0.061618101 -0.048771434 0.69200003
-0.057513814 -0.048735715 0.69150007
-0.052571431 -0.047971431 0.69000006
-0.047555048 -0.048874289 0.69160002
-0.042208098 -0.049464289 0.69250005
-0.037582543 -0.049452387 0.6923334
-0.032930002 -0.04939286 0.69150001
-0.027630717 -0.049339287 0.69075006
-0.02237762 -0.049357146 0.69100004
-0.017742859 -0.049285721 0.69000006
-0.012485716 -0.049285717 0.69000006
-0.0076666675 -0.049285721 0.69000006
-0.0026314287 -0.049321428 0.69050002
0.0013142858 -0.049285717 0.69000006
-0.16571954 -0.040772863 0.69050002
-0.16246548 -0.041497074 0.69158334
-0.15759413 -0.041544423 0.69236374
-0.15228237 -0.04206267 0.69220006
-0.1473292 -0.041989464 0.69192863
-0.14235239 -0.042445149 0.69200003
-0.13727279 -0.041986749 0.69241667
-0.1323726 -0.042151637 0.69150001
-0.12741069 -0.042909529 0.69077784
-0.12240493 -0.042777784 0.6910001
-0.11740944 -0.04287564 0.69258332
-0.11246043 -0.043645717 0.69285715
-0.1071143 -0.044028573 0.69000006
-0.10317144 -0.044028573 0.69000006
-0.15968573 -0.038771432 0.69000006
-0.15245715 -0.038771432 0.69000006
-0.14917144 -0.038771432 0.69000006
-0.13602857 -0.038771432 0.69000006
-0.13471429 -0.038771432 0.69000006
-0.1669143 0.029571431 0.69000006
-0.16494286 0.029571431 0.69000006
-0.16670124 0.032777689 0.6902858
-0.16307628 0.033020448 0.69023091
-0.15793626 0.033327628 0.6903078
-0.15267716 0.033855479 0.69025004
-0.14694844 0.034272522 0.69014293
-0.14287634 0.033911433 0.69042861
-0.13800001 0.034828573 0.69000006
-0.13405715 0.034828573 0.69000006
-0.12617144 0.034828573 0.69000006
-0.12354286 0.034828573 0.69000006
-0.16589907 0.037674289 0.69400001
-0.16253595 0.037661195 0.69375008
-0.15736331 0.037765373 0.69345468
-0.15220191 0.037612863 0.69283336
-0.14737973 0.037473623 0.69270003
-0.14247455 0.037599131 0.69258332
-0.1375566 0.03772058 0.69239998
-0.13265169 0.037362859 0.6904546
-0.12771453 0.037525956 0.69125003
-0.12249588 0.037539531 0.69149995
-0.1175017 0.037755452 0.69011116
-0.11237144 0.038771432 0.69000006
-0.10777144 0.038771432 0.69000006
-0.10448572 0.038771432 0.69000006
-0.092657149 0.038442858 0.69000006
-0.16325524 0.040318098 0.69400001
-0.15730667 0.040318098 0.69400001
-0.15400192 0.040318098 0.69400001
-0.14276573 0.040318098 0.69400001
-0.13787469 0.040582478 0.69400001
-0.13209572 0.040729687 0.69350004
-0.12729944 0.040846858 0.69400001
-0.12269299 0.041498527 0.69363648
-0.11740731 0.042215899 0.69256246
-0.11235462 0.042383745 0.69221431
-0.10768192 0.0421708 0.69253355
-0.10255197 0.041996263 0.69113326
-0.097347572 0.042378984 0.69064295
-0.092116669 0.042111196 0.69087505
-0.08760763 0.042488959 0.69060004
-0.082621068 0.04317366 0.69033337
-0.077370882 0.042347897 0.69014293
-0.072477885 0.04253649 0.69038469
-0.066955559 0.043152384 0.69000006
-0.062428579 0.043089803 0.69000012
-0.058748573 0.043502863 0.69000006
-0.033514287 0.043590479 0.69000006
-0.017367348 0.043465313 0.69000012
-0.012485716 0.044028573 0.69000006
-0.007885715 0.044028573 0.69000006
0.0026285716 0.044028573 0.69000006
0.0072285719 0.044028573 0.69000006
0.013361907 0.043590479 0.69000006
0.017085716 0.044028573 0.69000006
0.022014288 0.043700002 0.69000006
0.025628572 0.044028573 0.69000006
-0.10641334 0.045605719 0.69400001
-0.10204382 0.045903336 0.69350004
-0.097538196 0.046758968 0.69327277
-0.092258684 0.047384761 0.69293332
-0.087104172 0.047512971 0.69287497
-0.082685113 0.047378104 0.69354546
-0.077778794 0.04671732 0.69263643
-0.072608508 0.046867229 0.69308341
-0.067295805 0.046844687 0.69274998
-0.062489353 0.047153253 0.69200009
-0.057689533 0.047246132 0.69171441
-0.052825149 0.04755874 0.69160008
-0.04728318 0.047549471 0.69146675
-0.042117983 0.047385361 0.69100004
-0.037648287 0.047786769 0.69110006
-0.03278235 0.047883742 0.69161552
-0.027960781 0.048081648 0.69154561
-0.022371035 0.046720561 0.69091672
-0.01721946 0.047141366 0.69157147
-0.012515875 0.046771113 0.69166672
-0.0079037305 0.046765953 0.69158334
-0.0025009522 0.04726756 0.69120014
0.002633512 0.047407087 0.69131255
0.0079010725 0.047411315 0.69137502
0.012506986 0.047396511 0.69116676
0.017123215 0.047419764 0.69150007
0.02238939 0.047132526 0.6914286
0.026849335 0.047385145 0.6910001
-0.057502862 0.050893337 0.69400001
-0.042300954 0.050893337 0.69400001
-0.036881145 0.05115772 0.69400001
-0.032386668 0.051223814 0.69400001
