# .PCD v0.7 - Point Cloud Data file format
VERSION 0.7
FIELDS x y z
SIZE 4 4 4
TYPE F F F
COUNT 1 1 1
WIDTH 1327
HEIGHT 1
VIEWPOINT 0 0 0 1 0 0 0
POINTS 1327
DATA ascii
-0.1373454 -0.010691747 0.64766669
-0.13206857 -0.010491429 0.648
-0.12713774 -0.010728572 0.64740002
-0.12333287 -0.010483334 0.64750004
-0.11540572 -0.010491429 0.648
-0.11170287 -0.010491429 0.648
-0.14782354 -0.0086953752 0.64557147
-0.14214112 -0.0088071441 0.64516675
-0.13756686 -0.0082449531 0.64599997
-0.13248108 -0.0076417369 0.64629418
-0.12759322 -0.007201633 0.6454286
-0.12250047 -0.007412632 0.64568424
-0.11728873 -0.007360674 0.6471765
-0.11290779 -0.0074038105 0.64783329
-0.13743249 -0.0017311688 0.64500004
-0.13254425 -0.0022279166 0.64581251
-0.12752102 -0.0024228573 0.64611769
-0.12248398 -0.0028468452 0.64668751
-0.11782206 -0.0036127893 0.64771438
-0.1135543 -0.0043200003 0.648
-0.14691679 0.0032317857 0.64612502
-0.14237027 0.0027929673 0.64584619
-0.13764355 0.0024988793 0.64605886
-0.13344845 0.0013216328 0.64742863
-0.1478724 0.0074024508 0.64771426
-0.14244953 0.0061671427 0.64749998
-0.13878509 0.0055514295 0.64766669
-0.14985001 0.011100477 0.64750004
-0.15609811 -0.01554762 0.65300006
-0.15293048 -0.016163573 0.65275002
-0.14798489 -0.016166549 0.65287501
-0.14301109 -0.016166549 0.65287507
-0.13798393 -0.016160596 0.65262502
-0.13298573 -0.016157622 0.65249997
-0.12745126 -0.016164763 0.65280002
-0.12375905 -0.01554762 0.65300006
-0.11194286 -0.01554762 0.65300006
-0.10199238 -0.01554762 0.65300006
-0.097017147 -0.016169524 0.65300006
-0.09245652 -0.015962224 0.65300012
-0.15237296 -0.012922302 0.65125
-0.14776625 -0.013433969 0.65100002
-0.14255619 -0.013264762 0.65080005
-0.13765846 -0.01313013 0.65081823
-0.13259548 -0.01301262 0.65058339
-0.12760952 -0.013128139 0.65072733
-0.12257387 -0.012586939 0.65142858
-0.11758675 -0.01250592 0.65178573
-0.11275186 -0.012401362 0.65100002
-0.10778414 -0.012464035 0.65241188
-0.10285702 -0.012247757 0.65228575
-0.097489528 -0.01241905 0.65200013
-0.09200608 -0.012433574 0.65275002
-0.088517785 -0.012438095 0.65300012
-0.11080953 -0.007428572 0.65000004
-0.10776404 -0.0073343422 0.65141177
-0.10301171 -0.0077185049 0.65214294
-0.097548842 -0.008076827 0.65240008
-0.093445085 -0.0089092068 0.65266675
-0.12133335 -0.00061904767 0.65000004
-0.11731694 -0.0015833863 0.65100002
-0.11251309 -0.0021072382 0.65126669
-0.10832104 -0.0030026194 0.65241671
-0.13557144 0.0043333336 0.65000004
-0.13215603 0.0029849354 0.65036374
-0.12773184 0.0024816073 0.65106249
-0.12282285 0.0023291665 0.65175009
-0.11700572 0.0008704763 0.65280008
-0.11231601 0.00087066676 0.65300006
-0.14640479 0.008357143 0.65000004
-0.14273655 0.008688692 0.65162498
-0.13755348 0.0077126538 0.65142858
-0.13293476 0.0074559534 0.65224999
-0.12768668 0.0066453484 0.65253848
-0.12292986 0.0060117468 0.65300006
-0.14776975 0.012330411 0.65192866
-0.14292859 0.011807779 0.65250003
-0.13808115 0.0117 0.6528182
-0.13495333 0.011816191 0.65300006
-0.14801334 0.01554762 0.65300006
-0.15290669 -0.020680001 0.65800005
-0.14852002 -0.020680001 0.65800011
-0.13598667 -0.020680001 0.65800005
-0.13285334 -0.020680001 0.65800005
-0.12846668 -0.020680001 0.65800011
-0.12282667 -0.020680001 0.65800005
-0.11844002 -0.020680001 0.65800011
-0.11468001 -0.020680001 0.65800005
-0.15606254 -0.01896159 0.65633339
-0.15232573 -0.01872905 0.65550005
-0.14744286 -0.018743334 0.65600002
-0.14236465 -0.018732738 0.65562505
-0.13734287 -0.01872905 0.65550005
-0.13237347 -0.018732738 0.6556251
-0.12735429 -0.018729048 0.65550005
-0.12235264 -0.017622987 0.65613335
-0.11751126 -0.017503273 0.65631247
-0.11247168 -0.018121509 0.65608341
-0.10752013 -0.017505717 0.65637505
-0.10251366 -0.018128891 0.65633345
-0.097462863 -0.018743807 0.65600008
-0.0922563 -0.018258203 0.65600002
-0.0874753 -0.017497322 0.65606248
-0.082369596 -0.017244017 0.65664291
-0.077582538 -0.017229367 0.6578334
-0.072693333 -0.017546667 0.65800005
-0.067680001 -0.017546669 0.65800005
-0.06423334 -0.01692 0.65800005
-0.12101905 -0.01434762 0.65500003
-0.10791905 -0.01434762 0.65500003
-0.086486109 -0.01247962 0.65520006
-0.082491606 -0.012497678 0.65618753
-0.07768435 -0.012529345 0.65781254
-0.072789215 -0.012652827 0.65773344
-0.068786867 -0.012904954 0.65780008
-0.063920006 -0.014413334 0.65800005
-0.10168096 -0.0056142863 0.65500003
-0.097387619 -0.0056185722 0.65550005
-0.092074223 -0.0071552387 0.65561545
-0.08753179 -0.0075011905 0.65650004
-0.082833171 -0.0082544591 0.65754551
-0.078646675 -0.0090866676 0.65800005
-0.10620572 -0.001872109 0.65542859
-0.1025284 -0.0024991073 0.65643752
-0.097653486 -0.0027712933 0.65728581
-0.092968769 -0.0033826667 0.65780008
-0.089613341 -0.0043866672 0.65800005
-0.12087239 0.0039530164 0.6553334
-0.11754382 0.0030173017 0.65533346
-0.11223993 0.0032367972 0.65572739
-0.10818116 0.0018761907 0.65660006
-0.10286687 0.00087714288 0.65780008
-0.099640004 0.0006266667 0.65800005
-0.1303762 0.0093571432 0.65500003
-0.12690541 0.0089460332 0.6553334
-0.12226903 0.0078379493 0.65630776
-0.11782052 0.007078683 0.65723085
-0.11317228 0.0066086776 0.65733337
-0.10966668 0.0056400006 0.65800005
-0.14597145 0.01434762 0.65500003
-0.14222857 0.01434762 0.65500003
-0.1372043 0.013742065 0.65583342
-0.13251184 0.012503035 0.65631253
-0.12783805 0.012248506 0.65707147
-0.12383954 0.011486191 0.65783334
-0.15068239 0.018757619 0.65649998
-0.14754452 0.017626667 0.65626675
-0.14259413 0.017513154 0.6566875
-0.13811238 0.016902339 0.65727282
-0.13348001 0.015666667 0.65800011
-0.15102668 0.020680001 0.65800005
-0.14789334 0.021097779 0.65800005
-0.14382002 0.020993335 0.65800005
-0.15975145 -0.025888573 0.66300005
-0.15280573 -0.025888573 0.66300005
-0.14901716 -0.025888573 0.66300005
-0.14080858 -0.025888573 0.66300005
-0.13719636 -0.026303019 0.66283339
-0.13295366 -0.026296511 0.66266674
-0.12944287 -0.025888573 0.66300005
-0.11555143 -0.025888573 0.66300005
-0.10608001 -0.025888573 0.66300005
-0.15740938 -0.02322413 0.66200012
-0.15236422 -0.023296431 0.6610834
-0.14728735 -0.022958778 0.66171438
-0.14246108 -0.022694524 0.66187507
-0.1374319 -0.022936262 0.66107148
-0.13211611 -0.023278652 0.66058338
-0.12720405 -0.023116559 0.66146153
-0.121894 -0.02304543 0.66110009
-0.11700191 -0.023092018 0.66076928
-0.11211798 -0.022677384 0.66137505
-0.10721149 -0.022705177 0.66218764
-0.10222261 -0.022563558 0.66173333
-0.097360484 -0.021818573 0.66210014
-0.092784539 -0.021145001 0.66275001
-0.08708822 -0.021456787 0.66262507
-0.082237504 -0.022408746 0.66190922
-0.077520519 -0.022060148 0.66176939
-0.072320879 -0.022075955 0.66225016
-0.067893751 -0.02136939 0.66271436
-0.062479369 -0.020826669 0.66266674
-0.057842009 -0.021665081 0.66255563
-0.053190134 -0.021976626 0.66272736
-0.048620008 -0.022520956 0.66300005
-0.092400007 -0.019485716 0.66000003
-0.084228575 -0.019485716 0.66000003
-0.078257143 -0.018542858 0.66000003
-0.062388342 -0.017825954 0.66058344
-0.057877444 -0.017614704 0.66056252
-0.053117465 -0.017789844 0.66240007
-0.049882859 -0.019574286 0.66300005
-0.071028575 -0.010685715 0.66000003
-0.067399055 -0.01240459 0.66027278
-0.062812254 -0.012327349 0.66142869
-0.058169015 -0.0130496 0.66223091
-0.054513335 -0.014101906 0.66300005
-0.082194142 -0.0058709532 0.66050005
-0.077130705 -0.0070191943 0.66092318
-0.072891429 -0.0080008795 0.66200012
-0.067739055 -0.0092561916 0.66266674
-0.063774288 -0.0094714295 0.66300005
-0.098057151 -0.00062857149 0.66000003
-0.09203168 -0.0011009525 0.66075003
-0.087405533 -0.0023918096 0.66153342
-0.082506679 -0.0030671749 0.66200012
-0.077034295 -0.0044200001 0.66300005
-0.073877148 -0.0044200001 0.66300005
-0.10664275 0.0036179761 0.66062504
-0.10221588 0.0031531756 0.66183341
-0.097209096 0.0026497149 0.66193342
-0.093168929 0.0015775 0.66212505
-0.083980009 0.00063142861 0.66300005
-0.11704548 0.0094392858 0.66075003
-0.11169651 0.0084744981 0.66177779
-0.10759165 0.0074202209 0.66184628
-0.10292286 0.006314286 0.66300005
-0.094082862 0.0056828577 0.66300005
-0.12634288 0.014457144 0.66000003
-0.12178778 0.012930476 0.66100013
-0.11749893 0.012345717 0.6622858
-0.11245691 0.012098334 0.66275012
-0.1088162 0.011576192 0.66300005
-0.13673753 0.018725358 0.66087502
-0.13204846 0.017902313 0.66114295
-0.1273973 0.017204469 0.66146165
-0.12248096 0.016313335 0.66242868
-0.11934001 0.015785715 0.66300005
-0.15060794 0.02331778 0.66166675
-0.14733703 0.023612265 0.66112506
-0.14215349 0.022944357 0.66128582
-0.13846356 0.022251023 0.66214293
-0.13449429 0.020837145 0.66300005
-0.15091144 0.027151432 0.66300005
-0.14953572 0.026500478 0.66250002
-0.14223716 0.026125524 0.66260004
-0.13912478 0.026309526 0.66300005
-0.14838572 0.030940002 0.66300005
-0.11596001 -0.031220002 0.66900003
-0.11404858 -0.031220002 0.66900003
-0.10512858 -0.031220002 0.66900003
-0.10321715 -0.031220002 0.66900003
-0.15743291 -0.02738338 0.66581815
-0.15245667 -0.028588101 0.66700006
-0.14686309 -0.027774438 0.6662308
-0.14251986 -0.028272383 0.66646153
-0.13782562 -0.028835978 0.66622221
-0.13234434 -0.028802862 0.66663641
-0.12740211 -0.027650863 0.66686666
-0.12213271 -0.027860641 0.6673333
-0.11773933 -0.028032389 0.66671437
-0.11271143 -0.027943097 0.66675001
-0.1079521 -0.028076634 0.66646153
-0.10262073 -0.028037766 0.66635293
-0.097908996 -0.027703948 0.66757149
-0.092784196 -0.027238479 0.66820008
-0.087778337 -0.027989641 0.66787499
-0.08277151 -0.027684156 0.66707146
-0.077596046 -0.027350634 0.66783345
-0.072533272 -0.027537951 0.66761541
-0.067368902 -0.027330799 0.66733336
-0.062354285 -0.026906034 0.6673333
-0.057236433 -0.026710715 0.66775
-0.051928997 -0.026919896 0.66766673
-0.047156725 -0.026937671 0.66811115
-0.042433716 -0.026632575 0.66900009
-0.035680003 -0.026122859 0.66900003
-0.032461271 -0.02673397 0.66833347
-0.02845905 -0.026547622 0.66900009
-0.023574287 -0.026122859 0.66900003
-0.12413334 -0.024700001 0.66500002
-0.10070001 -0.024700001 0.66500002
-0.097255886 -0.024314288 0.66600001
-0.092383265 -0.023361189 0.66591668
-0.087433577 -0.024075715 0.66525
-0.082544453 -0.024700001 0.66500008
-0.077296436 -0.024709286 0.66525
-0.072200008 -0.024700001 0.66500002
-0.066753335 -0.023560002 0.66500002
-0.062273342 -0.023561994 0.66536361
-0.057479374 -0.02430254 0.6656667
-0.051333342 -0.023992112 0.66542858
-0.047012776 -0.022927066 0.66558331
-0.042402189 -0.022829525 0.6668824
-0.037198395 -0.022734467 0.66768742
-0.032651793 -0.022958463 0.66823083
-0.028034292 -0.022937147 0.66899997
-0.024338858 -0.023829145 0.66900009
-0.05040691 -0.016801666 0.66575003
-0.047077022 -0.017636508 0.6662001
-0.042261489 -0.017792085 0.6673125
-0.037159562 -0.018554725 0.66830778
-0.032494288 -0.019114286 0.66900009
-0.029308572 -0.01975143 0.66900003
-0.056636579 -0.011023238 0.66520005
-0.051944893 -0.012572573 0.66679996
-0.04776942 -0.01351672 0.66877782
-0.042688575 -0.013380001 0.66900003
-0.070933342 -0.0063333339 0.66500002
-0.067024074 -0.0068574897 0.66563636
-0.062227078 -0.0076168706 0.66671437
-0.057367276 -0.0083757583 0.66727281
-0.053520001 -0.0095571438 0.66900003
-0.081700005 -0.00063333346 0.66500008
-0.07733389 -0.0019008735 0.66558331
-0.072195694 -0.0024096514 0.66613334
-0.067370959 -0.0025414284 0.66737497
-0.06403286 -0.0035042861 0.66900003
-0.091878951 0.0031686774 0.66533333
-0.087465838 0.0025361909 0.66550004
-0.082395196 0.0026680636 0.66653335
-0.077788383 0.0022736739 0.66792858
-0.07266219 0.0011827213 0.66842866
-0.067537151 0.00063714292 0.66900003
-0.10587271 0.0082422234 0.6656667
-0.10259728 0.0077885715 0.66557145
-0.097661927 0.0076116663 0.66587496
-0.092662998 0.0077561908 0.6673333
-0.088198446 0.0069993087 0.66800004
-0.083465725 0.0057342863 0.66900003
-0.11653334 0.014566667 0.66500002
-0.11241668 0.014250001 0.66500002
-0.10741144 0.012921028 0.66553849
-0.10257995 0.012850106 0.66716665
-0.09786538 0.011980694 0.66845465
-0.093341433 0.011150002 0.66900003
-0.12736319 0.019643176 0.66533339
-0.12293927 0.018811429 0.66577774
-0.11779106 0.017879048 0.6656667
-0.11284995 0.017753158 0.66568762
-0.10786444 0.017161429 0.66735715
-0.10283487 0.016438287 0.66900009
-0.14756668 0.024700001 0.66500002
-0.13713562 0.023321524 0.66539997
-0.13242686 0.022949528 0.66605884
-0.12739936 0.022877326 0.66718745
-0.12266719 0.021920349 0.6680001
-0.11787143 0.021344287 0.66900003
-0.11341143 0.021025715 0.66900003
-0.15010001 0.029133335 0.66500002
-0.14732414 0.028044764 0.66619998
-0.1428023 0.028892387 0.66820008
-0.13727382 0.027329052 0.66729993
-0.13252573 0.026122859 0.66900003
-0.12870286 0.026122859 0.66900003
-0.14778028 0.032102454 0.66842866
-0.1439943 0.031220002 0.66900003
-0.16111811 -0.035304762 0.67400002
-0.15790859 -0.035304762 0.67400002
-0.15341525 -0.035304762 0.67400002
-0.16191085 -0.032832026 0.67262501
-0.15744033 -0.032641746 0.67200005
-0.15224351 -0.032625876 0.67166662
-0.147328 -0.03264191 0.67199993
-0.14261229 -0.032490384 0.67150003
-0.13781926 -0.032219049 0.67120004
-0.13261935 -0.03185524 0.67085719
-0.1278017 -0.031755768 0.67133337
-0.12297145 -0.031755771 0.67133331
-0.11769934 -0.032417145 0.67114288
-0.11245064 -0.032754373 0.67190909
-0.10770885 -0.032763209 0.67209089
-0.1016513 -0.032424085 0.67128581
-0.097206518 -0.032617461 0.67150009
-0.092672922 -0.032505084 0.67211109
-0.087581664 -0.031965476 0.67124999
-0.082361698 -0.032193441 0.67155552
-0.077689394 -0.031861633 0.67100006
-0.072864406 -0.03195893 0.67112499
-0.067628756 -0.031459916 0.67163634
-0.062827706 -0.031270131 0.67254549
-0.057829879 -0.031274892 0.67263639
-0.052596193 -0.030789051 0.6735
-0.047146674 -0.030668577 0.67285717
-0.042286672 -0.030755479 0.67275
-0.037833657 -0.030139685 0.67333335
-0.16016191 -0.029990477 0.67000002
-0.15760952 -0.029990477 0.67000002
-0.1493143 -0.029990477 0.67000002
-0.12570477 -0.029990477 0.67000002
-0.12315239 -0.029990477 0.67000002
-0.095714293 -0.029990477 0.67000002
-0.09303429 -0.029224766 0.67000002
-0.0816762 -0.029990477 0.67000002
-0.07784763 -0.029990477 0.67000002
-0.072530165 -0.029990477 0.67000002
-0.069552384 -0.029990477 0.67000002
-0.062320642 -0.02871429 0.67000002
-0.057428572 -0.028714288 0.67000002
-0.052961912 -0.02871429 0.67000002
-0.047030799 -0.028728575 0.67033339
-0.041849393 -0.027991161 0.67014295
-0.037298098 -0.027718861 0.67060006
-0.032223813 -0.029033333 0.67000002
-0.02871429 -0.028926989 0.67000002
-0.024885716 -0.026161907 0.67000002
-0.017973334 -0.025676193 0.67400002
-0.022539049 -0.022412764 0.67240006
-0.037009526 -0.015952382 0.67000002
-0.031957023 -0.016617503 0.67112505
-0.02748563 -0.018187104 0.67118186
-0.023695715 -0.019533811 0.67250001
-0.046417966 -0.011764083 0.67028582
-0.042117398 -0.012731873 0.67073345
-0.037450623 -0.01313883 0.67176926
-0.033593018 -0.014335874 0.67400002
-0.060619052 -0.0057428577 0.67000002
-0.057095814 -0.0060032383 0.67060006
-0.052246056 -0.0073966673 0.6713571
-0.047363993 -0.007678275 0.67206246
-0.042660575 -0.0084546674 0.67259997
-0.039156195 -0.0096285725 0.67400002
-0.062016837 -0.0022334922 0.67016673
-0.057576787 -0.0025579764 0.67174995
-0.053260107 -0.0033506879 0.67377782
-0.049426671 -0.0044933334 0.67400002
-0.076628104 0.00447 0.67050004
-0.072803915 0.0036231752 0.67122221
-0.067856513 0.0032030158 0.67216671
-0.062827706 0.0018062338 0.67254543
-0.058724448 0.0014952383 0.67266673
-0.087215625 0.0090666674 0.67040008
-0.082545288 0.0082262876 0.6712001
-0.077737212 0.0074105449 0.67221433
-0.073094048 0.0064121434 0.67324996
-0.068041906 0.0057771434 0.67400002
-0.096664391 0.014429715 0.67040008
-0.09220089 0.013229598 0.67123079
-0.087749094 0.012270698 0.67253846
-0.082805723 0.010912383 0.67400002
-0.10682731 0.019365398 0.67033339
-0.10189567 0.018543985 0.67136365
-0.097695254 0.017405396 0.67266667
-0.092720732 0.016844049 0.67374992
-0.089224771 0.016047619 0.67400002
-0.12211921 0.024466511 0.67016673
-0.11754954 0.02325543 0.67080003
-0.1127868 0.02243036 0.67287505
-0.1077193 0.021801192 0.67324996
-0.10348 0.021671239 0.67320007
-0.13696668 0.029182542 0.671
-0.13262042 0.028020956 0.67085719
-0.12747771 0.027718669 0.67060006
-0.12235574 0.027597893 0.6716429
-0.11773416 0.026112385 0.67342865
-0.11490096 0.025034288 0.67400002
-0.1462874 0.033537861 0.67075002
-0.14237906 0.032848191 0.671
-0.13737097 0.032014981 0.67227775
-0.1322279 0.031528659 0.67309088
-0.12728445 0.03070032 0.67311108
-0.12234706 0.030426288 0.67400002
-0.14716028 0.037100326 0.6724
-0.14245497 0.036736853 0.67307687
-0.13826631 0.03581829 0.67400002
-0.14763811 0.040440004 0.67400002
-0.16274446 -0.040740006 0.67900008
-0.15739869 -0.040998667 0.67900002
-0.15261334 -0.040740002 0.67900002
-0.14938001 -0.040740002 0.67900002
-0.16607097 -0.037479527 0.67850006
-0.16252777 -0.037643131 0.67642868
-0.15734807 -0.038123816 0.67636371
-0.15238832 -0.037595052 0.6766668
-0.1476341 -0.037303474 0.6769287
-0.14277619 -0.036663812 0.67733335
-0.13746235 -0.036788058 0.67763638
-0.13275161 -0.036665544 0.67754549
-0.12801574 -0.036522191 0.67750001
-0.12294054 -0.036387939 0.67822224
-0.11756405 -0.036174051 0.67825001
-0.11227144 -0.036134765 0.67750001
-0.10726962 -0.03653267 0.67770004
-0.102609 -0.036692806 0.67855555
-0.097245827 -0.036478836 0.67722231
-0.092755169 -0.036669958 0.67763638
-0.087996714 -0.037018102 0.67823076
-0.082560092 -0.036767066 0.67725009
-0.077484526 -0.03616048 0.67799997
-0.07247375 -0.036098506 0.67857146
-0.067154288 -0.035514288 0.67800003
-0.061819211 -0.035971589 0.67850006
-0.057641547 -0.036652029 0.67812502
-0.053245049 -0.03657496 0.6785
-0.048489526 -0.036298234 0.67885715
-0.043326672 -0.035566669 0.67900008
-0.026513334 -0.035566669 0.67900002
-0.022633335 -0.035566669 0.67900002
-0.14850001 -0.034071431 0.67500001
-0.14335716 -0.034071431 0.67500001
-0.13692859 -0.034071431 0.67500007
-0.13242859 -0.034071431 0.67500001
-0.12728572 -0.034071431 0.67500001
-0.12218834 -0.034084052 0.67524999
-0.11828572 -0.034071431 0.67500001
-0.10350001 -0.034071431 0.67500007
-0.091487154 -0.034147143 0.67650002
-0.087688573 -0.034172386 0.67700005
-0.082541592 -0.034088258 0.67533338
-0.077255718 -0.034121908 0.676
-0.072053336 -0.034096669 0.67550004
-0.066881195 -0.034084052 0.67525005
-0.062062293 -0.033935431 0.67740005
-0.056956429 -0.033787861 0.67575002
-0.052790485 -0.033478573 0.67600006
-0.047871538 -0.033275772 0.67622221
-0.042585716 -0.033553813 0.67750007
-0.037234437 -0.032676049 0.67676938
-0.032684766 -0.032255873 0.67733335
-0.027716352 -0.032661114 0.67683339
-0.022625001 -0.033937857 0.67875004
-0.0064380961 -0.03025905 0.67600006
-0.0034771431 -0.031058479 0.6766001
-0.016083334 -0.025733812 0.67550004
-0.012745271 -0.026905656 0.67586672
-0.0077254772 -0.027039407 0.676
-0.0029303303 -0.027477 0.67823076
-0.017839117 -0.022161566 0.67592871
-0.012904407 -0.021936191 0.67750001
-0.0080325855 -0.022159392 0.67864287
-0.0040093339 -0.022892002 0.67900002
-0.026045002 -0.01639881 0.67525005
-0.021716032 -0.017523017 0.67733335
-0.017923573 -0.018569525 0.67825001
-0.013321334 -0.018494669 0.67900002
-0.0097000003 -0.018753335 0.67900002
-0.035821274 -0.011367938 0.67566675
-0.031843081 -0.012528353 0.67600012
-0.027106609 -0.012906609 0.67768753
-0.023263097 -0.012923096 0.6785
-0.041836672 -0.0064357147 0.6758334
-0.037402451 -0.0077375523 0.67714292
-0.032309208 -0.0083998423 0.67850006
-0.027658204 -0.0086924871 0.67888886
-0.023280002 -0.0097000003 0.67900002
-0.051953062 -0.0015623131 0.67585725
-0.047549978 -0.0024458417 0.6765334
-0.04273276 -0.0027090162 0.67780006
-0.038134292 -0.0038777783 0.67866671
-0.062908009 0.0042455243 0.67540008
-0.057332385 0.003222286 0.67640013
-0.053371511 0.0021535717 0.67791665
-0.047853336 0.0010777778 0.67900002
-0.044188894 0.0010777779 0.67900008
-0.075857148 0.0096428581 0.67500001
-0.071645625 0.0084898099 0.67530006
-0.066792317 0.008005376 0.67621446
-0.062117089 0.0078797461 0.67800009
-0.057848029 0.0063666678 0.67814291
-0.05496667 0.0064666672 0.67900002
-0.086174525 0.014148334 0.67525005
-0.082314871 0.013333044 0.6764617
-0.077342868 0.012893096 0.67675
-0.072285898 0.012910892 0.67768753
-0.067178816 0.011627382 0.67825001
-0.064020008 0.011640001 0.67900002
-0.096785486 0.019614525 0.67524999
-0.092662871 0.018876191 0.67566675
-0.087580346 0.017540867 0.67754555
-0.083248787 0.017167304 0.67877775
-0.077470675 0.016425336 0.67900002
-0.073073335 0.016166668 0.67900002
-0.11185715 0.023785716 0.67500001
-0.108 0.023785716 0.67500001
-0.10225729 0.023061093 0.67528576
-0.097775169 0.022672312 0.67715389
-0.092856467 0.021790477 0.67836362
-0.088204898 0.020781497 0.67885715
-0.084066674 0.020046668 0.67900002
-0.11658204 0.028140837 0.67537504
-0.11215591 0.027074587 0.67681253
-0.1071011 0.027002417 0.67826676
-0.10200696 0.026683008 0.67823082
-0.097933576 0.025534049 0.67875004
-0.13247691 0.034084052 0.67524999
-0.12738001 0.033453811 0.67550004
-0.12239663 0.032693122 0.676
-0.11719567 0.031793628 0.67700005
-0.11330727 0.031519406 0.67887497
-0.14207146 0.039214291 0.67500007
-0.13730919 0.037970129 0.67572737
-0.13286942 0.037412144 0.67725003
-0.12827159 0.037125058 0.67838466
-0.15077478 0.043587621 0.67800009
-0.14723977 0.043131199 0.67758334
-0.14264916 0.042424127 0.67693341
-0.13783212 0.041720781 0.67772728
-0.13352211 0.041233338 0.67860001
-0.15196668 0.046344452 0.67900008
-0.14771718 0.046467625 0.67900002
-0.16220574 -0.046251431 0.68400002
-0.15829715 -0.046251431 0.68400002
-0.1670088 -0.042674605 0.68233335
-0.16262542 -0.043390796 0.68166673
-0.15767275 -0.043626327 0.68181825
-0.15249446 -0.043541592 0.68233341
-0.1473252 -0.042844575 0.68226665
-0.14256191 -0.042498887 0.68300003
-0.13770495 -0.042158276 0.68290919
-0.13274598 -0.042297225 0.68325007
-0.12738788 -0.042811248 0.68313342
-0.12230422 -0.042287223 0.68308342
-0.11696383 -0.041881908 0.6835556
-0.11220794 -0.042178102 0.68366671
-0.10787536 -0.041816551 0.68337506
-0.10322572 -0.041264575 0.68340009
-0.096881777 -0.041706808 0.68271434
-0.092062578 -0.042411283 0.6818462
-0.087283231 -0.042468138 0.6827693
-0.082230158 -0.041875243 0.68344444
-0.077419482 -0.042289101 0.68311119
-0.072853334 -0.042282224 0.68300003
-0.067748576 -0.041691434 0.68400002
-0.061870959 -0.041681431 0.68383336
-0.05726286 -0.041646436 0.68325007
-0.051854923 -0.041875239 0.6834445
-0.047673456 -0.042142268 0.68337506
-0.042962383 -0.041010004 0.68350005
-0.037782863 -0.041040003 0.68400002
-0.034525715 -0.041040003 0.68400002
-0.026708573 -0.041040003 0.68400002
-0.023451431 -0.041040003 0.68400002
-0.16733238 -0.039562859 0.68099999
-0.1457143 -0.039504763 0.68000001
-0.14225373 -0.039292194 0.68080008
-0.13739668 -0.039533813 0.68050003
-0.13221286 -0.039533813 0.68050003
-0.12747125 -0.039033145 0.68080008
-0.12248857 -0.039048098 0.68049997
-0.11763783 -0.038781233 0.68028575
-0.11289358 -0.038929291 0.6812501
-0.10749969 -0.039150476 0.68133342
-0.10201508 -0.039120801 0.68083334
-0.097671114 -0.039111748 0.68066669
-0.09260954 -0.039504763 0.68000001
-0.087428585 -0.039504763 0.68000001
-0.083015241 -0.039562859 0.68100005
-0.077828579 -0.038915243 0.68099999
-0.072556198 -0.03869291 0.68088889
-0.067525804 -0.038309924 0.68175006
-0.062439144 -0.038554959 0.68149996
-0.056894101 -0.039268956 0.68040007
-0.052260578 -0.039033145 0.68080002
-0.047489002 -0.03855503 0.68100005
-0.042684034 -0.03809385 0.68146157
-0.037675656 -0.037678398 0.68206239
-0.032702319 -0.037442859 0.68285722
-0.027329143 -0.037812192 0.68213338
-0.022191498 -0.03798075 0.68250006
-0.014331429 -0.035828575 0.68400002
-0.008729144 -0.036610287 0.68400002
-0.0021714286 -0.036262862 0.68400002
0.0010857144 -0.036262862 0.68400002
-0.031132381 -0.034374289 0.68099999
-0.028495241 -0.034323812 0.68000001
-0.016285716 -0.034525715 0.68400002
-0.013028572 -0.034525715 0.68400002
-0.0091066677 -0.034475241 0.68300003
-0.0020786668 -0.033119049 0.68180007
0.0026015479 -0.032507502 0.68262506
0.0078034536 -0.032513216 0.68275005
0.013056763 -0.032403812 0.6832
0.017702511 -0.032385457 0.68381822
0.020715429 -0.032701716 0.68400002
0.034525715 -0.032571428 0.68400002
0.035828575 -0.033874288 0.68400002
-0.0010793651 -0.025688892 0.68000001
0.0025992859 -0.027279047 0.6820001
0.0078026797 -0.027306613 0.68268752
0.012888256 -0.027468065 0.68346667
0.01715032 -0.028438574 0.68383336
0.020194286 -0.029314287 0.68400002
-0.005828572 -0.02072381 0.68000001
-0.0019457145 -0.021648573 0.68136364
0.0024541398 -0.022581466 0.68346161
0.0074262866 -0.023842288 0.68400002
-0.017485715 -0.016190477 0.68000001
-0.012680545 -0.016752383 0.68028569
-0.0076165376 -0.017420867 0.682091
-0.0036284355 -0.01777075 0.6838572
-0.020773215 -0.012981549 0.68162507
-0.017551351 -0.012999288 0.68258333
-0.013011906 -0.013010358 0.68312502
-0.0083005959 -0.014160358 0.68362504
-0.03561905 -0.005828572 0.68000001
-0.032403335 -0.0058328579 0.68050003
-0.026625443 -0.0065851705 0.68185723
-0.022101035 -0.0078000799 0.68258333
-0.017849145 -0.009250286 0.68400002
-0.013680001 -0.009771429 0.68400002
-0.040800001 -0.00064761908 0.68000001
-0.037194289 -0.0018140955 0.68040001
-0.032614797 -0.0027273018 0.68220007
-0.027336432 -0.0032537307 0.68341672
-0.023668572 -0.0041257148 0.68400002
-0.051480383 0.0040205712 0.68080008
-0.047807939 0.0033907939 0.68144447
-0.042585287 0.0026604335 0.68218184
-0.037934449 0.0020603177 0.68283343
-0.034091428 0.0010857143 0.68400002
-0.05720941 0.0091022626 0.68262506
-0.052070167 0.0076757469 0.68286675
-0.047820214 0.0073074079 0.68366671
-0.044948574 0.0058628577 0.68400002
-0.067572623 0.014295001 0.68225008
-0.062314533 0.012898335 0.68274999
-0.057823393 0.012085821 0.68388891
-0.052331433 0.011074288 0.68400002
-0.048857145 0.011074287 0.68400002
-0.081384137 0.018349208 0.68000001
-0.077806816 0.018225854 0.68000001
-0.072629616 0.017642252 0.6814546
-0.067880094 0.017458789 0.68354553
-0.064491436 0.016285716 0.68400002
-0.091314301 0.023961907 0.68000001
-0.087058626 0.022843381 0.68172735
-0.081950821 0.022394765 0.68292862
-0.077972069 0.021319155 0.68288893
-0.07334049 0.020613812 0.68349999
-0.069702864 0.020194286 0.68400002
-0.10944763 0.029142858 0.68000001
-0.10269302 0.029185718 0.68099999
-0.097067401 0.027812146 0.68175006
-0.092290416 0.027299348 0.68243748
-0.087878339 0.026364049 0.68349999
-0.084034294 0.025405716 0.68400002
-0.12175239 0.034323812 0.68000001
-0.11851429 0.034323812 0.68000001
-0.1121837 0.033283453 0.68187505
-0.10795291 0.03208125 0.68315393
-0.10312625 0.031480744 0.68388891
-0.097993478 0.031175515 0.68400007
-0.093805715 0.030617144 0.68400002
-0.12647048 0.039239049 0.68099999
-0.12266845 0.037585415 0.68226314
-0.11721557 0.037859492 0.68300003
-0.11367144 0.036662228 0.6833334
-0.10748572 0.035828575 0.68400002
-0.14053334 0.044685718 0.68000001
-0.13729922 0.044395085 0.68216676
-0.13216636 0.043334767 0.68250006
-0.12761074 0.042827241 0.68339998
-0.12271096 0.042076293 0.68390006
-0.11764801 0.041561145 0.68400002
-0.15147431 0.048403181 0.68066669
-0.14666173 0.048455238 0.6820001
-0.14235541 0.047454443 0.68253857
-0.13757096 0.047376107 0.68330008
-0.13311458 0.046790477 0.68371433
-0.12898287 0.046251431 0.68400002
-0.15152358 0.052244768 0.68336374
-0.14742215 0.051528335 0.68341672
-0.14396572 0.050160002 0.68400002
-0.16788219 -0.046751142 0.6875
-0.16214573 -0.047728099 0.68650007
-0.15647763 -0.047292229 0.68650007
-0.1522958 -0.04727184 0.68800008
-0.14751203 -0.046825357 0.68762505
-0.1424183 -0.046562165 0.68681824
-0.13746667 -0.046478733 0.68733335
-0.13234434 -0.046337057 0.68699998
-0.12731662 -0.047242317 0.68757147
-0.12262794 -0.04636937 0.68733346
-0.11741386 -0.046224874 0.68788892
-0.11259174 -0.04647873 0.68733335
-0.10766512 -0.046416104 0.68818188
-0.10275944 -0.045539621 0.68900007
-0.097397149 -0.045749526 0.68820012
-0.092924163 -0.046136785 0.68712509
-0.087429255 -0.045913342 0.68728578
-0.082560003 -0.045867622 0.68800008
-0.077033341 -0.04624781 0.68780005
-0.072217152 -0.046617839 0.68763638
-0.067967981 -0.046023458 0.68787503
-0.063650481 -0.045277145 0.68900001
-0.057302482 -0.045500193 0.68839997
-0.052645855 -0.045726944 0.68728578
-0.047157381 -0.045195002 0.68774998
-0.042652383 -0.045277145 0.68900001
-0.037402861 -0.045277145 0.68900001
-0.032678287 -0.045539621 0.68900007
-0.027970796 -0.0456708 0.68833339
-0.023622859 -0.045277145 0.68900001
-0.11825334 -0.043773334 0.68600005
-0.11237334 -0.043773334 0.68600005
-0.10654446 -0.04379461 0.68633342
-0.10228492 -0.043249797 0.68657154
-0.098689288 -0.043135956 0.68625009
-0.081666671 -0.043773334 0.68600005
-0.0679712 -0.04378929 0.68625009
-0.063418895 -0.043151908 0.68650007
-0.057556909 -0.043821193 0.68675005
-0.052920006 -0.043773334 0.68600005
-0.045537464 -0.043359052 0.68633342
-0.04249762 -0.043151908 0.68650007
-0.037975237 -0.043214768 0.68750006
-0.032518528 -0.042625546 0.68663645
-0.027675981 -0.042930372 0.68644452
-0.021976763 -0.042778861 0.6868
-0.017060954 -0.041340001 0.68900001
-0.012467621 -0.040465083 0.68900001
-0.0078585725 -0.041250002 0.6875
-0.002402381 -0.041488737 0.68783343
0.0026242859 -0.04065381 0.68850005
0.0059057148 -0.040027622 0.68900001
-0.03136 -0.039853334 0.68600005
-0.01700463 -0.038213745 0.68671441
-0.012421588 -0.037700746 0.68644452
-0.0076273018 -0.039008047 0.6864444
-0.0026859259 -0.038691856 0.68599999
0.002792814 -0.03796823 0.68627274
0.007669352 -0.03715663 0.68663633
0.01259774 -0.03713917 0.68712509
0.016365595 -0.036988929 0.68737501
0.022447707 -0.037216544 0.68772727
0.027496904 -0.037318654 0.68741673
0.032283813 -0.036870714 0.68825001
0.012413334 -0.03462667 0.68600005
0.016333334 -0.03462667 0.68600005
0.022891603 -0.032640178 0.68672734
0.02737035 -0.032868005 0.68753338
0.032245938 -0.032849014 0.68669236
0.017655512 -0.026247894 0.68657148
0.020958096 -0.027505718 0.68766665
0.033368573 -0.02944286 0.68700004
0.0032688892 -0.020263176 0.68633342
0.0078511434 -0.021587335 0.68689996
0.012437461 -0.022909207 0.68733341
0.016374288 -0.023577144 0.68766677
-0.0019623809 -0.016519763 0.68700004
0.0014432381 -0.018231049 0.6886
-0.0075681638 -0.01205524 0.68685728
-0.0045933337 -0.013780001 0.68900001
-0.020906668 -0.0058800005 0.68600005
-0.016588228 -0.0071929013 0.68672723
-0.012429206 -0.0080666672 0.68688893
-0.0093958741 -0.0093958741 0.68833339
-0.030706668 -0.00065333338 0.68600005
-0.027449287 -0.00065357145 0.68625009
-0.022075329 -0.0025575762 0.68727285
-0.018493524 -0.0035407622 0.6886
-0.04246667 0.0045733335 0.68600005
-0.037253097 0.0042483336 0.68625003
-0.032675501 0.002798615 0.68745458
-0.027529288 0.0013116668 0.68825006
-0.02384159 0.0010936509 0.68900001
-0.051613338 0.009800001 0.68600005
-0.045994923 0.0089380965 0.68666673
-0.042681649 0.0076816455 0.68754554
-0.037995599 0.0065517868 0.68787503
-0.034121908 0.0059057148 0.68900001
-0.055995878 0.013291113 0.68633336
-0.052236304 0.01285979 0.68655556
-0.046966147 0.012561473 0.68754554
-0.043527305 0.011592699 0.68900001
-0.065986671 0.018946668 0.68600005
-0.062437519 0.01735927 0.68676925
-0.05832519 0.016239049 0.68811119
-0.052495245 0.015092382 0.68900001
-0.049214289 0.015092382 0.68900001
-0.076495096 0.023537304 0.68650007
-0.072002009 0.022911144 0.68730003
-0.067634158 0.021236602 0.68757159
-0.063587621 0.020322226 0.68833339
-0.087083571 0.028483812 0.68750012
-0.082728818 0.027287066 0.68758345
-0.07779175 0.026004132 0.68833345
-0.073493332 0.025591429 0.68900001
-0.11041334 0.03462667 0.68600005
-0.1069289 0.03462667 0.68600005
-0.1022849 0.034095515 0.68657154
-0.097523101 0.033545479 0.68725002
-0.092666 0.031887487 0.68728578
-0.087929532 0.030840954 0.68900001
-0.11193154 0.038182385 0.68650007
-0.10752686 0.037327625 0.68760014
-0.10236572 0.03674667 0.68900007
-0.099084765 0.036090478 0.68900001
-0.12152001 0.043773334 0.68600005
-0.11739308 0.043054018 0.68642867
-0.11302763 0.042091049 0.68840009
-0.10958382 0.040027622 0.68900001
-0.13524 0.049000002 0.68600005
-0.13176049 0.048647784 0.68716669
-0.1276128 0.047212794 0.68714297
-0.12294602 0.046432387 0.68666685
-0.11805768 0.046378873 0.68763649
-0.11483334 0.045277145 0.68900001
-0.14672644 0.053919766 0.68625003
-0.14251633 0.052480768 0.68706673
-0.13752218 0.051639747 0.68790913
-0.13294548 0.051310241 0.68850011
-0.12926953 0.050526671 0.68900001
-0.15166572 0.056498863 0.68820012
-0.14764439 0.056646287 0.68840009
-0.14370573 0.055776194 0.68900001
-0.17184763 -0.051554289 0.69400001
-0.16776127 -0.052178256 0.69350004
-0.16247585 -0.052001044 0.69272739
-0.15726003 -0.052261382 0.69300014
-0.15237482 -0.052655239 0.69307697
-0.14773555 -0.052679684 0.69313341
-0.14276065 -0.0526946 0.69333339
-0.13747811 -0.051554289 0.69400001
-0.13175641 -0.05114305 0.69380003
-0.12735 -0.051468737 0.69283336
-0.1231441 -0.051428441 0.69357145
-0.11759239 -0.051309526 0.69366664
-0.11248287 -0.051575381 0.69300002
-0.10818668 -0.051236197 0.69266671
-0.10303333 -0.050856672 0.69350004
-0.097600639 -0.051333975 0.69400001
-0.092483699 -0.051526789 0.69362497
-0.087492518 -0.05143892 0.69371432
-0.082619056 -0.050893337 0.69400001
-0.07799238 -0.050893337 0.69400001
-0.07270477 -0.050893337 0.69400001
-0.067417152 -0.050893337 0.69400001
-0.061468579 -0.050893337 0.69400001
-0.057502862 -0.050893337 0.69400001
-0.031064764 -0.050893337 0.69400001
-0.029742859 -0.050893337 0.69400001
-0.17044668 -0.049357146 0.69100004
-0.16765302 -0.049309529 0.69033337
-0.16297144 -0.049285717 0.69000006
-0.15771429 -0.049285717 0.69000006
-0.1526781 -0.049357146 0.69100004
-0.14741334 -0.049357146 0.69100004
-0.14235429 -0.049428575 0.69200003
-0.13728 -0.049500003 0.69300002
-0.13223574 -0.049135715 0.69250005
-0.12757906 -0.049321428 0.69050002
-0.12197601 -0.049080003 0.69080007
-0.11750134 -0.049080003 0.69080007
-0.11237144 -0.049285721 0.69000006
-0.10737715 -0.049022861 0.69000006
-0.10244244 -0.048142858 0.69072729
-0.097695671 -0.048520423 0.69155556
-0.092284642 -0.048824493 0.6914286
-0.087240003 -0.0488449 0.69171435
-0.082705185 -0.048646946 0.69157147
-0.078169212 -0.048966669 0.69166672
-0.07244429 -0.04939286 0.69150001
-0.066693217 -0.048580118 0.691625
-0.0622091 -0.04796182 0.69154549
-0.057928573 -0.048056576 0.69120002
-0.05279674 -0.048280548 0.69171435
-0.047434293 -0.047435481 0.69174999
-0.042010482 -0.047016572 0.69140005
-0.037137147 -0.047412958 0.69139999
-0.032772575 -0.04804286 0.69100004
-0.027655121 -0.048068456 0.69137508
-0.022140289 -0.04705115 0.69189996
-0.017495954 -0.046382625 0.69325006
-0.012558097 -0.046266675 0.69400001
-0.0082114302 -0.046153475 0.69371432
-0.0026416669 -0.045556433 0.69325006
0.0019828572 -0.045605719 0.69400001
0.016523812 -0.045605719 0.69400001
-0.017094642 -0.043395363 0.69037509
-0.012337739 -0.04293441 0.69087499
-0.0081146033 -0.043201808 0.69077784
-0.0031001361 -0.043314021 0.69057149
0.002897905 -0.043065909 0.69139999
0.0081017008 -0.042203743 0.69235724
0.012527304 -0.042202383 0.69233334
0.017133871 -0.042177677 0.69193751
0.022363938 -0.042050291 0.69200003
0.027696591 -0.041547384 0.69241667
0.031929526 -0.041351028 0.69228578
0.0098571433 -0.038771432 0.69000006
0.011171429 -0.038771432 0.69000006
0.018400002 -0.038114287 0.69000006
0.02037143 -0.038771432 0.69000006
0.033855479 -0.038456909 0.69025004
0.029571431 -0.030885717 0.69000006
0.023461165 -0.027406137 0.69066674
0.027529849 -0.027790418 0.69153339
0.031456191 -0.02855943 0.69100004
0.0098571433 -0.02037143 0.69000006
0.012485716 -0.02037143 0.69000006
0.017489906 -0.021566099 0.69040006
0.022237757 -0.022705378 0.69250005
0.025777144 -0.023794288 0.69400001
-0.0006571429 -0.015114287 0.69000006
0.0031678788 -0.016554201 0.69027281
0.007897798 -0.0171078 0.69093764
0.01254 -0.017157622 0.69300008
0.016712656 -0.018412245 0.69400001
-0.0059142862 -0.011171429 0.69000006
-0.0024509092 -0.012375586 0.6905455
0.0026346827 -0.01251024 0.69141668
0.0077354978 -0.012649265 0.69245452
-0.011828572 -0.0059142862 0.69000006
-0.0075417594 -0.0075413198 0.69099998
-0.0027713652 -0.0080503505 0.69300002
0.0026418257 -0.0085845254 0.6934166
0.0068885721 -0.0087753749 0.69357151
-0.021028573 -0.0006571429 0.69000006
-0.016574288 -0.0023666664 0.6906001
-0.01252508 -0.0032943918 0.69222224
-0.0084225005 -0.0037979763 0.69362509
-0.030885717 0.0039428575 0.69000006
-0.027604882 0.0039436901 0.69012505
-0.022003079 0.0029846153 0.69046164
-0.018358096 0.0019774151 0.69200009
-0.040523812 0.0094190491 0.69000006
-0.037465878 0.0092023816 0.69016671
-0.032728985 0.0081843548 0.69128579
-0.027970765 0.0069940011 0.69270003
-0.023390669 0.0064756195 0.69380003
-0.041591857 0.012793123 0.69077778
-0.037148315 0.012423985 0.69318181
-0.03304762 0.011236191 0.69400001
-0.056995247 0.018122315 0.69014293
-0.052621752 0.017760957 0.69066668
-0.047341146 0.017278159 0.69233352
-0.042575106 0.015765307 0.69385725
-0.038996194 0.015201906 0.69400001
-0.070314288 0.024314288 0.69000006
-0.066642508 0.023531787 0.69112509
-0.062119853 0.022981428 0.69266671
-0.058095563 0.021320743 0.69233334
-0.053252544 0.020905558 0.69316667
-0.048249528 0.020489525 0.69400001
-0.081305727 0.029147623 0.69033337
-0.077391252 0.028562481 0.69099998
-0.072231166 0.027935514 0.69128585
-0.067706428 0.027193254 0.69358337
-0.064112388 0.025777144 0.69400001
-0.095942862 0.034828573 0.69000006
-0.091572627 0.034032386 0.69050002
-0.087127283 0.033715326 0.69163638
-0.082890831 0.032187622 0.69227278
-0.077954918 0.032371748 0.69366682
-0.073524088 0.031996191 0.69371432
-0.10580001 0.038771432 0.69000006
-0.1025143 0.038771432 0.69000006
-0.097128488 0.03759671 0.69036371
-0.092621252 0.037340097 0.69270003
-0.087395355 0.037172023 0.69387507
-0.082619064 0.035030477 0.69400001
-0.11149524 0.043590479 0.69000006
-0.10763561 0.042382266 0.69125009
-0.10278814 0.04209416 0.69273335
-0.097788893 0.041802064 0.69300008
-0.094107628 0.040143814 0.69100004
-0.12707175 0.049380958 0.69133341
-0.12280406 0.049517862 0.69325
-0.11665335 0.048677552 0.69200003
-0.11228252 0.047195174 0.69235718
-0.10751493 0.046046358 0.69400001
-0.10244763 0.045605719 0.69400001
-0.098922551 0.046046358 0.69400001
-0.13813144 0.054280009 0.69000006
-0.13232179 0.053751074 0.69037503
-0.12780014 0.052703269 0.69171441
-0.12357239 0.051638238 0.69385725
-0.11632763 0.050893337 0.69400001
-0.11434477 0.050893337 0.69400001
-0.15152596 0.058835953 0.69025004
-0.14632247 0.058765914 0.69020003
-0.14204524 0.057542071 0.69050002
-0.13731526 0.057480793 0.69227272
-0.13284887 0.057049628 0.69329995
-0.12888572 0.056180958 0.69400001
-0.13747811 0.060146671 0.69400001
-0.17084382 -0.061158098 0.69800001
-0.16766778 -0.061013065 0.69742858
-0.17616192 -0.057169527 0.69800001
-0.17286637 -0.056921437 0.69766665
-0.16742009 -0.057800245 0.69758338
-0.16250744 -0.05780172 0.69760001
-0.157657 -0.056907468 0.69750011
-0.15265012 -0.057078216 0.6968751
-0.14746818 -0.057113063 0.69614297
-0.14230879 -0.056674071 0.69644451
-0.13750717 -0.055800479 0.69749999
-0.1328581 -0.055135719 0.69749999
-0.12763429 -0.055175241 0.69800001
-0.1223162 -0.055175241 0.69800001
-0.11627778 -0.055148896 0.69766665
-0.11218382 -0.055096194 0.69700003
-0.10805886 -0.055425335 0.69780004
-0.1030381 -0.055175241 0.69800007
-0.096390486 -0.055175241 0.69800007
-0.092588387 -0.055659622 0.69740003
-0.087655008 -0.055448338 0.69725001
-0.084424764 -0.055175241 0.69800001
-0.17275715 -0.05317302 0.69500011
-0.16746192 -0.0549381 0.69500005
-0.16243143 -0.05467334 0.69500011
-0.15753335 -0.0549381 0.69500005
-0.15422381 -0.0549381 0.69500005
-0.14098573 -0.0549381 0.69500005
-0.13767621 -0.053614289 0.69500005
-0.13271934 -0.053068988 0.69528586
-0.12708572 -0.053614289 0.69500005
-0.12229668 -0.053360481 0.6960001
-0.11796123 -0.05344722 0.69528586
-0.11252382 -0.053614289 0.69500005
-0.10688889 -0.053224452 0.69566673
-0.10238464 -0.053135104 0.69614297
-0.097970672 -0.053161908 0.6960001
-0.092666671 -0.053614289 0.69500005
-0.087371439 -0.053614289 0.69500011
-0.082307197 -0.052834183 0.69633335
-0.077207081 -0.053146128 0.69628584
-0.072644494 -0.05294599 0.69614297
-0.067660004 -0.053068098 0.69650006
-0.062568471 -0.052842751 0.69644445
-0.057336509 -0.052909207 0.69733334
-0.052894767 -0.051568732 0.69716668
-0.048118237 -0.051725041 0.69757146
-0.042243 -0.051735517 0.69771427
-0.036924671 -0.05219857 0.69730002
-0.032507215 -0.052409794 0.69657153
-0.027859287 -0.052072383 0.69650006
-0.023005558 -0.05154429 0.69683337
-0.01728381 -0.05118667 0.69800001
-0.013295239 -0.05118667 0.69800001
-0.051703811 -0.04971429 0.69600004
-0.047725718 -0.04971429 0.6960001
-0.042393811 -0.049678575 0.69550002
-0.03839048 -0.049642861 0.69500005
-0.026476193 -0.049642861 0.69500005
-0.02253524 -0.04971429 0.69600004
-0.016909286 -0.048904289 0.69625008
-0.012608732 -0.049111273 0.69683337
-0.0080583682 -0.048628982 0.69671434
-0.0025560546 -0.047622185 0.69585729
0.002918476 -0.047768194 0.69660008
0.0077643543 -0.047443815 0.69599998
0.012592276 -0.047056619 0.695889
0.017458308 -0.04751334 0.6961112
0.022750342 -0.047491841 0.69671428
0.02746103 -0.047333118 0.69546175
0.031109527 -0.045671433 0.69500005
0.0072809528 -0.044347622 0.69500005
0.023166668 -0.044347622 0.69500005
0.027800001 -0.044347622 0.69500005
0.029785717 -0.025814287 0.69500005
0.032480955 -0.026182381 0.6960001
0.023828574 -0.02051905 0.69500005
0.028113201 -0.022337282 0.69571429
0.032523096 -0.02256532 0.6969167
0.017594391 -0.016268043 0.69566679
0.022431366 -0.017385527 0.69680011
0.027394498 -0.018237883 0.69777775
0.031243812 -0.018613335 0.69800001
0.009928572 -0.011252382 0.69500005
0.012591324 -0.012589206 0.69577789
0.016833017 -0.013510159 0.69766665
-0.00066190481 -0.0059571434 0.69500005
0.0026533334 -0.0059657143 0.69600004
0.0086183678 -0.0076706125 0.69614297
0.012290001 -0.0096323816 0.69749999
-0.01522381 -0.00066190481 0.69500005
-0.012576192 -0.00066190481 0.69500005
-0.0074511906 -0.0014897618 0.69550008
-0.0030105498 -0.0030092308 0.6966154
0.0017276192 -0.0041188574 0.69760001
0.0059828577 -0.0046533337 0.69800001
-0.016414406 0.0029858332 0.69637507
-0.012622938 0.0026583336 0.69758338
-0.0084896302 0.0016983069 0.69766665
-0.0046533337 0.00066476193 0.69800001
-0.027358733 0.009487303 0.69500011
-0.022564644 0.0082965484 0.69687504
-0.018834922 0.0064260322 0.69800007
-0.035080954 0.013900001 0.69500005
-0.032289531 0.012973879 0.69600004
-0.028163679 0.011854286 0.69700009
-0.024596192 0.011300953 0.69800001
-0.04218043 0.018330691 0.69566673
-0.037018355 0.017383557 0.69660014
-0.033008419 0.016172223 0.69783342
-0.029914288 0.015289525 0.69800001
-0.057353336 0.02397505 0.69540006
-0.052761909 0.023465905 0.69600004
-0.047771435 0.022892384 0.69666672
-0.043368578 0.021464128 0.69700003
-0.066521429 0.029454764 0.69500005
-0.062181532 0.027977334 0.69606668
-0.057282686 0.027103292 0.69718188
-0.053768575 0.025888573 0.69700003
-0.071618102 0.032962859 0.69500011
-0.067862347 0.032394115 0.69672734
-0.063794054 0.031897381 0.69774997
-0.091342866 0.039052382 0.69500005
-0.087040477 0.038721431 0.69500005
-0.081976928 0.037550259 0.69546157
-0.077222601 0.036408748 0.69736367
-0.07273905 0.035539526 0.69749999
-0.096820325 0.043769844 0.69633341
-0.092457078 0.042249605 0.69675004
-0.087539688 0.04178191 0.69633341
-0.082854412 0.041344646 0.697375
-0.1112 0.049642861 0.69500005
-0.10705581 0.048626669 0.69560009
-0.10250648 0.048537146 0.69620007
-0.097595721 0.047638893 0.69633341
-0.093731433 0.045868576 0.69800001
-0.12576191 0.0549381 0.69500005
-0.12224818 0.053502318 0.69600004
-0.11770486 0.052624673 0.69590014
-0.11227097 0.052359533 0.69590008
-0.10805886 0.051437911 0.69779998
-0.10436763 0.05118667 0.69800001
-0.13083652 0.05846826 0.69500005
-0.12705475 0.057775412 0.69581825
-0.12305858 0.056796674 0.69749999
-0.11721969 0.055175241 0.69800007
-0.11234477 0.055175241 0.69800001
-0.15353906 -0.065036193 0.70400006
-0.17639694 -0.061021671 0.70025003
-0.17333335 -0.061333336 0.70000005
-0.16600001 -0.062000003 0.70000005
-0.16272688 -0.061664026 0.70122224
-0.1573557 -0.061958961 0.7009092
-0.15283249 -0.06214451 0.70300007
-0.14734912 -0.061563272 0.70371431
-0.14207302 -0.061431434 0.70366669
-0.13744763 -0.061013337 0.70400006
-0.12806097 -0.061013337 0.70400012
-0.12189257 -0.061281528 0.70400006
-0.11730589 -0.061669372 0.70383334
-0.11253989 -0.061629411 0.70337504
-0.10755658 -0.061212193 0.70320004
-0.10253429 -0.060984448 0.70366669
-0.097820006 -0.061640482 0.70350003
-0.093497857 -0.06132691 0.70375007
-0.082468577 -0.061013337 0.70400006
-0.07777524 -0.061013337 0.70400006
-0.040899049 -0.061013337 0.70400006
-0.037546672 -0.061013337 0.70400006
-0.17720002 -0.058533337 0.70000005
-0.17266668 -0.058666669 0.70000005
-0.16066667 -0.059333336 0.70000005
-0.15777773 -0.059083622 0.70020002
-0.15221715 -0.059418101 0.70100003
-0.14754382 -0.059418105 0.70100009
-0.1425101 -0.059168387 0.70120001
-0.13743736 -0.058585294 0.70166671
-0.13231431 -0.058140635 0.70166671
-0.12720989 -0.058289345 0.70200008
-0.12235656 -0.057712313 0.70146161
-0.11741065 -0.05800806 0.70154554
-0.11228444 -0.05817499 0.70063645
-0.10738445 -0.058028262 0.70033342
-0.10264748 -0.057872389 0.70092314
-0.097636789 -0.057885565 0.70107704
-0.092173867 -0.058603704 0.70188892
-0.08744619 -0.057854053 0.70225006
-0.082430705 -0.057442561 0.70192319
-0.077540599 -0.057490122 0.70187509
-0.072407328 -0.057073995 0.70246154
-0.067151435 -0.057310566 0.70190918
-0.062663123 -0.0573228 0.70146674
-0.057636134 -0.057372 0.70206684
-0.052198257 -0.0568843 0.70266676
-0.047491115 -0.05685683 0.70233333
-0.042773936 -0.057478569 0.70175016
-0.037403394 -0.057443038 0.7013126
-0.032377962 -0.057500139 0.70200002
-0.027681431 -0.056705248 0.7021001
-0.023024192 -0.056626674 0.70280004
-0.017015811 -0.055870291 0.70340008
-0.01219581 -0.055886097 0.70360005
-0.0087161912 -0.055649526 0.70400006
0.0020114288 -0.05564953 0.70400012
0.0073752385 -0.05564953 0.70400012
-0.056666672 -0.054000005 0.70000005
-0.052133333 -0.053733338 0.70000005
-0.047000006 -0.053666674 0.70000005
-0.043066669 -0.053733338 0.70000005
-0.038666669 -0.054000005 0.70000005
-0.034000002 -0.054000005 0.70000005
-0.02734635 -0.054025721 0.70033336
-0.022232383 -0.053581279 0.70033336
-0.017345715 -0.05337191 0.70050007
-0.011749334 -0.053010102 0.70100003
-0.0073607634 -0.05219505 0.70260006
-0.0025451432 -0.052075688 0.7028001
0.0026263495 -0.052220002 0.70113337
0.0074841911 -0.052522101 0.70160007
0.011987303 -0.052008133 0.70186675
0.017163495 -0.051043924 0.70211112
0.022414286 -0.051518574 0.70250005
-0.0033333336 -0.048666671 0.70000005
0.024666669 -0.015333334 0.70000005
0.027686669 -0.01567762 0.70050001
0.032130238 -0.017120559 0.70041668
0.01761305 -0.011074191 0.70050001
0.022717917 -0.012024584 0.70156252
0.027336191 -0.012235932 0.70318186
0.031489998 -0.013399525 0.70350003
0.0086666672 -0.0060000005 0.70000005
0.012551324 -0.0070535452 0.70177788
0.017399369 -0.0073593664 0.7026667
0.02228155 -0.0078734523 0.70362502
0.026148573 -0.0087161912 0.70400006
-0.0011111111 -0.0011111113 0.70000005
0.0030933339 -0.002000866 0.70054543
0.0074732467 -0.0024891777 0.70163643
0.011560121 -0.0038529765 0.70362502
-0.015333334 0.004666667 0.70000005
-0.010000001 0.004666667 0.70000005
-0.0068920641 0.0037800004 0.70033336
-0.002537207 0.0028067941 0.70140016
0.0023186815 0.0023189744 0.70307696
0.0064784135 0.0011171428 0.70366669
-0.020666668 0.0086666672 0.70000005
-0.016830901 0.0076374603 0.70066673
-0.01201381 0.0073430156 0.70083332
-0.0075246431 0.007192025 0.70237505
-0.0029662589 0.0066038095 0.70342863
0.00067047623 0.0060342862 0.70400006
-0.027607432 0.013737335 0.70020002
-0.022333849 0.012375019 0.70084625
-0.017401965 0.012049585 0.70281261
-0.012396432 0.011503732 0.70358342
-0.0087161912 0.010057144 0.70400006
-0.031520426 0.018320002 0.70088893
-0.02743651 0.017400796 0.7026667
-0.023449764 0.016415715 0.70350003
-0.01944381 0.015420954 0.70400006
