# .PCD v0.7 - Point Cloud Data file format
VERSION 0.7
FIELDS x y z
SIZE 4 4 4
TYPE F F F
COUNT 1 1 1
WIDTH 1322
HEIGHT 1
VIEWPOINT 0 0 0 1 0 0 0
POINTS 1322
DATA ascii
-0.084857151 -0.019485716 0.66000003
-0.036466192 -0.016975399 0.66016674
-0.033857778 -0.017874712 0.66244453
-0.16070478 -0.011104763 0.66000003
-0.15714286 -0.011628572 0.66000003
-0.15178268 -0.012952953 0.66020006
-0.14715742 -0.013337489 0.66109103
-0.14248155 -0.013468573 0.66080016
-0.13702857 -0.014457144 0.66000003
-0.13325715 -0.014457144 0.66000003
-0.037646599 -0.012548867 0.66138458
-0.034728575 -0.014522858 0.66300005
-0.041338734 -0.0060847625 0.66100001
-0.039309051 -0.0079871435 0.66216671
-0.045885716 -0.00062857149 0.66000003
-0.042705718 -0.0022687621 0.66140008
-0.039780002 -0.0044200001 0.66300005
-0.15701716 0.0038971433 0.66000003
-0.15317334 0.0040890477 0.66050005
-0.045937859 0.0025164289 0.66075003
-0.04349675 0.0025224607 0.66191685
-0.15673564 0.0061794291 0.66200006
-0.15236595 0.0066560851 0.66200006
-0.14953572 0.0088338107 0.66250002
-0.046454292 0.007637688 0.66042864
-0.043858927 0.006941786 0.66262507
-0.14825182 0.012490286 0.66240007
-0.04714286 0.010685715 0.66000003
-0.14613335 0.017242858 0.66233343
-0.14320695 0.018631976 0.66157144
-0.052736372 0.018038183 0.66136366
-0.049807623 0.015761906 0.66200006
-0.14185885 0.021926139 0.66200006
-0.13912478 0.02287524 0.66100001
-0.056418415 0.023071114 0.6606667
-0.054632004 0.02233181 0.66240007
-0.14080858 0.025888573 0.66300005
-0.13774545 0.027441772 0.66128576
-0.13388573 0.02954286 0.66000003
-0.056914289 0.027933547 0.66155565
-0.054934289 0.027151432 0.66300005
-0.13575715 0.030940002 0.66300005
-0.1319019 0.032881718 0.66140008
-0.12842381 0.034623813 0.66100001
-0.060971431 0.034571432 0.66000003
-0.058029052 0.032421436 0.66230005
-0.12688357 0.03814476 0.66200006
-0.12359651 0.039240956 0.66100001
-0.061315246 0.038149145 0.66100001
-0.059895247 0.037829526 0.66200006
-0.1256543 0.041042861 0.66300005
-0.12296148 0.043279052 0.66209102
-0.066050008 0.04403381 0.66050005
-0.063327037 0.04249407 0.6613847
-0.05994048 0.041643336 0.66250002
-0.12099143 0.047262222 0.66166675
-0.11844077 0.048711244 0.66080004
-0.067508988 0.047912523 0.66071439
-0.06435667 0.046059527 0.66250002
-0.11704516 0.052743729 0.66191673
-0.11377144 0.054685719 0.66000003
-0.0684679 0.052814566 0.66128576
-0.11555143 0.056828573 0.66300005
-0.11265937 0.058465082 0.66166675
-0.071691521 0.058168922 0.66190922
-0.069982864 0.056112386 0.66200006
-0.11100644 0.06181024 0.66225004
-0.10852429 0.063725241 0.66250002
-0.076057151 0.064742863 0.66000003
-0.072882131 0.062700748 0.66192323
-0.10585829 0.067249149 0.66240007
-0.10302655 0.068422504 0.66062498
-0.07726834 0.067821041 0.66141677
-0.073877148 0.065037146 0.66300005
-0.10544858 0.070088573 0.66300005
-0.10128476 0.072275244 0.66220003
-0.098871678 0.072738811 0.66125005
-0.081121281 0.073555559 0.66200006
-0.078856386 0.071791999 0.66240007
-0.09746512 0.077117741 0.66237509
-0.094356671 0.079260483 0.66050005
-0.082717292 0.077678025 0.66146165
-0.095345721 0.08271715 0.66300005
-0.092172042 0.082903124 0.66081828
-0.087945081 0.083195247 0.66011113
-0.08347334 0.082098447 0.66172731
-0.091803819 0.086125247 0.66250002
-0.070722863 -0.031220002 0.66900003
-0.068174288 -0.031538572 0.66900003
-0.057342861 -0.031220002 0.66900003
-0.051833339 -0.031456195 0.66860002
-0.047078095 -0.031810477 0.66799998
-0.042188577 -0.031845994 0.66685718
-0.037276193 -0.031760424 0.66844445
-0.032425445 -0.032062449 0.66757149
-0.028002145 -0.031822145 0.66825008
-0.024848573 -0.031220002 0.66900003
-0.10130572 -0.026547622 0.66900003
-0.097679339 -0.026624357 0.66785723
-0.093660012 -0.026122859 0.66900003
-0.08762636 -0.02652159 0.66833347
-0.082591087 -0.027223466 0.6675455
-0.077399313 -0.027227014 0.66763639
-0.072560221 -0.028210137 0.66664296
-0.067652956 -0.029321147 0.66639996
-0.062080614 -0.028472647 0.66700006
-0.057366002 -0.028810957 0.6663
-0.052031908 -0.02918905 0.66624999
-0.047068931 -0.029002739 0.66562498
-0.042795245 -0.02904286 0.66500008
-0.037835084 -0.02938143 0.66583335
-0.032895241 -0.028831244 0.66680002
-0.027961848 -0.027963994 0.6673125
-0.024848573 -0.029308572 0.66900003
-0.14546953 -0.020962859 0.66700006
-0.14272001 -0.021662859 0.66900009
-0.13747334 -0.021562861 0.6687144
-0.13222905 -0.020978572 0.66750008
-0.12895334 -0.020962859 0.66700006
-0.1216943 -0.021344287 0.66900003
-0.11710215 -0.021957859 0.66824996
-0.11287979 -0.021956192 0.6671111
-0.10778278 -0.022599144 0.66650003
-0.10299249 -0.023719905 0.66589999
-0.097396575 -0.023716003 0.66580003
-0.092664771 -0.023123134 0.66642857
-0.087743074 -0.023892276 0.66600001
-0.082395241 -0.024085239 0.66549999
-0.077622317 -0.024183402 0.66571426
-0.031033335 -0.022800002 0.66500002
-0.028091876 -0.023009337 0.66740012
-0.1463626 -0.018556055 0.66528577
-0.14231378 -0.018821059 0.66611117
-0.1376912 -0.018877858 0.66624999
-0.13363335 -0.019211113 0.66500008
-0.031643678 -0.017497281 0.66642857
-0.029469367 -0.018231589 0.66783333
-0.036100004 -0.010766667 0.66500002
-0.033364765 -0.012710001 0.66733336
-0.036823019 -0.007619366 0.66666669
-0.033768572 -0.0095571438 0.66900003
-0.040784448 -0.0010561906 0.6656667
-0.038211692 -0.0029476194 0.66772735
-0.040554561 0.0026304766 0.66685718
-0.15603477 0.0088804774 0.66600001
-0.15297888 0.008745715 0.66540003
-0.041520167 0.0080503188 0.66733336
-0.1561 0.01083143 0.66900003
-0.15234184 0.012501511 0.66741669
-0.14883335 0.013300001 0.66500002
-0.046615977 0.013034434 0.66630769
-0.043379191 0.012460002 0.66842866
-0.15070193 0.017169844 0.66766679
-0.14882082 0.018206511 0.66683334
-0.050368816 0.018690716 0.66525
-0.047023099 0.017793691 0.66724998
-0.043962859 0.016565714 0.66900003
-0.14644344 0.021972192 0.66680002
-0.14361835 0.024148811 0.66725004
-0.051898226 0.0229687 0.66620004
-0.048068896 0.02244159 0.66900009
-0.14419906 0.026044764 0.66700006
-0.13848382 0.029856194 0.66700006
-0.055100005 0.029766669 0.66500002
-0.052526668 0.027803887 0.66700006
-0.13700572 0.032349527 0.66600001
-0.13390128 0.03363397 0.66633338
-0.056239411 0.033743933 0.66537499
-0.053398576 0.032422066 0.66750014
-0.13229895 0.037182964 0.66677773
-0.12947556 0.037808895 0.66533339
-0.057437547 0.037551988 0.66641665
-0.054157145 0.035680003 0.66900003
-0.13088895 0.04108667 0.66780007
-0.12774667 0.042688813 0.66649997
-0.061433338 0.044122227 0.66500008
-0.058621336 0.041837338 0.66760004
-0.1268968 0.046593215 0.66787505
-0.12343202 0.047825906 0.66600001
-0.065940239 0.048187863 0.66575003
-0.062505484 0.046919767 0.6680001
-0.12242205 0.05189551 0.6680001
-0.11970001 0.053833336 0.66500002
-0.066275239 0.052301064 0.66700006
-0.064351432 0.054157145 0.66900003
-0.12105715 0.056068577 0.66900003
-0.11804806 0.057297997 0.66600001
-0.067151949 0.057252772 0.66646677
-0.064351432 0.055431433 0.66900003
-0.11730145 0.061302066 0.66816676
-0.11353715 0.062636673 0.66600001
-0.10973144 0.064062864 0.66600001
-0.070370488 0.061919689 0.6656667
-0.068522863 0.061847381 0.66775
-0.11199731 0.066393502 0.66816676
-0.10881065 0.067530647 0.6668334
-0.075480007 0.069137149 0.66600001
-0.072289728 0.067464702 0.66700006
-0.069344766 0.066164769 0.66800004
-0.10613652 0.07224381 0.66733336
-0.10361163 0.07317505 0.66580003
-0.07669542 0.072541483 0.66654545
-0.073908575 0.071997151 0.66900009
-0.10512858 0.07645715 0.66900003
-0.1022014 0.077358283 0.66727275
-0.099060953 0.078784131 0.66533339
-0.080473661 0.077939689 0.66533339
-0.077616259 0.077364713 0.66693336
-0.074545719 0.07645715 0.66900003
-0.098006673 0.082343176 0.66677779
-0.061622862 -0.035304762 0.67400002
-0.057557464 -0.035304762 0.67400002
-0.052318096 -0.03566286 0.67266667
-0.047834925 -0.035662863 0.67266673
-0.042057943 -0.035654131 0.67250001
-0.037162144 -0.035880718 0.67275
-0.032240111 -0.03608413 0.67255557
-0.027177144 -0.035962451 0.67257148
-0.022912858 -0.036054287 0.67299998
-0.01989905 -0.035304762 0.67400002
-0.10217652 -0.030567622 0.67333335
-0.097442031 -0.030772263 0.67312503
-0.092409268 -0.030681364 0.67314285
-0.08706975 -0.031255133 0.67277777
-0.082336597 -0.031357385 0.67191672
-0.077847265 -0.031491313 0.67137504
-0.073126122 -0.032043949 0.67100006
-0.067049526 -0.032248098 0.67050004
-0.062628411 -0.032508053 0.6716364
-0.057522386 -0.032853428 0.67110008
-0.052653477 -0.033308163 0.67071432
-0.047237385 -0.033831671 0.67025006
-0.042114288 -0.03381905 0.67000002
-0.037037145 -0.033844288 0.67050004
-0.031706989 -0.033835877 0.67033339
-0.027479051 -0.033869527 0.671
-0.022827361 -0.032703895 0.67090911
-0.019311432 -0.031760953 0.67271441
-0.13685811 -0.026220478 0.67149997
-0.13161068 -0.026014481 0.6728
-0.12709716 -0.025034288 0.67400002
-0.12168682 -0.025584495 0.67400008
-0.11770334 -0.025977621 0.6735
-0.11250858 -0.026823677 0.67285717
-0.10738989 -0.027416542 0.67227268
-0.10265071 -0.027938098 0.67050004
-0.096664771 -0.028476194 0.67040002
-0.092165843 -0.027953692 0.67087501
-0.087982103 -0.028220955 0.67040008
-0.083590485 -0.028714288 0.67000002
-0.077634931 -0.029565081 0.67000002
-0.065723814 -0.029990477 0.67000002
-0.064447626 -0.029990477 0.67000002
-0.022616701 -0.027727304 0.67086667
-0.019869525 -0.028200954 0.67300004
-0.14259259 -0.023872193 0.67020005
-0.13777772 -0.024156762 0.671
-0.13274713 -0.023529612 0.671
-0.12770453 -0.022496194 0.67136365
-0.12322298 -0.022884883 0.67212504
-0.11763201 -0.024192004 0.67200005
-0.11201985 -0.024490956 0.67083335
-0.10847619 -0.024885716 0.67000002
-0.026161907 -0.021057144 0.67000002
-0.023975557 -0.02354889 0.6723333
-0.027034376 -0.017732903 0.67154551
-0.024960002 -0.019840002 0.67200005
-0.030650957 -0.012132859 0.67050004
-0.028399792 -0.013025398 0.67266667
-0.035095241 -0.0063809529 0.67000002
-0.031838734 -0.0075434926 0.67133343
-0.028311025 -0.0079703405 0.6734286
-0.035938371 -0.0019190477 0.67214286
-0.031996626 -0.0033211259 0.67318183
-0.028885717 -0.0038514286 0.67400002
-0.037423402 0.0023791839 0.67257136
-0.038631435 0.0072565079 0.67233342
-0.15647033 0.013431589 0.67150009
-0.15401049 0.014698097 0.671
-0.041077461 0.012983705 0.67044449
-0.039098099 0.012820953 0.67300004
-0.15598287 0.016047619 0.67400002
-0.15298112 0.017809933 0.67128575
-0.042449623 0.017772669 0.67130011
-0.15075207 0.022815559 0.67166674
-0.14860725 0.023169525 0.67200005
-0.046072926 0.023630477 0.67057151
-0.044181909 0.022413019 0.67233342
-0.15084763 0.025034288 0.67400002
-0.1469962 0.026318099 0.67400002
-0.14300509 0.027919367 0.67133331
-0.050447144 0.028097622 0.67050004
-0.047727626 0.027512956 0.67180008
-0.14177375 0.031577554 0.67271429
-0.13817969 0.033000641 0.67066669
-0.051085994 0.032262042 0.67171437
-0.048900958 0.03053651 0.67266673
-0.14057715 0.035946667 0.67400002
-0.13739161 0.036922514 0.67154551
-0.13473858 0.038314763 0.67050004
-0.055514291 0.038923811 0.67000002
-0.052353848 0.037482198 0.67230779
-0.13556096 0.041342862 0.67299998
-0.1328596 0.042825583 0.67114288
-0.056736764 0.042522859 0.67239994
-0.053558573 0.040730953 0.67350006
-0.1321854 0.046340004 0.67266673
-0.12881112 0.048331119 0.67066669
-0.061457146 0.048425529 0.67080003
-0.058887623 0.046800278 0.67314285
-0.13030668 0.050710481 0.67400002
-0.12702239 0.052059289 0.67275
-0.12415596 0.053301193 0.67025006
-0.062787041 0.052070994 0.6711539
-0.12517144 0.055845719 0.67400002
-0.12235595 0.057899285 0.67174995
-0.064047463 0.057643019 0.67250007
-0.11688825 0.064085722 0.67066669
-0.066919051 0.063084453 0.67133343
-0.11665429 0.066018097 0.67300004
-0.11225829 0.069248006 0.67200011
-0.068543218 0.067904174 0.67262495
-0.11136763 0.071608894 0.67333335
-0.10850652 0.072693817 0.67150009
-0.072251305 0.072892502 0.67137498
-0.06996762 0.071893334 0.67400002
-0.10784001 0.075102866 0.67400002
-0.04783643 -0.040725 0.67875004
-0.042648576 -0.041356672 0.6785
-0.03747905 -0.041356668 0.6785
-0.032086033 -0.041561801 0.67833334
-0.027106669 -0.041952707 0.67766666
-0.021824511 -0.042489909 0.67800003
-0.017578859 -0.042267811 0.67860001
-0.013838668 -0.041257337 0.67900002
-0.12591429 -0.035514288 0.67800003
-0.12462287 -0.035514288 0.67800003
-0.10266858 -0.035514288 0.67800003
-0.098940007 -0.035566669 0.67900002
-0.08728417 -0.036530122 0.67887497
-0.082910098 -0.036548574 0.67800003
-0.07789468 -0.035783432 0.67819995
-0.072426669 -0.035566669 0.67900002
-0.066645965 -0.036309049 0.67775005
-0.06234584 -0.037149645 0.67837501
-0.057543822 -0.037105992 0.67671436
-0.053061526 -0.038346097 0.67780006
-0.047412764 -0.038266286 0.67640013
-0.042645719 -0.038266286 0.67640013
-0.037320599 -0.0386075 0.67562509
-0.031907894 -0.038713064 0.67585725
-0.027020002 -0.038600478 0.67550004
-0.022255812 -0.038723242 0.67540002
-0.017915366 -0.037511308 0.67673349
-0.013697578 -0.037683032 0.67899996
-0.12797585 -0.031981248 0.67892313
-0.12264073 -0.031630237 0.67775005
-0.11736243 -0.031225715 0.67833334
-0.11255208 -0.031205395 0.67788893
-0.10739586 -0.031968661 0.67745459
-0.10259228 -0.033149313 0.67655557
-0.097375125 -0.033535358 0.67712504
-0.092510767 -0.033047896 0.67657155
-0.088096038 -0.033735402 0.67683333
-0.082285717 -0.034071431 0.67500001
-0.077311434 -0.034147143 0.67650002
-0.072053343 -0.034096669 0.67550004
-0.067567311 -0.034105085 0.67566675
-0.063642859 -0.034071431 0.67500001
-0.016988045 -0.032472912 0.67744452
-0.12763238 -0.027720161 0.67683333
-0.12241736 -0.028085718 0.67533338
-0.11706489 -0.028301788 0.6753751
-0.1125562 -0.028942859 0.67533338
-0.10992858 -0.028928574 0.67500001
-0.01892524 -0.027316986 0.67750001
-0.021675238 -0.021933714 0.67739999
-0.025090002 -0.016726192 0.67550004
-0.023307484 -0.01777905 0.67714292
-0.025756313 -0.012877501 0.67612505
-0.023594525 -0.013897859 0.67875004
-0.026111905 -0.0087033343 0.67700005
-0.032281145 -0.0009001905 0.67519999
-0.02899286 -0.001287143 0.67650002
-0.035357144 0.0038571432 0.67500001
-0.032361269 0.0024507937 0.67693347
-0.036454197 0.0079875244 0.67630005
-0.033937383 0.0067878575 0.67875004
-0.16145113 0.014011113 0.67900008
-0.15949143 0.014205715 0.67800003
-0.03724036 0.012414881 0.67712504
-0.16102001 0.016813334 0.67900002
-0.15796836 0.017838413 0.67699999
-0.15492858 0.019285716 0.67500001
-0.040948577 0.018652067 0.67533338
-0.038824763 0.017414859 0.67720002
-0.15704179 0.021627501 0.67787504
-0.15340136 0.022541147 0.67620009
-0.041853528 0.022349143 0.67820001
-0.039446671 0.020046668 0.67900002
-0.15561715 0.025182858 0.67800003
-0.1519596 0.026665173 0.67814285
-0.14820015 0.027691025 0.67614293
-0.04564286 0.027642859 0.67500001
-0.042996287 0.026455674 0.67754549
-0.039446671 0.025220001 0.67900002
-0.15067334 0.030393336 0.67900002
-0.14710286 0.031774811 0.67777783
-0.14348496 0.032814857 0.67560005
-0.047353044 0.032579124 0.67684615
-0.044076383 0.031927049 0.67860001
-0.1455 0.035566669 0.67900002
-0.14240655 0.037459403 0.67812502
-0.050785717 0.035357144 0.67500001
-0.048700385 0.037204769 0.67820001
-0.14032668 0.042033337 0.67900008
-0.1376662 0.042990718 0.67625004
-0.052494451 0.043049689 0.67633337
-0.049756669 0.042649526 0.67850006
-0.13694096 0.046593528 0.67760003
-0.13373128 0.048728101 0.67616671
-0.056984235 0.048119903 0.67566675
-0.053289767 0.047262944 0.67825001
-0.049793337 0.045913335 0.67900002
-0.13232453 0.051637389 0.67774999
-0.12922984 0.05354413 0.67733335
-0.060761593 0.054322224 0.67633337
-0.058491778 0.052393254 0.67763638
-0.12699144 0.057468574 0.67800009
-0.061517436 0.057651151 0.67710006
-0.1261 0.060140003 0.67900002
-0.12322258 0.062643342 0.67810005
-0.06550058 0.062926859 0.67560005
-0.062164553 0.061966892 0.67830777
-0.12074858 0.065217145 0.67800003
-0.11780477 0.067869335 0.67740005
-0.065888934 0.067501791 0.67662507
-0.063116297 0.066994607 0.67855555
-0.11653002 0.07129667 0.67850006
-0.11323667 0.073270649 0.67683339
-0.070175245 0.074038103 0.67600006
-0.067278467 0.072246388 0.67776924
-0.037113339 -0.046228893 0.68366671
-0.032431807 -0.046498477 0.68380004
-0.027340477 -0.046651911 0.68349999
-0.022088692 -0.046775363 0.68212503
-0.01755397 -0.046812069 0.68266672
-0.013019048 -0.046869051 0.68350005
-0.0084685721 -0.046902861 0.68400002
-0.090548575 -0.041040003 0.68400002
-0.08711087 -0.041276574 0.68360007
-0.082446292 -0.041288573 0.68380004
-0.077259436 -0.041561145 0.68400002
-0.073239192 -0.041598372 0.68400007
-0.061589338 -0.041537147 0.68360007
-0.056924105 -0.041979335 0.68230003
-0.052132323 -0.043034796 0.68253332
-0.047438417 -0.043541484 0.68233335
-0.042861789 -0.044160839 0.68187499
-0.037624408 -0.044112027 0.68112504
-0.032733746 -0.044233341 0.68157154
-0.027241908 -0.044751432 0.68099999
-0.023961907 -0.044685718 0.68000001
-0.016838096 -0.044685718 0.68000001
-0.012566408 -0.04348468 0.6814546
-0.0080868034 -0.043135516 0.68328583
-0.11683258 -0.036078673 0.68380004
-0.11184992 -0.036328766 0.68360007
-0.10774518 -0.036349531 0.68328583
-0.10270341 -0.036527354 0.6831429
-0.097069129 -0.036436737 0.68142867
-0.092276409 -0.037562273 0.68269241
-0.087598741 -0.038934607 0.68133342
-0.081859216 -0.039198257 0.68216676
-0.077598095 -0.038345337 0.68240005
-0.072721198 -0.038309447 0.68175
-0.068036191 -0.038811434 0.68199998
-0.062244385 -0.039373528 0.68220007
-0.057638101 -0.039504763 0.68000001
-0.011275048 -0.037194289 0.68040007
-0.0087424349 -0.038227309 0.68288893
-0.12684003 -0.03392572 0.68066669
-0.1205143 -0.034525715 0.68400002
-0.11804001 -0.03372667 0.68099999
-0.11259755 -0.0338264 0.68114299
-0.10782795 -0.034357466 0.68066669
-0.092609532 -0.034323812 0.68000001
-0.012982442 -0.032460302 0.68168747
-0.0097642858 -0.032546669 0.68350005
-0.017052738 -0.026796788 0.68212503
-0.013368427 -0.027688427 0.68346161
-0.009771429 -0.029314287 0.68400002
-0.020105716 -0.020755239 0.68099999
-0.017824858 -0.022379337 0.6831001
-0.014982858 -0.023451431 0.68400002
-0.020810001 -0.017557621 0.68283337
-0.018447939 -0.018447939 0.68366671
-0.022081906 -0.012504763 0.68200004
-0.02611124 -0.0066236197 0.6820001
-0.022896193 -0.0079862345 0.68336368
-0.02676866 -0.0027762775 0.68254548
-0.024102859 -0.0039085718 0.68400002
-0.030438097 0.0045333337 0.68000001
-0.028468097 0.0021150003 0.68325001
-0.032048572 0.0079690926 0.68172729
-0.028865715 0.0062942868 0.68366671
-0.16255239 0.014895239 0.68000001
-0.035969049 0.013934762 0.68050003
-0.033278618 0.012827879 0.68272734
-0.16314477 0.017071113 0.68066669
-0.036650345 0.017538505 0.68200004
-0.03450048 0.016925238 0.68350005
-0.038457885 0.022297038 0.68188888
-0.15619849 0.028224004 0.68280005
-0.15354192 0.028165907 0.6814
-0.041920956 0.028684003 0.6814
-0.039192766 0.027213717 0.68360007
-0.15561557 0.031905081 0.68366671
-0.15239143 0.032733969 0.68283337
-0.14801842 0.03392572 0.68066669
-0.042172991 0.03261853 0.6812728
-0.039064169 0.032553453 0.68362504
-0.15112935 0.0365781 0.68340009
-0.14726451 0.03786641 0.68227273
-0.14377144 0.038857147 0.68000001
-0.046435244 0.038013019 0.68033332
-0.043023374 0.037565082 0.68240005
-0.039028574 0.035776194 0.68300003
-0.1462684 0.041549146 0.68380004
-0.14246692 0.042838573 0.68150008
-0.04753793 0.042698096 0.682091
-0.044297144 0.041040003 0.68400002
-0.14092574 0.047120001 0.68400002
-0.13794287 0.047276195 0.68000001
-0.051864527 0.049272619 0.68075001
-0.048712861 0.046765242 0.68200004
-0.13655072 0.051369287 0.68275005
-0.13323358 0.05348786 0.68075001
-0.055646669 0.052794483 0.68100005
-0.052688148 0.052255772 0.68300009
-0.13217217 0.057032786 0.68308342
-0.12906572 0.058372386 0.68099999
-0.057032067 0.057294797 0.68206668
-0.053634286 0.057108577 0.68400002
-0.13158858 0.060582861 0.68400002
-0.12798168 0.062120959 0.68300009
-0.12258001 0.062263817 0.68099999
-0.060228575 0.063466668 0.68000001
-0.057796828 0.062135722 0.68316674
-0.054068577 0.060582861 0.68400002
-0.12289587 0.067632176 0.6835556
-0.060936607 0.067802183 0.6817143
-0.059002101 0.067338482 0.68380004
-0.020998098 -0.050526671 0.68900001
-0.017036192 -0.050453335 0.68800008
-0.012451429 -0.050453335 0.68800008
-0.0081424508 -0.051005311 0.68785727
-0.0032809526 -0.050526671 0.68900001
-0.087273337 -0.045277145 0.68900001
-0.082023814 -0.045277145 0.68900001
-0.077471815 -0.045487054 0.6882
-0.072006673 -0.045513339 0.68860006
-0.067259528 -0.045605242 0.68900001
-0.062527306 -0.045692705 0.6886667
-0.057415355 -0.046064023 0.68766677
-0.052419052 -0.047178093 0.68800008
-0.047168218 -0.047169641 0.68787503
-0.04259048 -0.047178097 0.68800008
-0.038041499 -0.047951166 0.6870001
-0.033175081 -0.048453815 0.6875
-0.027520001 -0.048707306 0.68800008
-0.022295715 -0.049178574 0.68850005
-0.016993573 -0.049017861 0.68625009
-0.01243143 -0.049071431 0.68700004
-0.0071898419 -0.048370481 0.68633336
-0.0037082541 -0.046907198 0.68722224
-0.11286478 -0.040465079 0.68900007
-0.10748401 -0.040552575 0.68900007
-0.10236572 -0.04035572 0.68900001
-0.096678734 -0.042214923 0.68900007
-0.09275122 -0.04255715 0.68744451
-0.087787494 -0.043285988 0.68714291
-0.082091026 -0.043240685 0.68642867
-0.077485345 -0.043512002 0.68600005
-0.071286947 -0.043071434 0.68671435
-0.06744615 -0.042564452 0.68755561
-0.063453339 -0.043081094 0.68685728
-0.058800004 -0.043773334 0.68600005
-0.0058914288 -0.041238099 0.68733346
-0.0039268257 -0.042536989 0.68716669
-0.12086667 -0.035933334 0.68600005
-0.11785731 -0.037976988 0.68750012
-0.1129181 -0.038148575 0.68666667
-0.10684858 -0.038842097 0.68660009
-0.10199334 -0.038901906 0.68650007
-0.097780816 -0.039131567 0.68642867
-0.094080009 -0.039853334 0.68600005
-0.0067692073 -0.036912069 0.68800008
-0.0078504765 -0.032714289 0.68700004
-0.01154762 -0.025927939 0.68633336
-0.0090411445 -0.027913526 0.68800002
-0.015691429 -0.02092143 0.68650007
-0.012930715 -0.022751907 0.6875
-0.01697273 -0.016855501 0.68790913
-0.013780001 -0.019029524 0.68900001
-0.020253334 -0.012413334 0.68600005
-0.018687621 -0.012785716 0.68849999
-0.020520573 -0.0074497149 0.68620008
-0.019029524 -0.0078742867 0.68900001
-0.025480002 -0.00065333338 0.68600005
-0.021967011 -0.0024287761 0.68707156
-0.019029524 -0.002624762 0.68900001
-0.026349168 0.0031108335 0.68737507
-0.023144085 0.0015933334 0.68871433
-0.030706668 0.009800001 0.68600005
-0.028180005 0.0085198646 0.68814296
-0.03072159 0.012420001 0.68633342
-0.029157622 0.012122381 0.68800002
-0.032900479 0.017514763 0.68750012
-0.029528573 0.015092382 0.68900001
-0.03639508 0.022230003 0.68650007
-0.034105077 0.021644447 0.6886667
-0.037074484 0.027774671 0.68780005
-0.034778096 0.025591429 0.68900001
-0.15506573 0.034677144 0.68700004
-0.036692381 0.03145143 0.68800002
-0.14983144 0.03991143 0.68700004
-0.15059382 0.041906193 0.6875
-0.14799754 0.043053146 0.68700004
-0.045178574 0.043215718 0.6875
-0.043837145 0.042528573 0.68700004
-0.1450181 0.047901906 0.68900001
-0.14345393 0.0470341 0.68780011
-0.13916001 0.049000002 0.68600005
-0.047434293 0.047435243 0.68700004
-0.13843773 0.05278134 0.68760008
-0.050597336 0.052689906 0.68640012
-0.049166672 0.051790163 0.68833339
-0.13661811 0.05766096 0.68800008
-0.13393334 0.05814667 0.68600005
-0.051455058 0.05774172 0.68740004
-0.13543715 0.060848575 0.68700004
-0.13228726 0.062868454 0.68762499
-0.12870668 0.064680003 0.68600005
-0.055961195 0.063816436 0.68725002
-0.053563178 0.062527314 0.68866676
-0.12693176 0.067392707 0.68700004
-0.021150477 -0.056180958 0.69400001
-0.015201906 -0.056180958 0.69400001
-0.011236191 -0.056180958 0.69400001
-0.0079314299 -0.056180958 0.69400001
-0.0039657145 -0.056180958 0.69400001
-0.065434292 -0.050893337 0.69400001
-0.06165969 -0.051309533 0.6936667
-0.057407152 -0.051468097 0.69283336
-0.052948844 -0.05143892 0.69371432
-0.04753786 -0.051499292 0.69325006
-0.04219548 -0.052085787 0.69225013
-0.037205372 -0.052547358 0.69200009
-0.03292064 -0.052016519 0.69133341
-0.027534289 -0.052569713 0.69166672
-0.022607144 -0.05303653 0.69235724
-0.017142303 -0.053404208 0.69225013
-0.012526773 -0.053401906 0.69222224
-0.0076893121 -0.053823497 0.69199997
-0.0025906034 -0.052867688 0.69213337
0.0019827515 -0.052206885 0.69388896
-0.11258223 -0.046266675 0.69400001
-0.10905715 -0.045605719 0.69400001
-0.10244763 -0.045605719 0.69400001
-0.097541198 -0.046134051 0.69200003
-0.09221258 -0.046504002 0.69160002
-0.087226294 -0.047112387 0.69279999
-0.082722463 -0.047151022 0.69171441
-0.077609263 -0.047507487 0.6914286
-0.072536804 -0.048220087 0.69181824
-0.067238711 -0.048201129 0.69154549
-0.062732659 -0.04843878 0.69128579
-0.0581581 -0.048763271 0.69057149
-0.05264762 -0.049357146 0.69100004
-0.047366433 -0.049339287 0.69075
-0.042057145 -0.049285717 0.69000006
-0.037457146 -0.049285717 0.69000006
-0.030885717 -0.049285717 0.69000006
-0.001222041 -0.047675651 0.69114286
0.0017938777 -0.048617281 0.69385725
-0.11679629 -0.041743722 0.69130003
-0.11218251 -0.043326076 0.69187504
-0.1078022 -0.043097623 0.69189996
-0.10266286 -0.042777531 0.69100004
-0.098205917 -0.043515623 0.69020003
-0.0023503404 -0.041871436 0.69157153
-0.12025715 -0.038771432 0.69000006
-0.0038604087 -0.037203271 0.69228584
-0.0059228577 -0.032902382 0.69100004
-0.0046133338 -0.033609528 0.69200009
-0.0072532287 -0.02748307 0.69255555
-0.011504048 -0.021364525 0.69025004
-0.0090159802 -0.022651536 0.69277787
-0.015114287 -0.01577143 0.69000006
-0.01239195 -0.016944505 0.69154549
-0.016275715 -0.01233 0.69050002
-0.012913743 -0.012724898 0.69285715
-0.016611604 -0.0080961054 0.69272727
-0.01388 -0.0099142864 0.69400001
-0.017966261 -0.002916463 0.6914286
-0.021688998 0.0034324867 0.69011116
-0.018662542 0.002194921 0.69166672
-0.026085241 0.0078928582 0.69050014
-0.022696938 0.0077253757 0.69221431
-0.019126192 0.0065966672 0.6925
-0.02731286 0.012555398 0.69383335
-0.030885717 0.017085716 0.69000006
-0.02871393 0.017161787 0.69312501
-0.032090958 0.022754194 0.69050002
-0.02901762 0.021104764 0.6925
-0.032801844 0.0277988 0.69166672
-0.029614288 0.025665715 0.69100004
-0.036800005 0.033514287 0.69000006
-0.033462264 0.031981785 0.692375
-0.15157905 0.042184763 0.69200003
-0.044220004 0.044220004 0.69300002
-0.1513581 0.045605719 0.69400001
-0.14760059 0.046950124 0.69187498
-0.14325716 0.049285717 0.69000006
-0.04626324 0.048636574 0.69200003
-0.044283811 0.047588579 0.69400001
-0.14259039 0.052499335 0.69250005
-0.13997144 0.053228576 0.69000006
-0.046966966 0.052847117 0.6916154
-0.044283815 0.052215241 0.69400001
-0.14037716 0.056677148 0.69200003
-0.13872415 0.058514606 0.69033337
-0.047968976 0.057631042 0.69158334
-0.1367843 0.06181667 0.69050002
-0.025925716 -0.060493339 0.69800001
-0.022601906 -0.060493339 0.69800001
-0.01728381 -0.060493339 0.69800001
-0.011965714 -0.060493339 0.69800001
-0.0099714296 -0.060493339 0.69800001
-0.0033238097 -0.060493339 0.69800001
0.0033238097 -0.060493343 0.69800007
0.0059828577 -0.060493339 0.69800001
-0.061793339 -0.055148896 0.69766665
-0.057169527 -0.055175241 0.69800001
-0.05118667 -0.055175241 0.69800001
-0.047558375 -0.05572246 0.69771427
-0.042234156 -0.057039868 0.69757146
-0.037040956 -0.056689721 0.69700003
-0.032218099 -0.05679667 0.69749999
-0.027680522 -0.057594977 0.69654554
-0.022795429 -0.057918288 0.69580013
-0.017408052 -0.057767712 0.69572735
-0.012762738 -0.057846069 0.69612509
-0.0079629766 -0.058405597 0.69687504
-0.0023874284 -0.057968378 0.69640011
0.0026546826 -0.057732146 0.69675004
0.007141429 -0.056796666 0.69749999
-0.10702668 -0.051186673 0.69800007
-0.10436763 -0.05118667 0.69800001
-0.091737151 -0.05118667 0.69800001
-0.087476723 -0.052341651 0.69727278
-0.082356311 -0.051805362 0.69737506
-0.077318512 -0.051893476 0.69728577
-0.072614834 -0.051598508 0.69585723
-0.067640096 -0.052390005 0.69630009
-0.062736675 -0.053237304 0.69583344
-0.057585716 -0.053614289 0.69500005
-0.052910294 -0.053442098 0.69620007
-0.047657143 -0.053614289 0.69500005
-0.042361908 -0.0549381 0.69500005
-0.03839048 -0.0549381 0.69500005
-0.032433338 -0.0549381 0.69500005
-0.029785717 -0.0549381 0.69500005
0.0034986399 -0.053803414 0.69500011
0.0067288443 -0.053155247 0.6964286
-0.11122668 -0.048124954 0.6960001
-0.10726015 -0.047864951 0.69606668
-0.10258011 -0.048571721 0.69670004
-0.097961918 -0.048319049 0.69500005
-0.092455246 -0.049213335 0.69640011
-0.087371431 -0.049642861 0.69500005
-0.082076199 -0.049642861 0.69500005
-0.07744287 -0.049642861 0.69500005
0.0029382317 -0.047100686 0.69657153
0.0059785722 -0.04915667 0.69749999
-0.0006628572 -0.041758101 0.6960001
0.0011076191 -0.044074606 0.69766665
-0.0019895239 -0.037799686 0.69633341
-0.0029355104 -0.032303404 0.69628584
-0.0059571434 -0.025814287 0.69500005
-0.0040816329 -0.028192928 0.69771439
-0.0065318374 -0.022248032 0.69585723
-0.0046533337 -0.022601906 0.69800001
-0.0079617864 -0.017251668 0.69675016
-0.0046533337 -0.019278096 0.69800001
-0.011268573 -0.011930477 0.69600004
-0.0091708582 -0.013158287 0.69779998
-0.01522381 -0.0059571434 0.69500005
-0.012746773 -0.0080307936 0.69633341
-0.015942857 -0.0033209524 0.69749999
-0.013960001 -0.0046533337 0.69800001
-0.017910002 0.0039814287 0.69650006
-0.02051905 0.0092666671 0.69500005
-0.01919524 0.0092666671 0.69500005
-0.025814287 0.013238097 0.69500005
-0.023065399 0.012307725 0.69644451
-0.019278096 0.011300953 0.69800001
-0.026513971 0.01723524 0.6960001
-0.024560954 0.01526762 0.69700003
-0.028346669 0.023038369 0.69685721
-0.029785717 0.029785717 0.69500005
-0.032124765 0.033119526 0.69550002
-0.029892858 0.032550953 0.69749999
-0.040492382 0.038500953 0.69700003
-0.036858369 0.037334286 0.69642872
-0.033459686 0.035675555 0.69800007
-0.15312001 0.043749526 0.69600004
-0.041622259 0.042587448 0.69572735
-0.037323307 0.042459935 0.69733346
-0.15190399 0.047318257 0.69650006
-0.14858811 0.049750004 0.69650006
-0.041753575 0.047720723 0.69591683
-0.037713122 0.046865512 0.69744444
-0.14719002 0.052379847 0.69616675
-0.14451589 0.054496832 0.69500005
-0.042914771 0.052649051 0.69683337
-0.14619549 0.056484528 0.69775003
-0.14289281 0.0578596 0.69600016
-0.01072762 -0.065036193 0.70400006
-0.0073752385 -0.065036193 0.70400012
0.0073752394 -0.065036193 0.70400012
0.012068573 -0.06570667 0.70400006
-0.052297145 -0.061013337 0.70400006
-0.047308959 -0.061515052 0.70360005
-0.042880002 -0.061640482 0.70350003
-0.037486315 -0.061586078 0.70287502
-0.032352656 -0.061554566 0.70142865
-0.028019529 -0.061377626 0.70050001
-0.022681907 -0.062044289 0.70050001
-0.017142858 -0.062565088 0.7013334
-0.012251323 -0.062594816 0.70166671
-0.0073486776 -0.06213006 0.70144451
-0.0026125542 -0.062276971 0.70172739
0.0020027214 -0.062319193 0.70142865
0.0075188098 -0.062324055 0.7017501
0.01204397 -0.062222071 0.70250005
-0.095878102 -0.055649526 0.70400006
-0.091725245 -0.056240477 0.70300001
-0.087534167 -0.056131553 0.70162505
-0.082822867 -0.056388337 0.70275003
-0.077693105 -0.056260716 0.70325005
-0.07206668 -0.056179054 0.70342863
-0.067182943 -0.057493575 0.70191681
-0.062836595 -0.057826899 0.70191681
-0.057502501 -0.057710841 0.70269233
-0.052297421 -0.057739053 0.70142865
-0.047367148 -0.058709055 0.70050001
-0.043115433 -0.059134483 0.7008
-0.037451565 -0.058798239 0.70042866
-0.032943051 -0.058816958 0.70020002
-0.030000001 -0.059333336 0.70000005
0.0082222223 -0.058888894 0.70000005
0.011903495 -0.057630487 0.70200008
-0.10600001 -0.052666672 0.70000005
-0.10256917 -0.052456316 0.70162499
-0.097594768 -0.052142382 0.70187497
-0.092952795 -0.053102456 0.70071441
-0.090000004 -0.054000005 0.70000005
-0.082724765 -0.054038577 0.70050001
-0.077389531 -0.054038573 0.70050007
-0.072025478 -0.054019291 0.70025003
0.0081453342 -0.051138479 0.70100003
0.010302478 -0.052309718 0.70240003
0.0046700006 -0.046699528 0.70050001
0.0071369847 -0.04750143 0.70250005
0.0028974605 -0.042535558 0.70150012
0.0064812708 -0.044474926 0.70400012
-0.00066690479 -0.03734643 0.70025003
0.0017411432 -0.037739623 0.70260006
-0.00066809531 -0.032067142 0.70150006
0.00093809533 -0.032557141 0.70340008
-0.0018104765 -0.02775415 0.70100009
0.00067047623 -0.028830478 0.70400006
-0.0026701193 -0.022701785 0.70112503
-0.0040066671 -0.01736635 0.7013334
-0.010000001 -0.010000001 0.70000005
-0.0075382316 -0.012119458 0.70142859
-0.0046866671 -0.014060001 0.70300001
-0.010550858 -0.0070773335 0.70120001
-0.0087100007 -0.0080395248 0.70350003
-0.015785081 -0.0011114287 0.70033336
-0.012583715 -0.0029452383 0.70290005
-0.015946532 0.0023900685 0.70185727
-0.014070001 0.0026809524 0.70350003
-0.016968256 0.0071457154 0.70333338
-0.014080001 0.0067047626 0.70400006
-0.02113143 0.013568889 0.70066679
-0.018718097 0.011361906 0.70200002
-0.026000002 0.019333335 0.70000005
-0.023074446 0.01739159 0.70233339
-0.026303811 0.023100764 0.70100003
-0.024250478 0.02210724 0.70340008
-0.027769256 0.027197827 0.70142865
-0.030128574 0.032806668 0.70300001
-0.028261716 0.031209907 0.70320004
-0.032241147 0.037728384 0.70240009
-0.15674192 0.044020951 0.70033336
-0.035333335 0.043333337 0.70000005
-0.033266071 0.042964645 0.70212507
-0.1566681 0.047384284 0.70075011
-0.15400001 0.048666671 0.70000005
-0.035794608 0.0482454 0.70033336
-0.033533908 0.047161717 0.70139998
-0.15599906 0.050214291 0.70300001
-0.15196049 0.051838897 0.70083332
-0.04101453 0.053019293 0.70025003
-0.0067428574 -0.070800006 0.708
-0.046525717 -0.065405719 0.70800006
-0.042480003 -0.065405719 0.70800006
-0.03735543 -0.06567543 0.708
-0.031961143 -0.065675437 0.708
-0.027645718 -0.066080011 0.70800006
-0.022909431 -0.066438191 0.70749998
-0.017443985 -0.066530563 0.70690912
-0.012111271 -0.067287788 0.70650005
-0.0074031749 -0.067976512 0.70666665
-0.0028465204 -0.066825569 0.70653844
0.0026334201 -0.066547364 0.70709103
0.0073976195 -0.067255087 0.70616668
0.012120953 -0.068680964 0.70700008
0.015947144 -0.067381434 0.70749998
-0.096422866 -0.060011432 0.708
-0.093276195 -0.060460955 0.70800006
-0.086982869 -0.060011432 0.70800006
-0.081588581 -0.060910486 0.70800006
-0.077542864 -0.061360009 0.70800006
-0.072915815 -0.061595052 0.7076
-0.067274883 -0.061892744 0.706375
-0.062171437 -0.062173888 0.70628566
-0.057581801 -0.062064767 0.70577782
-0.052482858 -0.063250013 0.70649999
-0.047523431 -0.063680001 0.70679998
-0.042381279 -0.063906357 0.70633334
-0.037706669 -0.063966669 0.70700002
-0.032276191 -0.063876197 0.70600003
-0.027581906 -0.063906357 0.70633334
-0.022828573 -0.063785717 0.70500004
-0.018128572 -0.063785717 0.70500004
0.0040285718 -0.063785717 0.70500004
0.016157303 -0.062379848 0.70683336
-0.10102429 -0.057248097 0.70716667
-0.097749889 -0.057372984 0.70662498
-0.093479879 -0.057741094 0.70614284
-0.087285712 -0.058414288 0.70500004
-0.081919059 -0.059321713 0.70620006
-0.077691838 -0.059062451 0.70585716
-0.07282953 -0.058937252 0.70588887
-0.069157146 -0.059757147 0.70500004
-0.058414288 -0.059757147 0.70500004
0.014160001 -0.055965718 0.708
0.015475716 -0.059210002 0.70650005
-0.10138572 -0.054385718 0.70500004
0.012794668 -0.052654285 0.70699996
0.0087285722 -0.047000006 0.70500004
0.010870341 -0.047806397 0.70699996
0.0047000004 -0.040957145 0.70500004
0.0077016936 -0.042541485 0.70655549
0.0042612702 -0.037223496 0.7063334
0.0071457149 -0.03801867 0.70780009
0.0032171432 -0.032388579 0.70688897
0.0067428574 -0.034388572 0.708
-0.00067142863 -0.026185716 0.70500004
0.0017965081 -0.02760667 0.70700002
-0.00067190483 -0.022843335 0.70550001
0.0011233335 -0.023358574 0.70749998
-0.0023535716 -0.017487857 0.70625001
-0.0065047625 -0.010544129 0.70666671
-0.0040428573 -0.012801906 0.70749998
-0.0071725408 -0.0073979376 0.70616668
-0.010629334 -0.0017478097 0.70640004
-0.0083120642 -0.0042682542 0.70766664
-0.016833335 0.0047133337 0.70700002
-0.01188106 0.0024656088 0.70622224
-0.016338097 0.0078333346 0.7050001
-0.012392519 0.007590069 0.70614284
-0.01691135 0.012433096 0.70558333
-0.013460001 0.011441905 0.70666665
-0.020814288 0.018128574 0.7050001
-0.018631324 0.017285928 0.70711118
-0.022331716 0.023006763 0.70629996
-0.019540478 0.021562383 0.70749998
-0.026185716 0.028200001 0.70500004
-0.024913335 0.026933335 0.70700002
-0.027118733 0.033394925 0.70600003
-0.030214287 0.038271435 0.7050001
-0.027957503 0.037053932 0.70737505
-0.03122912 0.042569261 0.70628572
-0.15684906 0.052509367 0.70683336
0.021080002 -0.075480007 0.71400005
0.026520003 -0.075480007 0.71400005
-0.045560002 -0.070040002 0.71400005
-0.041706666 -0.070493333 0.71400011
-0.037740003 -0.071060002 0.71400005
-0.032617148 -0.072030008 0.71350002
-0.027167741 -0.071992271 0.71312499
-0.022382384 -0.071896031 0.71216673
-0.017636191 -0.071904525 0.71225005
-0.012206667 -0.071879521 0.71200001
-0.007656055 -0.072974704 0.71228576
-0.0027113096 -0.071891792 0.71212506
0.0027187304 -0.072726667 0.7136668
0.0074708336 -0.072502509 0.71312505
0.011809715 -0.071532004 0.71260005
0.018332791 -0.072062865 0.71285719
0.022419684 -0.072693124 0.71333343
0.02636889 -0.071853332 0.71400011
-0.090992391 -0.065867625 0.71300006
-0.087448008 -0.066504002 0.71400005
-0.075480007 -0.065960005 0.71400005
-0.072055012 -0.065936908 0.71375
-0.067320004 -0.065960005 0.71400011
-0.062066104 -0.066139624 0.713
-0.057300478 -0.066113815 0.71200001
-0.052664131 -0.066680647 0.71200001
-0.047669739 -0.067553341 0.71166676
-0.042630002 -0.067667156 0.7105
-0.037849527 -0.06825313 0.71111119
-0.032684159 -0.068507023 0.71090913
-0.027062263 -0.069008216 0.71037501
-0.021983573 -0.069334053 0.71025002
-0.017721334 -0.069396771 0.71020001
-0.013523811 -0.069647625 0.71000004
-0.002028889 -0.069680326 0.71033335
0.0028430477 -0.069455624 0.71080005
0.0074380962 -0.069647625 0.71000004
0.01854381 -0.067676581 0.71060008
0.022388576 -0.067840323 0.71233338
0.025500001 -0.067660004 0.71400005
-0.097341701 -0.061713118 0.71033335
-0.092076801 -0.063008569 0.71136373
-0.087677471 -0.062825084 0.71183342
-0.083022505 -0.063031547 0.71162504
-0.077262506 -0.063708924 0.71162504
-0.072265334 -0.063859999 0.71180004
-0.067714289 -0.064328574 0.71100003
-0.062915877 -0.064268261 0.71033335
-0.058152385 -0.064238101 0.71000004
0.018755343 -0.062287621 0.71177781
0.022243217 -0.063331313 0.71312511
0.017694892 -0.057391696 0.71200013
0.014200001 -0.050714288 0.71000004
0.0168355 -0.052718621 0.71218193
0.013161271 -0.046850588 0.71066666
0.016473334 -0.048058573 0.7132501
0.012395852 -0.042310141 0.71164298
0.015640002 -0.043520004 0.71400005
0.0087904772 -0.03651429 0.71000004
0.011646271 -0.037872467 0.71225011
0.0047400002 -0.031148575 0.71100003
0.0075960006 -0.032140192 0.71200007
0.010872858 -0.034655716 0.71350002
0.0041620415 -0.026805311 0.71128577
0.0065704766 -0.02764 0.71366668
0.0035595242 -0.022192145 0.71149999
0.0061200005 -0.023800002 0.71400005
-0.00094800018 -0.017207811 0.71140003
0.0011322224 -0.018110637 0.71316671
-0.0023336511 -0.011982964 0.71211123
-0.0060857148 -0.0060857148 0.71000004
-0.0033881487 -0.00745545 0.71177793
-0.0071514291 -0.0021819051 0.71144456
-0.0034000003 -0.0044200006 0.71400005
-0.01014762 0.003383175 0.71033335
-0.0077435249 0.0024461909 0.71330017
-0.010166667 0.0074555567 0.71166676
-0.0088400003 0.0074800001 0.71400005
-0.01170381 0.012383573 0.71249998
-0.016151022 0.017894153 0.71085715
-0.013580635 0.016977461 0.71300006
-0.017628811 0.02237786 0.71200001
-0.02501905 0.029076193 0.71000004
-0.022203431 0.027485335 0.71080005
-0.019125309 0.026892655 0.71357149
-0.02502786 0.032467857 0.71025002
-0.022386353 0.032563813 0.71233344
-0.019720001 0.032866672 0.71400011
-0.026188098 0.038154766 0.71116674
-0.023443334 0.037034288 0.71350008
-0.026954699 0.042375378 0.71271437
-0.045879051 -0.076008573 0.71900004
-0.041770481 -0.076008573 0.71900004
-0.025336193 -0.076008573 0.71900004
-0.022567621 -0.075902864 0.71800005
-0.017777145 -0.075902864 0.71800005
-0.012325715 -0.076008573 0.71900004
-0.0075253975 -0.075938106 0.71833342
-0.0030284359 -0.076504909 0.71814287
0.0027348814 -0.076626785 0.71837503
0.0075061908 -0.076427147 0.71650004
0.012308571 -0.076587625 0.71800005
0.01784868 -0.076791964 0.71777773
0.022528984 -0.077149123 0.71685719
0.025230478 -0.075691432 0.71600002
-0.077378109 -0.070530489 0.71900004
-0.073269531 -0.070530489 0.71900004
-0.065052383 -0.070530482 0.71900004
-0.062313341 -0.070530489 0.71900004
-0.057520002 -0.070530482 0.71900004
-0.052409906 -0.071019433 0.71840006
-0.047757298 -0.072242573 0.71715385
-0.042622291 -0.073360763 0.71719998
-0.037574925 -0.073783815 0.71733344
-0.032777146 -0.074431434 0.71700001
-0.027305478 -0.074405484 0.71675003
-0.022513336 -0.074362233 0.71633339
-0.017740954 -0.074379534 0.71650004
-0.01228381 -0.074379534 0.71650004
-0.0027276191 -0.074327625 0.71600002
0.007500953 -0.074327625 0.71600002
0.012572247 -0.073772527 0.71628582
0.016779238 -0.073802859 0.71620005
0.026594289 -0.072281912 0.71600002
-0.085639052 -0.067897625 0.71650004
-0.082525603 -0.067492507 0.71762502
-0.077888578 -0.067642108 0.71740001
-0.072407871 -0.068310723 0.71725005
-0.067665726 -0.068350494 0.71766675
-0.063077554 -0.068342865 0.71657151
-0.057787936 -0.068481915 0.7166667
-0.05326286 -0.068968579 0.71700001
0.028271047 -0.066918485 0.71700007
0.030771431 -0.065644763 0.71800005
-0.081146672 -0.064780958 0.71600002
0.022852145 -0.06105167 0.71625006
0.02650159 -0.063249737 0.71755558
0.019789049 -0.055954769 0.71650004
0.022287052 -0.057696193 0.71780008
0.01977524 -0.05250667 0.71600002
0.021227621 -0.053411432 0.71900004
0.018656826 -0.047550481 0.7166667
0.021227621 -0.049987622 0.71900004
0.016387619 -0.042334765 0.71700001
0.014340001 -0.037557144 0.71700001
0.015749525 -0.039031431 0.71900004
0.011230205 -0.032516193 0.71771437
0.0084246043 -0.026864288 0.71716666
0.010271429 -0.029444763 0.71900004
0.0068295244 -0.022534762 0.71700001
0.0036859051 -0.017471239 0.71660006
0.0061478578 -0.017758809 0.71725005
-0.00068190478 -0.010910477 0.71600002
0.0023686448 -0.012673848 0.71784616
0.0061628576 -0.014380001 0.71900004
-0.00068222231 -0.0075038103 0.71633339
0.00068285718 -0.0081942864 0.71700001
-0.002866667 -0.0023213336 0.71700001
-0.0061371434 0.0040914286 0.71600002
-0.0038707939 0.0025061381 0.71744448
-0.0071228584 0.0075152391 0.71728581
-0.0041085719 0.0061628576 0.71900004
-0.010235716 0.013648096 0.71650004
-0.0086156195 0.01189981 0.71800005
-0.011603916 0.017976403 0.7167778
-0.0089019053 0.016434286 0.71900004
-0.015694764 0.02320143 0.71650004
-0.0133766 0.022361908 0.71771437
-0.016625293 0.027559472 0.71744448
-0.014380001 0.026705718 0.71900004
-0.018440478 0.032328732 0.71716678
-0.021714479 0.037831433 0.71700007
-0.019839685 0.03762826 0.71833342
-0.0027542859 -0.08056286 0.72300005
0.0034428574 -0.08056286 0.72300005
0.0079128575 -0.080851428 0.72250009
0.012613097 -0.081988811 0.72241676
0.017554289 -0.081325717 0.72000009
0.021257143 -0.080228575 0.72000003
-0.081251428 -0.075054288 0.72300005
-0.078152858 -0.075398572 0.72300005
-0.065414287 -0.075054288 0.72300005
-0.062660001 -0.075054288 0.72300005
-0.057840005 -0.075054288 0.72300005
-0.052730676 -0.076134853 0.72280008
-0.048101433 -0.07627286 0.72150004
-0.042780321 -0.076184772 0.72066677
-0.037425037 -0.077112652 0.72200006
-0.032658782 -0.076794297 0.72085726
-0.027771566 -0.077036336 0.72128576
-0.022660954 -0.077250481 0.72100008
-0.017828573 -0.077485718 0.72000003
-0.012358096 -0.077593341 0.72100008
-0.0075428579 -0.077485725 0.72000003
-0.0023405717 -0.078845724 0.72240007
0.0027504764 -0.079076193 0.72200006
0.007548572 -0.078930162 0.72066677
0.012358096 -0.07896667 0.72100002
0.017600002 -0.078857146 0.72000003
-0.085714288 -0.070628576 0.72000003
-0.082317673 -0.072066583 0.72190922
-0.077610955 -0.072804615 0.72116673
-0.072624236 -0.072626151 0.72166675
-0.067540087 -0.072290055 0.72163653
-0.062486675 -0.072787628 0.72100008
-0.057711072 -0.072825365 0.72137505
-0.052491982 -0.073880829 0.72114295
-0.048685718 -0.074742861 0.72000003
-0.082285717 -0.069257148 0.72000003
0.028404955 -0.061611053 0.72040004
0.030857146 -0.063771434 0.72000003
0.024000002 -0.056228574 0.72000003
0.027018758 -0.057892904 0.72169238
0.023024406 -0.052402742 0.72162509
0.026148098 -0.054359525 0.72250009
0.019885715 -0.046628576 0.72000003
0.021682622 -0.047838815 0.72275007
0.018566806 -0.042927079 0.72200006
0.014430001 -0.035730004 0.72150004
0.01626635 -0.037800953 0.72166675
0.013395477 -0.032627858 0.72125006
0.011512024 -0.027832741 0.72162509
0.0086014289 -0.022362858 0.72250009
0.010328572 -0.024100002 0.72300005
0.0078329537 -0.018274859 0.72140008
0.0043428577 -0.010742858 0.72000003
0.0065238099 -0.012360001 0.72100008
0.0031320637 -0.00755873 0.72155559
0.0061885719 -0.0082514286 0.72200006
-0.0006866667 -0.0013723811 0.72100008
0.00068809534 -0.002751905 0.72250009
-0.0012748301 0.0030427214 0.72142863
0.00068857148 0.00068857148 0.72300005
-0.0034371433 0.0077933334 0.72200006
-0.0067719733 0.012662041 0.72142863
-0.0048200004 0.011017144 0.72300005
-0.010285715 0.019885715 0.72000003
-0.0075667864 0.017887026 0.72237509
-0.010845715 0.022928763 0.7208001
-0.0089514293 0.022722861 0.72300005
-0.012018098 0.027473971 0.72116679
-0.0164754 0.032952543 0.72083342
-0.013276735 0.03196327 0.72285724
-0.010414287 -0.085397147 0.72900003
-0.0076371431 -0.085397147 0.72900003
-0.0031200002 -0.086147636 0.72800004
0.0027771429 -0.085397147 0.72900003
0.0062485719 -0.085397147 0.72900003
-0.052071434 -0.081231438 0.72900003
-0.036102861 -0.081231438 0.72900003
-0.032602545 -0.081851438 0.72833335
-0.027714765 -0.08245191 0.72750008
-0.022181114 -0.082489371 0.72783339
-0.017325398 -0.082470797 0.72766668
-0.012469525 -0.082433015 0.72733343
-0.0076115355 -0.08234445 0.72655559
-0.0027627621 -0.082477249 0.72530001
0.0025350268 -0.082716413 0.7257778
0.0073262863 -0.083087437 0.72580004
0.010817461 -0.08446826 0.72500008
-0.076550215 -0.077144772 0.72600001
-0.072318107 -0.077564768 0.72714293
-0.067538671 -0.077091061 0.72660005
-0.062165543 -0.077630483 0.72600001
-0.057415143 -0.078169636 0.72633332
-0.052602146 -0.078905724 0.72674996
-0.047434427 -0.079124771 0.72785723
-0.04263062 -0.078834161 0.72700006
-0.0374531 -0.079760723 0.72825003
-0.032482862 -0.07947778 0.7256667
-0.027619049 -0.079404764 0.72500002
-0.022095241 -0.079404764 0.72500002
-0.017261907 -0.079404764 0.72500008
-0.012428571 -0.079404764 0.72500002
-0.0075952387 -0.079404764 0.72500008
0.024166668 -0.050404765 0.72500002
0.027557716 -0.05289657 0.727
0.023739684 -0.047016196 0.72600001
0.025676828 -0.047883179 0.72866672
0.018642858 -0.040738098 0.72500002
0.022147939 -0.042676352 0.72666669
0.017792383 -0.036792859 0.72549999
0.020796033 -0.038123336 0.72783345
0.014500001 -0.031761907 0.72500002
0.016918913 -0.032745585 0.72714293
0.013716601 -0.026938915 0.72528577
0.016405877 -0.0281881 0.72783339
0.012237701 -0.022393256 0.72725004
0.015968572 -0.024300002 0.72900003
0.0089844456 -0.017277144 0.7256667
0.010414287 -0.017357145 0.72900003
0.0084108859 -0.012168982 0.72714293
0.010414287 -0.013885716 0.72900003
0.0034523811 -0.0062142862 0.72500002
0.0076156198 -0.007614858 0.72679996
0.0034570643 -0.0027642071 0.72591662
0.0065807146 -0.003809286 0.72725004
0.0026131873 0.0027169234 0.72723079
-0.001037381 0.0079554766 0.72625005
0.0012478096 0.0073434296 0.72740006
-0.0024684358 0.012650887 0.72642863
0.00069404772 0.012493573 0.72875005
-0.0062142862 0.018642858 0.72500002
-0.0031800007 0.017156763 0.72640002
0.0013885716 0.015968572 0.72900003
-0.006808572 0.022400411 0.72528577
-0.0043885717 0.021715876 0.72766674
-0.010357143 0.029690478 0.72500002
-0.0080700545 0.027444446 0.72644442
-0.021670479 -0.090177149 0.73400009
-0.018175241 -0.090177149 0.73400003
-0.0072876201 -0.092538245 0.73371434
-0.0028877554 -0.091905452 0.73185718
-0.051729526 -0.085982859 0.73400003
-0.046836194 -0.085982859 0.73400009
-0.042641908 -0.085982859 0.73400009
-0.037288766 -0.086168766 0.73320001
-0.03241742 -0.086681373 0.73314291
-0.027608439 -0.086414702 0.73257142
-0.022299208 -0.087104134 0.73166668
-0.017415134 -0.087077364 0.73144442
-0.0127413 -0.087292828 0.73218185
-0.0074903578 -0.088318221 0.73162502
