# .PCD v0.7 - Point Cloud Data file format
VERSION 0.7
FIELDS x y z
SIZE 4 4 4
TYPE F F F
COUNT 1 1 1
WIDTH 1328
HEIGHT 1
VIEWPOINT 0 0 0 1 0 0 0
POINTS 1328
DATA ascii
-0.049120001 0.015788572 0.61400002
-0.036372192 0.016490286 0.61400002
-0.033526354 0.017153017 0.61400008
-0.029043175 0.016568255 0.61400008
-0.11693858 0.0085119056 0.61650014
-0.11251123 0.0081429072 0.61784214
-0.10723216 0.0083369194 0.61764717
-0.10221566 0.0082219644 0.61681253
-0.097588964 0.0083356192 0.61653346
-0.092457801 0.0081387972 0.61752635
-0.087081969 0.0082362499 0.61781263
-0.082383223 0.0082364287 0.61787504
-0.077823669 0.0078405133 0.61869234
-0.07245709 0.0081339497 0.6179412
-0.067282021 0.008444286 0.61700016
-0.062288579 0.0088122226 0.6170001
-0.057791539 0.0092071956 0.61711121
-0.052794505 0.0090922751 0.61822224
-0.047101669 0.0084482152 0.61725008
-0.042628445 0.0082383677 0.61799997
-0.037729524 0.0088428576 0.61900002
-0.032127518 0.0087014819 0.6183334
-0.029282099 0.0090542873 0.61740011
-0.12007143 0.011128572 0.61500001
-0.1172972 0.012903154 0.6158126
-0.11266252 0.012909046 0.61612511
-0.10759234 0.012772116 0.61583346
-0.10223969 0.013015873 0.61499989
-0.097228572 0.012885714 0.61499989
-0.092396319 0.012716302 0.61517638
-0.087734863 0.012996135 0.61535299
-0.082600437 0.012692487 0.61511105
-0.07747744 0.011150382 0.61630011
-0.072587565 0.012557077 0.61535716
-0.06774763 0.012846669 0.61499995
-0.061500013 0.012651429 0.61499995
-0.057411551 0.012887975 0.61512494
-0.053022292 0.012541144 0.61540002
-0.047003575 0.012592857 0.61499989
-0.042099666 0.012721736 0.61547053
-0.037622172 0.012059523 0.61616665
-0.032975398 0.012575082 0.61583334
-0.028749764 0.012515477 0.61608338
-0.11746334 0.016815713 0.61730009
-0.11248052 0.017682076 0.61758822
-0.10734522 0.01758723 0.61670595
-0.10223274 0.017495126 0.61588234
-0.097396493 0.017604347 0.61606246
-0.092693701 0.017601786 0.61600006
-0.087427154 0.017603906 0.61610001
-0.082100838 0.01759393 0.61575001
-0.078109294 0.018319286 0.61549997
-0.072268292 0.017718537 0.61538464
-0.067526668 0.017676841 0.615421
-0.061947219 0.01783143 0.61528569
-0.057423335 0.017579287 0.61524993
-0.052882671 0.017706925 0.61560005
-0.047303129 0.017788941 0.61572218
-0.042227566 0.017596014 0.61581254
-0.037981823 0.018059224 0.61527282
-0.032331433 0.017805714 0.61499995
-0.029090479 0.018938096 0.61500001
-0.11142001 0.020633336 0.61900008
-0.10729334 0.021026351 0.61900002
-0.10232445 0.020622224 0.61866671
-0.096092388 0.020633334 0.61900002
-0.092162237 0.020829841 0.61900002
-0.087221347 0.021569906 0.61879998
-0.082204863 0.021552667 0.61830002
-0.0774877 0.021940148 0.61746162
-0.072629534 0.022490267 0.61777782
-0.067387417 0.022224553 0.61766666
-0.062506743 0.022097211 0.61750001
-0.057521988 0.021951431 0.61776924
-0.052648742 0.022369158 0.61805564
-0.047280621 0.022273676 0.61829424
-0.0423734 0.02236494 0.61793751
-0.037642088 0.022352083 0.61756259
-0.032857798 0.022296965 0.61606252
-0.028723655 0.022276353 0.61549997
-0.067205712 0.025349526 0.61900002
-0.053646669 0.025349526 0.61900002
-0.041856192 0.025349526 0.61900002
-0.038908575 0.025349526 0.61900002
-0.031538099 0.02682762 0.61845458
-0.029084384 0.026731623 0.6182
-0.11757382 0.0041566668 0.62349999
-0.11152762 0.0037638098 0.62400001
-0.10787728 0.0038130619 0.62285721
-0.10400001 0.0041600005 0.62400001
-0.09270858 0.0041600005 0.62400001
-0.087954283 0.0041600005 0.62400001
-0.082704216 0.0030659528 0.62325007
-0.077709645 0.0037072622 0.62287503
-0.072338298 0.0039196196 0.62360001
-0.068937153 0.0041600005 0.62400001
-0.055862859 0.0041600005 0.62400001
-0.052297145 0.0041600005 0.62400001
-0.046354286 0.0041600005 0.62400001
-0.043977149 0.0041600005 0.62400001
-0.039817147 0.0041600005 0.62400001
-0.11657397 0.0053257151 0.62133336
-0.11268976 0.0053378572 0.62275004
-0.10746667 0.0053142859 0.62
-0.10260991 0.005338286 0.62280005
-0.097219817 0.0055779051 0.62320006
-0.092560008 0.0053400001 0.62300003
-0.087741911 0.0053357147 0.62250006
-0.082867146 0.0053271432 0.62150002
-0.077501342 0.0053245719 0.62120003
-0.072389342 0.0055676191 0.62200004
-0.067219436 0.0055710482 0.62239999
-0.063147813 0.0062784762 0.62200004
-0.057512216 0.0064126411 0.62254554
-0.052253488 0.006501832 0.6207692
-0.047760572 0.0055693337 0.62220001
-0.042284004 0.005565905 0.62180001
-0.037632018 0.0064142863 0.62115383
-0.032963391 0.0065121702 0.62177783
-0.029026669 0.0065161907 0.62200004
-0.12025334 0.018363811 0.62200004
-0.1171082 0.019262096 0.62039995
-0.12104191 0.022879621 0.62239999
-0.11735483 0.022509109 0.62193751
-0.11250792 0.022885351 0.62099999
-0.10733216 0.023403734 0.62208343
-0.10231002 0.022868913 0.62250012
-0.097339064 0.022591621 0.62093329
-0.09235689 0.023157232 0.62054551
-0.087484449 0.023841906 0.62066668
-0.083150476 0.023841906 0.62066668
-0.078533337 0.024209525 0.62
-0.061409526 0.024209525 0.62
-0.058457147 0.024209525 0.62
-0.050190479 0.024209525 0.62
-0.11723658 0.026012573 0.62360007
-0.11235607 0.026271075 0.62337506
-0.10784084 0.025994644 0.62387502
-0.10196246 0.027167352 0.62400001
-0.097365372 0.027310831 0.62337506
-0.092606381 0.027308632 0.62331247
-0.087961331 0.026887329 0.62307703
-0.082551956 0.026938859 0.62300003
-0.077338099 0.027052652 0.62328577
-0.072471708 0.027158428 0.6222353
-0.067608714 0.027537555 0.62271434
-0.06266997 0.027380111 0.62252933
-0.057512071 0.027275976 0.62255555
-0.052140601 0.027219165 0.62124997
-0.047366492 0.027237799 0.62168759
-0.042696606 0.027480546 0.62142867
-0.037515942 0.02757765 0.62133336
-0.03385742 0.027609799 0.62057149
-0.075474292 0.030308573 0.62400001
-0.072502859 0.030308573 0.62400001
-0.067946672 0.030308573 0.62400001
-0.061805721 0.030308573 0.62400001
-0.057051431 0.030308573 0.62400001
-0.052891433 0.030308573 0.62400001
-0.047523573 0.03029643 0.62375003
-0.042788576 0.030308573 0.62400001
-0.0369725 0.030736074 0.62362504
-0.032020383 0.031191243 0.62260002
-0.12040858 -0.0011980953 0.62900001
-0.11741334 -0.00059904763 0.62900001
-0.11262096 -0.00059904763 0.62900001
-0.10778596 -0.00059880957 0.62874997
-0.10363524 -0.00059904763 0.62900001
-0.091385916 -0.0010780953 0.62880003
-0.086968899 -0.00099777791 0.62833333
-0.082537144 -0.0005980953 0.62800002
-0.078433029 -0.00059873023 0.62866664
-0.07368286 -0.00059904763 0.62900001
-0.066494294 -0.00059904763 0.62900007
-0.06266699 -0.00099809538 0.62866664
-0.058107626 -0.00059904763 0.62900007
-0.11700763 0.00197348 0.62707698
-0.11281358 0.0019873811 0.62675011
-0.10727706 0.0016805197 0.6267274
-0.10250308 0.002384966 0.6267857
-0.097637758 0.0026388438 0.62621433
-0.092577219 0.0021066032 0.62660003
-0.087394938 0.0017866668 0.62566668
-0.081890874 0.00083409529 0.62580007
-0.077291973 0.0013897355 0.62588894
-0.072583109 0.0015888097 0.62641668
-0.067279294 0.0021635715 0.62725002
-0.062225889 0.0024904206 0.62647063
-0.057569392 0.002245568 0.62615389
-0.052549288 0.0029838097 0.62700003
-0.047822863 0.0022483517 0.62707698
-0.042636957 0.0028643811 0.62700003
-0.037096191 0.0035902385 0.62825
-0.032137889 0.0033933336 0.6287778
-0.029337779 0.0029936512 0.62866664
-0.061904766 0.005357143 0.625
-0.03162048 0.0053700004 0.62650001
-0.029306669 0.0053828573 0.62800002
-0.11964287 0.024404764 0.625
-0.11732374 0.028451173 0.62590915
-0.11246322 0.028451789 0.62562501
-0.10702383 0.028214289 0.625
-0.10416667 0.028571431 0.625
-0.086904772 0.029166669 0.625
-0.082341284 0.029166669 0.625
-0.078571439 0.029166669 0.625
-0.11717893 0.032285955 0.62775004
-0.11236388 0.032276135 0.62756258
-0.10758257 0.032277204 0.62756252
-0.10266715 0.032235242 0.62674999
-0.097616725 0.032386668 0.62711114
-0.092364326 0.032194678 0.62664711
-0.087284379 0.032115411 0.62647063
-0.082397327 0.032244828 0.62693757
-0.077673919 0.032336261 0.62640011
-0.072784051 0.032813735 0.62641668
-0.067585781 0.032740325 0.62653333
-0.062422395 0.032532319 0.62592864
-0.057257384 0.032804683 0.62625003
-0.052353267 0.032624178 0.62630773
-0.047676593 0.032778334 0.62575001
-0.042902227 0.032773972 0.62566668
-0.037827939 0.033062704 0.62549996
-0.033035718 0.033630952 0.625
-0.11681429 0.035643335 0.62900001
-0.11259822 0.035935834 0.62887502
-0.10842763 0.035343811 0.62900007
-0.10207772 0.036302287 0.62900007
-0.097045727 0.03594286 0.62900001
-0.09221714 0.035928812 0.62875003
-0.087080888 0.036608655 0.62841678
-0.082828961 0.036268193 0.62840003
-0.077525318 0.036618181 0.62858343
-0.072567932 0.037214544 0.62863159
-0.067237876 0.037018713 0.62870598
-0.062227033 0.037098095 0.62825
-0.05742304 0.03708709 0.62806255
-0.052790411 0.036682129 0.62823087
-0.047715247 0.036673773 0.62807703
-0.042467859 0.037086528 0.62805003
-0.037089288 0.037091073 0.62812507
-0.032271549 0.037054881 0.6275
-0.029330002 0.038309053 0.62849998
-0.066494286 0.040136196 0.62900007
-0.062900007 0.040136192 0.62900001
-0.056909528 0.040136196 0.62900007
-0.043730479 0.040136192 0.62900001
-0.032947622 0.040136192 0.62900001
-0.11810167 -0.0058826189 0.63349998
-0.096609533 -0.0054342858 0.634
-0.094798103 -0.0054342858 0.634
-0.087552384 -0.0054342858 0.634
-0.083929531 -0.0054342858 0.634
-0.079099052 -0.0054342858 0.634
-0.07245715 -0.0054342858 0.634
-0.067600243 -0.0060359524 0.63374996
-0.06318175 -0.0058353972 0.63383341
-0.057965718 -0.0054342858 0.634
-0.054342858 -0.0054342858 0.634
-0.032726478 -0.0056758099 0.634
-0.029586669 -0.0060380958 0.634
-0.1213197 -0.0038098413 0.63166666
-0.11760919 -0.0030985719 0.63235712
-0.11225106 -0.0025329527 0.63299996
-0.10727457 -0.0019798642 0.63228577
-0.10217319 -0.002274286 0.63307691
-0.097672686 -0.0024131546 0.63306254
-0.093130052 -0.0030126411 0.63236362
-0.087809958 -0.0033386154 0.63190907
-0.082579359 -0.0030152386 0.63292307
-0.077164955 -0.0026130793 0.63266677
-0.072146483 -0.0025308575 0.6323334
-0.067560673 -0.002826008 0.63207692
-0.062387723 -0.0032528576 0.63230002
-0.057664704 -0.0028265938 0.63223076
-0.052592136 -0.0025086219 0.63321054
-0.047243156 -0.0017165568 0.63284612
-0.042057782 -0.0022911751 0.63266671
-0.03736566 -0.0024125602 0.6328125
-0.032561194 -0.00241381 0.63312495
-0.028960004 -0.001207143 0.63350004
-0.10216191 0.00060095242 0.63100004
-0.097354293 0.00060095242 0.63100004
-0.055888575 0.00060095242 0.63100004
-0.052926194 0.0010026984 0.63150001
-0.047475241 0.00060095242 0.63100004
-0.041666038 0.0010015874 0.63100004
-0.037295122 0.0012029761 0.631625
-0.032708984 0.0011160546 0.63100004
-0.028845716 0.00060095242 0.63100004
-0.11756592 0.037704576 0.63239998
-0.11251168 0.038507145 0.63174999
-0.10735352 0.037541371 0.63193762
-0.10197715 0.038743816 0.6323334
-0.097546674 0.038537383 0.63225001
-0.092694297 0.038522381 0.63200003
-0.088710964 0.038792383 0.63150001
-0.082176879 0.038727354 0.63114291
-0.078724764 0.038661271 0.63100004
-0.052282862 0.039061911 0.63100004
-0.048702862 0.039082542 0.63133335
-0.11593144 0.040455241 0.634
-0.11190604 0.040857781 0.63400006
-0.10739186 0.040972792 0.63400006
-0.10258726 0.041035119 0.63362503
-0.097547315 0.04123196 0.63355553
-0.09279792 0.042115632 0.63353336
-0.087414093 0.042106021 0.63300008
-0.081911772 0.041947287 0.63307142
-0.077136196 0.042184647 0.63275003
-0.072242387 0.042143695 0.63212502
-0.06761004 0.042588208 0.6325385
-0.062624142 0.042300444 0.63266671
-0.057949897 0.042572465 0.63230765
-0.052555632 0.042210314 0.63258821
-0.047444604 0.042130653 0.63247061
-0.042097595 0.042259499 0.63206679
-0.037347618 0.042167861 0.63250005
-0.03245962 0.042250358 0.63193339
-0.029481668 0.042117383 0.63174999
-0.075476192 0.045285717 0.634
-0.07306096 0.045285717 0.634
-0.059173338 0.045285717 0.634
-0.047097147 0.045285717 0.634
-0.044078097 0.045285717 0.634
-0.035624765 0.045285717 0.634
-0.032597624 0.045676351 0.63383335
-0.029540002 0.045214288 0.63300002
-0.11621653 -0.0070755556 0.63666677
-0.11246191 -0.0062682545 0.63677782
-0.10797516 -0.0065735932 0.63790911
-0.10253352 -0.0065580956 0.63636369
-0.097958006 -0.0069128573 0.63650006
-0.092673339 -0.0062092864 0.63600004
-0.087304011 -0.0066714287 0.63660008
-0.082502656 -0.0065348153 0.63644457
-0.077091798 -0.0063625001 0.63612509
-0.072786078 -0.0072803572 0.63687503
-0.067632288 -0.0085647628 0.63722229
-0.062688574 -0.0074834926 0.63700002
-0.057487428 -0.0066565718 0.63540012
-0.051636435 -0.0063614286 0.6360001
-0.047369525 -0.0066822227 0.6376667
-0.042508215 -0.006073691 0.63762504
-0.03759905 -0.0060659531 0.63675004
-0.03245556 -0.0066523813 0.63500011
-0.028423812 -0.0054428573 0.63500005
-0.11309049 -0.0042333337 0.63500011
-0.10730033 -0.0038323812 0.63533336
-0.10401905 -0.0042333337 0.63500005
-0.047171429 -0.0042333337 0.63500005
-0.044147622 -0.0042333337 0.63500005
-0.029028574 -0.0036285718 0.63500005
-0.11913811 0.039309528 0.63500005
-0.11730061 0.042922426 0.63636369
-0.11301164 0.043289911 0.63660008
-0.10777207 0.043364231 0.63533336
-0.10282941 0.043551557 0.63512504
-0.098297149 0.04365905 0.63542867
-0.094947629 0.044147622 0.63500005
-0.08769048 0.044147622 0.63500005
-0.082852393 0.044147622 0.63500005
-0.055033337 0.044147622 0.63500005
-0.11745429 0.04564286 0.63900006
-0.11380287 0.046251431 0.63900006
-0.10650001 0.045642864 0.63900006
-0.10170405 0.046367623 0.63849998
-0.097254582 0.046969745 0.63792312
-0.092662387 0.046332147 0.63800001
-0.087108135 0.047035027 0.63753855
-0.082537547 0.046733104 0.63725007
-0.077949129 0.047396328 0.63800001
-0.072813593 0.047478482 0.63746673
-0.067727305 0.047538523 0.63811123
-0.062473457 0.047313809 0.63687497
-0.057124168 0.047417622 0.63724995
-0.052188877 0.047337439 0.63718754
-0.047289453 0.047897071 0.63658345
-0.042296637 0.047388833 0.63626683
-0.037738413 0.047449533 0.63706672
-0.032749142 0.048155811 0.63680005
-0.029703336 0.04728429 0.6365
-0.072420016 0.050511431 0.63900006
-0.067029804 0.050859191 0.63900006
-0.063494287 0.050917149 0.63900006
-0.050511431 0.050511431 0.63900006
-0.047468573 0.051728576 0.639
-0.042898498 0.051823419 0.63891667
-0.038340002 0.050511431 0.63900006
-0.03266 0.050511431 0.63900006
-0.11268001 -0.010410476 0.64300001
-0.10771456 -0.010938505 0.64314294
-0.10312762 -0.010952382 0.64400005
-0.097792603 -0.010971854 0.64400005
-0.092181228 -0.011118368 0.64342862
-0.087569535 -0.01102381 0.64300007
-0.08287397 -0.010614922 0.64300001
-0.077026494 -0.011529698 0.64327276
-0.072195634 -0.01162643 0.64241678
-0.06750115 -0.011373716 0.64200014
-0.062462859 -0.01102381 0.64300001
-0.057563815 -0.01102381 0.64300001
-0.052664768 -0.01102381 0.64300001
-0.048147053 -0.010659048 0.64320004
-0.11538 -0.008547619 0.64100003
-0.11261471 -0.0086359195 0.64114285
-0.10697677 -0.0089047626 0.64040011
-0.10289373 -0.0089104772 0.64080006
-0.097715013 -0.0091607152 0.64125001
-0.092792869 -0.0085473815 0.64100003
-0.088246867 -0.0089104772 0.64080006
-0.082202315 -0.0088047627 0.64071441
-0.07772246 -0.0086361915 0.64114285
-0.072571754 -0.0091476198 0.64033341
-0.061863434 -0.0089076199 0.64060009
-0.057362624 -0.0085438099 0.64075005
-0.05271579 -0.0086265309 0.64042866
-0.047617145 -0.0091571435 0.64100003
-0.043150954 -0.008345874 0.64116669
-0.038345907 -0.0082087619 0.64320004
-0.032675557 -0.0081695244 0.64333338
-0.12063906 0.048991431 0.64300001
-0.11720815 0.047755815 0.64120001
-0.112066 0.047792785 0.64100003
-0.10758469 0.048041102 0.64100009
-0.10293787 0.048647862 0.64050001
-0.097320639 0.049371433 0.64000005
-0.092378333 0.048628576 0.64025003
-0.089193657 0.048965082 0.64000005
-0.082895242 0.049371433 0.64000005
-0.077409528 0.049371433 0.64000005
-0.11727118 0.052089877 0.64345461
-0.11265632 0.052656312 0.64287508
-0.10782047 0.052686907 0.64325011
-0.10287019 0.052661736 0.6429376
-0.097710535 0.052727126 0.64241177
-0.092756957 0.052428707 0.64160007
-0.087943107 0.052522864 0.64125001
-0.082913607 0.052653786 0.64152944
-0.077812925 0.052486964 0.64081258
-0.072570607 0.052813023 0.64033335
-0.067364104 0.053331532 0.64069998
-0.061999053 0.052881833 0.64161539
-0.057468869 0.052579112 0.64193749
-0.052634481 0.052635245 0.64113343
-0.047542863 0.054247621 0.64000005
-0.041752383 0.053942859 0.64000005
-0.037676483 0.05287971 0.64046156
-0.032983888 0.052879423 0.64046156
-0.029960003 0.054417148 0.64200002
-0.11162667 0.055813339 0.64400005
-0.097520016 0.055813339 0.64400005
-0.091964051 0.056405004 0.64375007
-0.087356202 0.056339055 0.64400005
-0.08181867 0.056058671 0.64400005
-0.07719072 0.056361672 0.64324999
-0.072288334 0.056361672 0.64324999
-0.067414768 0.056383338 0.64350003
-0.062822863 0.056339055 0.64400005
-0.057040006 0.055813339 0.64400005
-0.052685957 0.056361672 0.64324999
-0.047682978 0.056241073 0.64187503
-0.042807028 0.05626322 0.64212501
-0.037931789 0.056284886 0.64237505
-0.033263948 0.056139328 0.64171433
-0.029960003 0.055640005 0.64200002
-0.11602287 -0.015428573 0.648
-0.11232001 -0.015428573 0.648
-0.10738286 -0.015428573 0.648
-0.10244572 -0.015428573 0.648
-0.097470239 -0.01542262 0.64775002
-0.092535481 -0.016039763 0.64774996
-0.087634295 -0.015428573 0.648
-0.082301915 -0.015670668 0.64780003
-0.07765536 -0.016024882 0.64712501
-0.073158108 -0.015824128 0.64733338
-0.069414288 -0.015357144 0.64500004
-0.063565716 -0.015428573 0.648
-0.057967149 -0.015828095 0.64750004
-0.053691432 -0.015428573 0.648
-0.1163287 -0.013097739 0.64712501
-0.11217265 -0.013036711 0.64618176
-0.10729291 -0.013335663 0.64622223
-0.10221577 -0.01333344 0.64611113
-0.096985504 -0.013328784 0.64588892
-0.092232272 -0.013527977 0.645625
-0.087380126 -0.013538454 0.64612502
-0.082239591 -0.013027273 0.64572728
-0.077793144 -0.013887239 0.64520001
-0.072485715 -0.014128572 0.64500004
-0.06743525 -0.013322858 0.64566672
-0.062779285 -0.013541429 0.64625001
-0.057799648 -0.01352774 0.645625
-0.052889291 -0.013530477 0.64575005
-0.047346931 -0.01294485 0.64718181
-0.042508103 -0.012323452 0.6468749
-0.037309688 -0.012187567 0.6469444
-0.032070559 -0.011718811 0.64758325
-0.029005716 -0.010491429 0.648
-0.041771431 -0.0092142867 0.64500004
-0.036857147 -0.0092142867 0.64500004
-0.031441271 -0.0092476197 0.64733338
-0.029005716 -0.0092571434 0.648
-0.12120192 0.052912384 0.64600003
-0.11884 0.054196961 0.64520001
-0.1207543 0.057394288 0.648
-0.11708244 0.057283115 0.64672726
-0.11226398 0.057879046 0.64650005
-0.10729079 0.057757642 0.64635289
-0.1023051 0.057986856 0.6463334
-0.09728238 0.058494605 0.64649999
-0.09249977 0.059200481 0.64750004
-0.087310061 0.058960002 0.64711112
-0.082610056 0.058560345 0.64599997
-0.077519059 0.059063341 0.64599997
-0.072640598 0.059097502 0.646375
-0.067611314 0.059005838 0.64537501
-0.062558837 0.05886868 0.64611113
-0.057974361 0.058259781 0.64600003
-0.052951429 0.059109055 0.64649993
-0.047980122 0.059051789 0.64587498
-0.042731751 0.059141491 0.64611107
-0.037256934 0.05899493 0.64599997
-0.032140121 0.058591075 0.64587498
-0.11108573 0.061097145 0.648
-0.10701258 0.061344005 0.648
-0.10240597 0.061690718 0.64775002
-0.098087393 0.061382148 0.64775002
-0.094422862 0.061097145 0.648
-0.087017149 0.061097145 0.648
-0.082378648 0.061585449 0.64757144
-0.077774398 0.061877675 0.64755559
-0.072624162 0.062193513 0.64772725
-0.067875594 0.062159047 0.6473636
-0.063170478 0.061585724 0.64757144
-0.058308695 0.061856791 0.64787495
-0.052811433 0.062065717 0.64779997
-0.047569528 0.062835835 0.64762497
-0.042249408 0.062527388 0.64762491
-0.036882669 0.062787309 0.64759994
-0.033312861 0.062925003 0.64775002
-0.041348573 0.066034287 0.648
-0.092663817 -0.020522859 0.65300006
-0.077116191 -0.020522859 0.65300006
-0.11711979 -0.017971853 0.65066671
-0.11279645 -0.017974369 0.65075004
-0.10789358 -0.017983574 0.65108335
-0.1028017 -0.018097952 0.65176922
-0.097608827 -0.017993256 0.65141666
-0.092414536 -0.018607859 0.65125
-0.087656349 -0.017905081 0.65200001
-0.082634293 -0.018116383 0.65140003
-0.077223398 -0.018531749 0.65100002
-0.071871094 -0.018124243 0.65209091
-0.066984683 -0.017187539 0.65224999
-0.062184084 -0.017654696 0.65200007
-0.056861527 -0.01825162 0.65180004
-0.051988102 -0.017655851 0.65207148
-0.047341023 -0.017272064 0.65233338
-0.042052019 -0.016945936 0.65153849
-0.037246369 -0.017383514 0.65181255
-0.032688923 -0.016768919 0.65209091
-0.066960007 -0.014260001 0.65100002
-0.048434287 -0.014281905 0.65200001
-0.032190479 -0.014238096 0.65000004
-0.02909524 -0.013000002 0.65000004
-0.12195239 0.05819048 0.65000004
-0.11885715 0.058809526 0.65000004
-0.12141631 0.062261384 0.6515556
-0.11781327 0.062007971 0.65107149
-0.11321008 0.062390562 0.65075004
-0.10804941 0.06327334 0.65042865
-0.10299762 0.063909054 0.65150005
-0.097594656 0.063049175 0.65062505
-0.092515081 0.062779218 0.65050006
-0.087972388 0.062882148 0.65050006
-0.083425917 0.063592762 0.65080005
-0.077834614 0.063794613 0.6503334
-0.07490477 0.063761912 0.65000004
-0.066238105 0.063761912 0.65000004
-0.061799813 0.063533917 0.65020007
-0.056333337 0.063452385 0.65000004
-0.053857148 0.063761912 0.65000004
-0.12127145 0.065300003 0.65300006
-0.11702906 0.066363096 0.65275002
-0.11237689 0.066841498 0.65242863
-0.10777386 0.066577509 0.65238464
-0.10164689 0.066682018 0.65300006
-0.097155191 0.066745535 0.65253335
-0.091822281 0.066680893 0.65246153
-0.087128773 0.067242794 0.65253341
-0.082214177 0.067008458 0.65252948
-0.077006243 0.066385292 0.65254545
-0.07196565 0.066694215 0.65141672
-0.067220278 0.066931203 0.65176475
-0.062095959 0.067064524 0.65200001
-0.057094291 0.067025714 0.65162504
-0.052269392 0.066711023 0.65114295
-0.047125798 0.067280404 0.65108341
-0.042297877 0.067287467 0.65092307
-0.037343081 0.067390561 0.65100002
-0.032671049 0.067705721 0.65219998
-0.085822865 0.07027524 0.65300006
-0.083957151 0.07027524 0.65300006
-0.060324766 0.07027524 0.65300006
-0.057192624 0.070248336 0.65275007
-0.046642862 0.07027524 0.65300006
-0.042519052 0.070746809 0.65242863
-0.037687432 0.070524 0.65300006
-0.031717144 0.07027524 0.65300006
-0.030706668 -0.025693335 0.65800005
-0.11712731 -0.021922858 0.65766668
-0.11289504 -0.021494603 0.65733337
-0.10755453 -0.021887859 0.65658343
-0.10241932 -0.022386923 0.65653336
-0.097379945 -0.022247555 0.65664291
-0.092545457 -0.0225132 0.65657151
-0.087723747 -0.022088865 0.65684623
-0.082510963 -0.021879207 0.65633345
-0.077517346 -0.02213162 0.65640008
-0.07261949 -0.021781558 0.65681827
-0.067456424 -0.02210154 0.65723085
-0.062759057 -0.021793336 0.65718186
-0.057442516 -0.021805108 0.65754551
-0.052382186 -0.022258507 0.65700001
-0.048157968 -0.021354424 0.65671432
-0.03757143 -0.021290952 0.65750003
-0.032479666 -0.02236932 0.65764296
-0.086709529 -0.019338097 0.65500003
-0.068445727 -0.018932065 0.6553334
-0.045607623 -0.01936762 0.65600002
-0.043108575 -0.01936762 0.65600002
-0.031603243 -0.01886267 0.65580004
-0.12108096 0.068030164 0.6553334
-0.11772239 0.068844616 0.65516675
-0.11353334 0.069242865 0.65500003
-0.10626972 0.068307817 0.65560001
-0.10313652 0.068411119 0.65500003
-0.097314291 0.069242865 0.65500003
-0.092947625 0.069242865 0.65500009
-0.07757163 0.069077909 0.65580004
-0.073023498 0.069278106 0.6553334
-0.051230479 0.069348574 0.65600002
-0.049280956 0.069242865 0.65500003
-0.12129572 0.070651911 0.65649998
-0.11711989 0.071712978 0.65762502
-0.11248521 0.0721507 0.65700006
-0.10773932 0.071883723 0.65736371
-0.10251355 0.071516931 0.6567778
-0.097627543 0.071815081 0.65672731
-0.092407234 0.072300553 0.65685713
-0.087626539 0.072725452 0.65585726
-0.082409531 0.07265754 0.65653342
-0.0776181 0.072611429 0.65724999
-0.072589949 0.072591007 0.65706253
-0.067564525 0.072571315 0.65687501
-0.062639244 0.072643064 0.65640008
-0.057550482 0.073190957 0.65683341
-0.052646324 0.071884081 0.65736371
-0.047778308 0.072399899 0.65722227
-0.042268474 0.073502123 0.65588892
-0.037300002 0.073180869 0.65572739
-0.033221558 0.072633862 0.65590924
-0.09086667 0.075826675 0.65800005
-0.087304763 0.076031245 0.65760005
-0.08313778 0.076244459 0.65800005
-0.077288896 0.076244459 0.65800005
-0.072961912 0.076363824 0.65800011
-0.067888901 0.076244459 0.65800005
-0.062643342 0.076424532 0.65775001
-0.057642262 0.076438934 0.657875
-0.045746669 0.075826675 0.65800005
-0.04283265 0.076963902 0.65700006
-0.037750132 0.07692416 0.6576364
-0.033507738 0.077193461 0.65762502
-0.034466669 0.082093336 0.65800005
-0.12042096 -0.025849525 0.66200006
-0.11699601 -0.027009523 0.6626001
-0.11230953 -0.026500477 0.66250008
-0.10718168 -0.026480718 0.66200006
-0.10179182 -0.02683543 0.66140002
-0.096941486 -0.0269491 0.66144449
-0.092507944 -0.026542438 0.66177779
-0.087294564 -0.026396329 0.66214293
-0.08319696 -0.026638478 0.66280007
-0.075140007 -0.025888573 0.66300005
-0.072271675 -0.026194526 0.66275007
-0.067473218 -0.026485836 0.66212505
-0.06280382 -0.026401909 0.66228575
-0.058037028 -0.026495596 0.66237509
-0.052517343 -0.026070861 0.66120005
-0.048594922 -0.025875559 0.66266674
-0.037858099 -0.025869049 0.66250002
-0.033331115 -0.025784446 0.6603334
-0.11695787 -0.024523573 0.66025007
-0.11222818 -0.023991428 0.66042864
-0.10754065 -0.024526669 0.6603334
-0.10497144 -0.024514288 0.66000003
-0.099314287 -0.024514288 0.66000003
-0.092540003 -0.024551431 0.66100001
-0.087414935 -0.024526669 0.6603334
-0.082441531 -0.024544002 0.66080004
-0.076976672 -0.024607144 0.66250002
-0.072855435 -0.024285143 0.66060007
-0.068514287 -0.024514288 0.66000003
-0.06249848 -0.024270287 0.66020006
-0.058240768 -0.024277715 0.66040009
-0.054057147 -0.024514288 0.66000003
-0.047353972 -0.023573019 0.66100007
-0.042827681 -0.022675538 0.66131246
-0.037743811 -0.02390405 0.66050005
-0.033314288 -0.023885716 0.66000003
-0.12077715 0.072970003 0.66050005
-0.1173983 0.074113339 0.66060007
-0.11209525 0.074800007 0.66000003
-0.10819668 0.0742281 0.66050005
-0.10254531 0.074325994 0.66057146
-0.097428575 0.074485719 0.66000003
-0.094285727 0.074800007 0.66000003
-0.05267429 0.074548587 0.66000003
-0.047771432 0.074800007 0.66000003
-0.12082715 0.076030478 0.66250002
-0.1173044 0.076942101 0.66220009
-0.11222461 0.077550009 0.66200006
-0.10706789 0.076444849 0.66236377
-0.10199556 0.077180535 0.66244453
-0.09708105 0.077539936 0.66191673
-0.092273727 0.077778094 0.66180009
-0.087809719 0.078234099 0.66140008
-0.08259429 0.07819207 0.6603334
-0.077971905 0.078601673 0.66025001
-0.072646677 0.078439049 0.66100001
-0.06776239 0.078251593 0.66083336
-0.062904768 0.079260483 0.66050005
-0.058334611 0.079110168 0.66100001
-0.052880004 0.077432707 0.66100013
-0.048034985 0.077578709 0.66127282
-0.041485716 0.0792 0.66000003
-0.037337147 0.079577148 0.66000003
-0.034571432 0.079828575 0.66000003
-0.11555143 0.080191433 0.66300005
-0.11428858 0.080191433 0.66300005
-0.095345721 0.080191433 0.66300005
-0.092188574 0.080191433 0.66300005
-0.088400006 0.080191433 0.66300005
-0.082055002 0.080161199 0.66275007
-0.07734362 0.080876194 0.66240007
-0.071900718 0.080416434 0.66225004
-0.067704774 0.080531746 0.66233343
-0.062687807 0.081608579 0.66220009
-0.058046672 0.080761433 0.66250002
-0.053040005 0.080191433 0.66300005
-0.047961548 0.080777511 0.66262507
-0.042817146 0.081919789 0.66222233
-0.03773376 0.082117468 0.66155565
-0.03394286 0.081085719 0.66000003
-0.11655524 -0.031519048 0.66633338
-0.11339254 -0.031685583 0.6672858
-0.10761125 -0.031201337 0.66860008
-0.10194287 -0.031220002 0.66900003
-0.09748286 -0.031220002 0.66900003
-0.09174858 -0.031220002 0.66900003
-0.087925717 -0.031220002 0.66900003
-0.084740005 -0.031220002 0.66900003
-0.077731431 -0.031220002 0.66900003
-0.073908575 -0.031220002 0.66900003
-0.11662048 -0.029789049 0.66550004
-0.11283893 -0.029161314 0.66562498
-0.10778762 -0.029166905 0.66575003
-0.10317652 -0.029389208 0.66600001
-0.098053336 -0.029374287 0.6656667
-0.092464656 -0.029024884 0.666125
-0.087276079 -0.028952066 0.6656667
-0.082038537 -0.028464681 0.66681826
-0.077587813 -0.028065275 0.66666669
-0.072394721 -0.028671429 0.66627282
-0.067385487 -0.029244289 0.66750008
-0.062513478 -0.029125175 0.66685718
-0.056739815 -0.028306669 0.66640002
-0.052264288 -0.027930638 0.66650003
-0.046705026 -0.028117668 0.6668182
-0.042536948 -0.027938846 0.6666429
-0.037720192 -0.028197145 0.66680002
-0.033453144 -0.027857719 0.66780007
-0.079166673 -0.024700001 0.66500002
-0.12241715 0.077383816 0.66600001
-0.11843335 0.079166673 0.66500008
-0.10766667 0.079166673 0.66500002
-0.10323334 0.079166673 0.66500008
-0.11233334 -0.035304762 0.67400002
-0.10976572 -0.035304762 0.67400002
-0.081521913 -0.035304762 0.67400002
-0.11566763 -0.033869527 0.671
-0.11207478 -0.033452541 0.67116678
-0.10758036 -0.033300124 0.67237502
-0.10246845 -0.033182725 0.67185718
-0.097138695 -0.032967977 0.67212504
-0.092622742 -0.032955837 0.671875
-0.086973339 -0.03293667 0.67150003
-0.082482003 -0.032727186 0.67136365
-0.077632703 -0.03274614 0.67122227
-0.072413757 -0.032762751 0.67155558
-0.067798495 -0.032621831 0.67158335
-0.062747709 -0.032015719 0.67229998
-0.057787906 -0.031394381 0.67269999
-0.052553874 -0.032046489 0.67293739
-0.047583949 -0.032303002 0.67257136
-0.042411227 -0.032182649 0.67133337
-0.037161428 -0.031716667 0.67275
-0.032059286 -0.032380715 0.67324996
-0.028778573 -0.033255719 0.67150003
-0.05806667 -0.029990477 0.67000002
-0.051685717 -0.028714288 0.67000002
-0.03764762 -0.029990477 0.67000002
-0.033180952 -0.029990477 0.67000002
-0.11603811 -0.037146129 0.6774286
-0.11232311 -0.037833769 0.67745459
-0.10749131 -0.037524577 0.67693335
-0.10281858 -0.036887825 0.67778575
-0.096964166 -0.036625832 0.67762506
-0.092614107 -0.036506291 0.67720002
-0.087653846 -0.037309971 0.67773342
-0.082548194 -0.037516959 0.67680001
-0.077483736 -0.036935166 0.67669243
-0.072457328 -0.03667048 0.67763644
-0.067079291 -0.036121428 0.67725003
-0.06203429 -0.036187146 0.6785
-0.057489764 -0.036658812 0.67825001
-0.053207517 -0.036405612 0.67855555
-0.047691707 -0.036068577 0.67800009
-0.04290409 -0.036076061 0.67814285
-0.03788159 -0.035945401 0.67800009
-0.032309525 -0.036187146 0.6785
-0.029035717 -0.036134765 0.67750001
-0.10221429 -0.034071431 0.67500001
-0.097071432 -0.034071431 0.67500001
-0.090642862 -0.034071431 0.67500001
-0.088071436 -0.034071431 0.67500007
-0.076500006 -0.034071431 0.67500001
-0.062419366 -0.034105085 0.67566675
-0.057506479 -0.033834483 0.67540002
-0.041806988 -0.034088258 0.67533338
-0.036932576 -0.033844572 0.67560005
-0.032849211 -0.034138735 0.67633337
-0.1165631 -0.042002149 0.68375003
-0.11276314 -0.041486669 0.68214291
-0.10771324 -0.041774396 0.68177778
-0.10309953 -0.041794289 0.68300003
-0.097129636 -0.042019367 0.6834445
-0.092259362 -0.042881966 0.68218756
-0.087394811 -0.042726085 0.68207699
-0.082413688 -0.042125542 0.68236369
-0.077555507 -0.042417318 0.68327278
-0.072997399 -0.042810738 0.68313342
-0.068385452 -0.041775923 0.6838572
-0.062537149 -0.041040003 0.68400002
-0.057282861 -0.041010004 0.68350005
-0.052114289 -0.041040003 0.68400002
-0.047539052 -0.042329524 0.68377781
-0.042955123 -0.041653935 0.68337506
-0.037768338 -0.041025005 0.68375003
-0.033874288 -0.041040003 0.68400002
-0.11462858 -0.039504763 0.68000001
-0.10117715 -0.038915239 0.68100005
-0.097718418 -0.039131112 0.68099999
-0.092405722 -0.039268956 0.68040007
-0.077066675 -0.039504763 0.68000001
-0.072228573 -0.039292194 0.68080008
-0.06756179 -0.038979169 0.68212503
-0.06235477 -0.038972385 0.68200004
-0.057203621 -0.039303813 0.68100005
-0.052008454 -0.039007504 0.68262506
-0.047591161 -0.038685311 0.68185723
-0.042609949 -0.038717043 0.68133336
-0.037379052 -0.038549148 0.6814
-0.03248274 -0.038979646 0.68212503
-0.11745811 -0.045933336 0.68900007
-0.11257409 -0.04612286 0.6885556
-0.10780612 -0.045802046 0.6884287
-0.10236572 -0.045277145 0.68900001
-0.097311631 -0.045710098 0.68760008
-0.092908576 -0.046454288 0.68700004
-0.087772146 -0.045851193 0.68774998
-0.082070857 -0.04542134 0.68720001
-0.077716514 -0.046063811 0.68766665
-0.072377384 -0.046178333 0.68775004
-0.068117388 -0.045195002 0.6877501
-0.063213021 -0.045277145 0.68900001
-0.057744764 -0.045277145 0.68900001
-0.052501909 -0.045764495 0.68785727
-0.047541715 -0.045447625 0.68760008
-0.041996196 -0.045277145 0.68900001
-0.037402861 -0.045277145 0.68900001
-0.033432066 -0.045233335 0.68833339
-0.12008286 -0.042652383 0.68900001
-0.11705969 -0.043815877 0.68666673
-0.11241454 -0.04378929 0.68625009
-0.1069289 -0.043773334 0.68600005
-0.10137739 -0.043494526 0.68675005
-0.099306673 -0.043120004 0.68600005
-0.081666671 -0.043773334 0.68600005
-0.067070864 -0.043276194 0.68640006
-0.062844887 -0.043207504 0.68737507
-0.057640005 -0.043231197 0.6877501
-0.052286197 -0.043135956 0.68625003
-0.045080002 -0.043773334 0.68600005
-0.04246667 -0.043773334 0.68600005
-0.037927501 -0.043159641 0.68662512
-0.032635134 -0.042667724 0.68688893
-0.029528573 -0.042652383 0.68900001
-0.11638667 -0.051275432 0.69200003
-0.11241307 -0.051355109 0.69257146
-0.10905715 -0.050893337 0.69400001
-0.0958381 -0.050893337 0.69400001
-0.092533335 -0.050893337 0.69400001
-0.12025715 -0.048628576 0.69000006
-0.11697143 -0.048628572 0.69000006
-0.11263429 -0.048760004 0.69000006
-0.10765589 -0.048457146 0.69066668
-0.10273668 -0.048078101 0.69150007
-0.097757891 -0.048551746 0.69200003
-0.092348933 -0.048814885 0.69262499
-0.087284349 -0.048444554 0.69255567
-0.082955346 -0.048063722 0.69129997
-0.077822626 -0.048806194 0.6925
-0.07227096 -0.048511431 0.69300008
-0.067025632 -0.047980439 0.69181824
-0.062149208 -0.047658414 0.69177777
-0.057953428 -0.04781438 0.69150013
-0.052531052 -0.047792003 0.69120002
-0.04718912 -0.047566812 0.69228572
-0.042171553 -0.047444168 0.69187504
-0.037528574 -0.04740667 0.69133341
-0.032762542 -0.047277886 0.69266683
-0.030885717 -0.044028573 0.69000006
-0.029571431 -0.044028573 0.69000006
-0.11288738 -0.053455479 0.69725001
-0.10761429 -0.051482383 0.69749999
-0.10218509 -0.052311432 0.69722223
-0.097850367 -0.05235048 0.69577783
-0.092812486 -0.052639719 0.69610006
-0.087476194 -0.052354764 0.69583344
-0.082184695 -0.052360877 0.69591677
-0.077366762 -0.052420098 0.69670004
-0.072660141 -0.05163021 0.69628584
-0.0679162 -0.052132189 0.69640005
-0.062696062 -0.051693611 0.6971429
-0.056947943 -0.051186673 0.69800007
-0.051851429 -0.05118667 0.69800001
-0.047840007 -0.0516054 0.69766665
-0.042652573 -0.05142324 0.69760001
-0.036934566 -0.051745992 0.6978572
-0.032565877 -0.051839214 0.69783342
-0.073471434 -0.049642861 0.69500005
-0.069500007 -0.049642861 0.69500005
-0.063542858 -0.049642861 0.69500005
-0.055760004 -0.049785718 0.69700003
-0.052491751 -0.049833339 0.69766665
-0.047692861 -0.049678575 0.69550002
-0.042361908 -0.049642861 0.69500005
-0.037120957 -0.04971429 0.69600004
-0.032526668 -0.049785718 0.69700003
-0.029454764 -0.046664286 0.69500005
-0.10258286 -0.061013337 0.70400006
-0.099900961 -0.061013337 0.70400006
-0.040899049 -0.061013337 0.70400006
-0.039558098 -0.061013337 0.70400006
-0.11591429 -0.056790002 0.7015
-0.11211764 -0.057009369 0.70283341
-0.10723767 -0.057703175 0.70286673
-0.10241883 -0.057300877 0.70146161
-0.097571887 -0.057316888 0.7014001
-0.092647724 -0.056691118 0.70211112
-0.087435715 -0.056555338 0.70190001
-0.08246582 -0.056673247 0.70170003
-0.077526197 -0.056141198 0.70175004
-0.072257146 -0.056201432 0.70250005
-0.067249522 -0.056997467 0.70222229
-0.062984832 -0.057370737 0.70206684
-0.057620004 -0.056280479 0.70350003
-0.052269649 -0.056290358 0.70362502
-0.047574837 -0.056573473 0.7035715
-0.042658783 -0.057293877 0.70300013
-0.037413653 -0.057392694 0.70233351
-0.032932647 -0.057406064 0.70309097
-0.11066668 -0.054000005 0.70000005
-0.10735922 -0.053346198 0.7001667
-0.104 -0.054000005 0.70000005
-0.075333342 -0.054000005 0.70000005
-0.072666675 -0.054000005 0.70000005
-0.066666678 -0.054000005 0.70000005
-0.062284004 -0.053748764 0.70020002
-0.057471436 -0.053170905 0.70077783
-0.052263815 -0.053153761 0.70055562
-0.047000006 -0.053666674 0.70000005
-0.042580552 -0.053439595 0.70014292
-0.037744574 -0.053748764 0.70020002
-0.032682225 -0.054025721 0.70033336
-0.1156981 -0.061780643 0.70766675
-0.1123943 -0.061917782 0.70666665
-0.10758096 -0.061860006 0.70599997
-0.10247493 -0.062113341 0.7063334
-0.097586676 -0.061917789 0.70666665
-0.092968933 -0.06197989 0.70737505
-0.087840013 -0.061863136 0.70714289
-0.082643628 -0.061612386 0.70779997
-0.077542864 -0.060011432 0.70800006
-0.072822861 -0.060011432 0.708
-0.066854291 -0.061693653 0.70666671
-0.062934056 -0.061588816 0.70675004
-0.057926431 -0.061295003 0.70725
-0.052575476 -0.061338335 0.70775002
-0.047593813 -0.061736993 0.70716667
-0.043093339 -0.061273336 0.70700002
-0.038271431 -0.061100002 0.70500004
-0.11648667 -0.05992667 0.70700002
-0.11347143 -0.059309527 0.7050001
-0.097357146 -0.059757147 0.70500004
-0.092433348 -0.059309527 0.70500004
-0.087368265 -0.059366032 0.70566672
-0.082087144 -0.059884291 0.70649999
-0.077994294 -0.058497146 0.70600003
-0.072720006 -0.058580004 0.70700002
-0.068774924 -0.059366032 0.70566672
-0.061100002 -0.059757147 0.70500004
-0.057803575 -0.059149284 0.70574999
-0.052445721 -0.059170477 0.70599997
-0.047699243 -0.059253909 0.70539999
-0.044314288 -0.059757147 0.70500004
-0.038271431 -0.059757147 0.70500004
-0.12104001 -0.065960005 0.71400005
-0.1172181 -0.066253819 0.71350008
-0.11319096 -0.066694051 0.71275008
-0.10740168 -0.065936908 0.71375
-0.10200001 -0.065960005 0.71400005
-0.098600015 -0.065960005 0.71400011
-0.087720007 -0.065960005 0.71400005
-0.08228001 -0.065960005 0.71400011
-0.077520005 -0.065960005 0.71400005
-0.072080001 -0.065960005 0.71400005
-0.066640005 -0.065960005 0.71400005
-0.061880007 -0.065960005 0.71400005
-0.055080004 -0.065960005 0.71400005
-0.12070032 -0.063634291 0.71333337
-0.11768018 -0.063471906 0.71150005
-0.11228643 -0.064260721 0.71025002
-0.10721286 -0.064464286 0.71250004
-0.1025362 -0.064509526 0.71300006
-0.097575717 -0.064373806 0.71150005
-0.092383102 -0.064532146 0.71325004
-0.087197155 -0.064126194 0.71250004
-0.082404636 -0.063813604 0.71171439
-0.077230483 -0.063005716 0.71133339
-0.07247714 -0.062995873 0.71122229
-0.0682289 -0.063938096 0.71166676
-0.062069938 -0.063813604 0.71171439
-0.057226945 -0.063813604 0.71171439
-0.052536055 -0.063568711 0.7111429
-0.047453098 -0.063720241 0.71175003
-0.04262064 -0.062915243 0.71033335
-0.039219052 -0.062885717 0.71000004
-0.10202952 -0.070530489 0.71900004
-0.095866673 -0.070530482 0.71900004
-0.093812384 -0.070530482 0.71900004
-0.076693341 -0.070530482 0.71900004
-0.074639052 -0.070530482 0.71900004
-0.12095001 -0.068334773 0.71750003
-0.11817548 -0.068310246 0.71725005
-0.11191259 -0.068734296 0.71740007
-0.10764097 -0.068216749 0.71728581
-0.10262509 -0.068037786 0.7167778
-0.097118452 -0.068103939 0.71687502
-0.092681646 -0.067480095 0.71700001
-0.087376632 -0.067754641 0.71727276
-0.082333207 -0.068466268 0.71785718
-0.077614836 -0.068243682 0.7175715
-0.072719194 -0.068230212 0.71742862
-0.068013579 -0.067332625 0.71775001
-0.063020959 -0.067116827 0.7166667
-0.057653744 -0.067018375 0.71700007
-0.052664608 -0.067029685 0.71816671
-0.048302479 -0.066640384 0.71840006
-0.042455241 -0.066421911 0.71900004
-0.038574927 -0.066878423 0.71900004
-0.04636953 -0.064780958 0.71600002
-0.042337142 -0.06487143 0.71700001
-0.038240001 -0.06487143 0.71700001
-0.043380003 -0.075972386 0.72300005
-0.12033334 -0.070824765 0.72200006
-0.11782667 -0.071836464 0.72228587
-0.11241629 -0.071876861 0.7215001
-0.10749858 -0.07217171 0.72170007
-0.10313658 -0.072101153 0.72100008
-0.097701229 -0.071976341 0.72171432
-0.091732144 -0.072151437 0.72150004
-0.087744445 -0.071862757 0.72166669
-0.082298309 -0.071753755 0.72211117
-0.07750167 -0.072692141 0.72175002
-0.072702736 -0.071844883 0.72187507
-0.067551158 -0.071485035 0.72271436
-0.062573344 -0.071513027 0.72200012
-0.057800002 -0.07156238 0.72250009
-0.052223139 -0.07149905 0.72285724
-0.047496825 -0.072278202 0.72277784
-0.042642858 -0.072217464 0.72216678
-0.039085716 -0.07131429 0.72000003
-0.12 -0.069257148 0.72000003
-0.070628576 -0.069257148 0.72000003
-0.067291439 -0.069353342 0.72100008
-0.062400006 -0.069257155 0.72000003
-0.057600003 -0.069257148 0.72000003
-0.05222429 -0.069401436 0.72150004
-0.047424447 -0.068730488 0.72166675
-0.042528808 -0.068595484 0.72025013
-0.039085716 -0.069257148 0.72000003
-0.12011144 -0.077760011 0.72900003
-0.11767155 -0.07642822 0.72787499
-0.11245248 -0.077049702 0.72763634
-0.10740668 -0.076501906 0.72655559
-0.10288896 -0.076683246 0.7280001
-0.097618423 -0.076336831 0.72866672
-0.092339911 -0.076629855 0.72777784
-0.087259054 -0.076873496 0.72716677
-0.082595482 -0.07670977 0.72725004
-0.077937469 -0.07586287 0.72633338
-0.072423056 -0.075747244 0.72700006
-0.067012571 -0.076170288 0.72840005
-0.062457152 -0.076105408 0.72866672
-0.05750715 -0.076215714 0.72750008
-0.052357908 -0.076600008 0.72720003
-0.047687937 -0.076713972 0.72566664
-0.11669049 -0.073880956 0.72500008
-0.11392858 -0.073880956 0.72500002
-0.10702381 -0.073880956 0.72500002
-0.10168477 -0.074016832 0.72633338
-0.09811572 -0.07393191 0.72549999
-0.093904763 -0.073880956 0.72500002
-0.08630953 -0.073880956 0.72500002
-0.083547622 -0.073880956 0.72500008
-0.07180953 -0.073880956 0.72500002
-0.067528568 -0.073604763 0.72500002
-0.06214286 -0.073880956 0.72500002
-0.057309531 -0.073880956 0.72500008
-0.05261429 -0.073604763 0.72500002
-0.1161689 -0.080783501 0.73333335
-0.1127642 -0.080905907 0.73360002
-0.1070416 -0.080746993 0.73300004
-0.10248002 -0.080171436 0.73200005
-0.097340576 -0.080582485 0.73320001
-0.092740476 -0.080887467 0.73216671
-0.088003628 -0.080472961 0.73220009
-0.084584765 -0.080390483 0.73400003
-0.067807622 -0.080390483 0.73400003
-0.11696 -0.078669526 0.73100001
-0.10930191 -0.078669526 0.73100001
-0.10164382 -0.078669526 0.73100001
-0.097327434 -0.078391045 0.73100001
-0.093985721 -0.078669526 0.73100001
-0.080812864 -0.078723341 0.73150003
-0.077140003 -0.07818763 0.73300004
-0.072219744 -0.078195788 0.73214287
-0.067902148 -0.078348331 0.73124999
-0.062671274 -0.07822334 0.73116672
-0.057783812 -0.078669533 0.73100007
-0.05430286 -0.078669526 0.73100001
-0.11612858 -0.086568579 0.73900002
-0.11120191 -0.085160956 0.73900002
-0.10768287 -0.085160956 0.73900002
-0.092199057 -0.085160956 0.73900002
-0.077419057 -0.085160956 0.73900002
-0.072492391 -0.085630164 0.73900002
-0.066861913 -0.085160956 0.73900002
-0.064046673 -0.085160956 0.73900002
-0.11631258 -0.083762482 0.73660004
-0.11224775 -0.08348465 0.73662508
-0.10766858 -0.083119527 0.73650002
-0.1024431 -0.082797393 0.73675001
-0.097845912 -0.08296591 0.73700005
-0.092180006 -0.083200954 0.73660004
-0.087410107 -0.082920574 0.7366001
-0.08259248 -0.082210481 0.73663646
-0.077174604 -0.082086369 0.73666668
-0.072237335 -0.082337342 0.73640007
-0.0674389 -0.082399845 0.73633337
-0.062469531 -0.082123712 0.73700005
-0.05756874 -0.082143031 0.73716676
-0.052980382 -0.08136972 0.73780006
-0.04926667 -0.080938101 0.73900002
-0.040820956 -0.080938101 0.73900002
-0.037301905 -0.080938101 0.73900002
-0.032375239 -0.080938101 0.73900002
-0.028856192 -0.080938101 0.73900002
-0.07780572 -0.079207622 0.73600006
-0.045623813 -0.079315245 0.73700005
-0.042797461 -0.079279378 0.73666668
-0.037868261 -0.078776203 0.73633337
-0.031602859 -0.078796767 0.73740005
-0.028261906 -0.078320585 0.73820007
-0.11534191 -0.091282859 0.74300003
-0.11597143 -0.08910048 0.74250007
-0.11281358 -0.087745957 0.74150002
-0.10706913 -0.087089546 0.74171436
-0.10222505 -0.086484089 0.74171436
-0.097951673 -0.086304292 0.74125004
-0.092523441 -0.086309336 0.74160004
-0.087391436 -0.087039374 0.7420001
-0.082642861 -0.086882867 0.74166667
-0.077654295 -0.087539285 0.74125004
-0.073224455 -0.087352708 0.74166673
-0.065720007 -0.086920008 0.74200004
-0.061437149 -0.086156666 0.74150002
-0.057609122 -0.086063817 0.74157149
-0.052345715 -0.086300716 0.74275005
-0.047190618 -0.086599603 0.74271435
-0.042667408 -0.086513974 0.74255562
-0.037503816 -0.085621916 0.74300003
-0.032550476 -0.085621908 0.74300003
-0.051762071 -0.083528414 0.74116677
-0.047154766 -0.082830235 0.74175
-0.042636953 -0.082874291 0.74120009
-0.037402861 -0.083275244 0.74100006
-0.032462288 -0.082852006 0.741
-0.028973335 -0.083386675 0.74200004
-0.03312381 -0.079638101 0.74000001
-0.026146669 -0.078440003 0.74200004
-0.11250218 -0.092214204 0.74636364
-0.10769572 -0.091621429 0.74690002
-0.10252564 -0.091846608 0.74758339
-0.09774328 -0.091437973 0.74757159
-0.092737779 -0.091314711 0.7471112
-0.087813728 -0.091230489 0.74720001
-0.082538456 -0.091078706 0.74712503
-0.077562392 -0.091083974 0.74716675
-0.07230667 -0.090828583 0.74800003
-0.066726357 -0.090947315 0.74800003
-0.06316445 -0.090947315 0.74800009
-0.057702862 -0.090472385 0.74800003
-0.050579052 -0.090472385 0.74800003
-0.047665715 -0.090351433 0.7470001
-0.043111432 -0.090636387 0.74700004
-0.033481907 -0.090472385 0.74800003
-0.10784763 -0.088690482 0.74500006
-0.10359049 -0.088690482 0.74500006
-0.096914291 -0.088395245 0.74550009
-0.092947625 -0.088690482 0.74500006
-0.088690482 -0.088690482 0.74500006
-0.071450479 -0.088513345 0.74650002
-0.067815624 -0.088289537 0.74640006
-0.063066199 -0.088435084 0.74683344
-0.057625718 -0.08892858 0.7470001
-0.05261191 -0.088869058 0.74650002
-0.04824762 -0.088690482 0.74500006
-0.041898098 -0.088769853 0.74566674
-0.037696671 -0.088198572 0.74683344
-0.033269525 -0.088069998 0.74725008
-0.029207621 -0.089047626 0.74800003
-0.11241636 -0.095949374 0.75183338
-0.10788744 -0.095565535 0.75220007
-0.10241448 -0.095827058 0.75200003
-0.097466677 -0.096033812 0.75250006
-0.092511438 -0.095380008 0.75300002
-0.087405004 -0.095285006 0.75225002
-0.082217149 -0.095084451 0.75066674
-0.07960286 -0.095380008 0.75300002
-0.073865719 -0.095380008 0.75300002
-0.066665404 -0.095337793 0.75266671
-0.063108578 -0.095380008 0.75300002
-0.05952286 -0.095380008 0.75300002
-0.033705715 -0.095380008 0.75300002
-0.09714286 -0.093571432 0.75000006
-0.092142865 -0.093571439 0.75000012
-0.08714287 -0.093571432 0.75000006
-0.08214286 -0.093571439 0.75000012
-0.076795056 -0.093385525 0.75080007
-0.072477154 -0.092743814 0.75100005
-0.067922592 -0.092844225 0.75071436
-0.061889529 -0.093049906 0.75040001
-0.057285365 -0.092732266 0.75187504
-0.052434884 -0.092523225 0.75162506
-0.047547624 -0.09315525 0.75157154
-0.041968383 -0.092962287 0.75200003
-0.037216671 -0.09232907 0.75150007
-0.032027859 -0.092507616 0.75150001
-0.029344287 -0.091612861 0.75150001
-0.091320962 -0.10070572 0.75800002
-0.086989537 -0.10070572 0.75800002
-0.05606794 -0.10082605 0.75800008
-0.052560009 -0.10080001 0.75600004
-0.048927143 -0.10073286 0.75550008
-0.11045144 -0.098900959 0.75800002
-0.10713811 -0.097071432 0.75500005
-0.10204739 -0.098443583 0.75725007
-0.097286992 -0.098726988 0.75666666
-0.09255524 -0.09811689 0.75671428
-0.087531433 -0.097818241 0.7560001
-0.082690485 -0.097071432 0.75500005
-0.077437423 -0.096565321 0.75585723
-0.072393909 -0.096573345 0.75560009
-0.068093531 -0.096886672 0.75580007
-0.062259767 -0.096808344 0.75575006
-0.057073653 -0.097098008 0.75644445
-0.052544344 -0.097171865 0.75577784
-0.047613338 -0.097593084 0.75585723
-0.042521667 -0.097117394 0.75674999
-0.037216406 -0.096763507 0.75633335
-0.032112382 -0.096624769 0.75600004
-0.028800003 -0.096479997 0.75600004
-0.055366669 -0.094195247 0.75500005
-0.043861907 -0.094195247 0.75500005
-0.028522223 -0.093715891 0.75500005
-0.11088858 -0.10509048 0.76100004
-0.10074191 -0.10509048 0.76100004
-0.097927317 -0.10518255 0.76166672
-0.11523716 -0.10219143 0.76100004
-0.11228911 -0.1021471 0.76066673
-0.10743681 -0.10229914 0.7608183
-0.10236919 -0.10223793 0.76036376
-0.097785935 -0.10213239 0.76055568
-0.093665458 -0.10256805 0.76071435
-0.088063501 -0.10253969 0.76000011
-0.08245647 -0.10128722 0.76042867
-0.077839434 -0.10132172 0.7610001
-0.072273344 -0.10151606 0.76214296
-0.067182869 -0.10175838 0.76085722
-0.06230953 -0.10143358 0.76075006
-0.058628574 -0.10060953 0.76000005
-0.036512066 -0.1013146 0.76166672
-0.03333905 -0.10074191 0.76100004
