# .PCD v0.7 - Point Cloud Data file format
VERSION 0.7
FIELDS x y z
SIZE 4 4 4
TYPE F F F
COUNT 1 1 1
WIDTH 1327
HEIGHT 1
VIEWPOINT 0 0 0 1 0 0 0
POINTS 1327
DATA ascii
-0.041696593 0.021822304 0.61374998
-0.0373828 0.022196256 0.61331248
-0.033853929 0.022180596 0.61287498
-0.040348575 0.025144763 0.61400002
-0.037424766 0.025144763 0.61400002
-0.066616192 0.014738096 0.61900008
-0.063079059 0.014738096 0.61900008
-0.057152387 0.014730159 0.61866671
-0.052061118 0.01453762 0.6188333
-0.04745467 0.014483239 0.6182
-0.042164091 0.014222587 0.61857146
-0.037823815 0.013640953 0.61790913
-0.034232765 0.013762287 0.61760008
-0.081236385 0.018511048 0.61900002
-0.077699244 0.018511046 0.61900002
-0.072401978 0.017638413 0.61873347
-0.067333914 0.017762277 0.6171667
-0.062205546 0.017604345 0.61618757
-0.057539642 0.017613215 0.61650008
-0.05285899 0.017618157 0.6166876
-0.047520578 0.01759886 0.61600006
-0.042402659 0.017344965 0.61592859
-0.037715558 0.016609948 0.61555564
-0.033399288 0.016113574 0.61524999
-0.08135429 0.021812383 0.61900002
-0.077823229 0.021982644 0.61869234
-0.071933605 0.021906927 0.61863637
-0.067168966 0.022229247 0.61705887
-0.062199648 0.022298571 0.61612511
-0.057515953 0.022303572 0.61625004
-0.052837685 0.02231006 0.61643755
-0.047486342 0.022277383 0.61555004
-0.043342859 0.023428572 0.61500001
-0.066294998 0.02563405 0.61874998
-0.062163532 0.026255524 0.61810005
-0.057972729 0.026498443 0.61827278
-0.052353621 0.026992045 0.61847067
-0.047183141 0.02692779 0.61699998
-0.04237137 0.027114859 0.61620009
-0.037411287 0.027755167 0.616
-0.033425782 0.027562672 0.61573344
-0.046522863 0.030033335 0.61833334
-0.042410955 0.030434445 0.61850005
-0.037719525 0.030647147 0.61883336
-0.033785526 0.03166553 0.61800003
-0.046948574 0.0089142863 0.62400001
-0.042907435 0.0086765727 0.62400001
-0.03803429 0.0089142863 0.62400001
-0.03328 0.008320001 0.62400001
-0.1004343 0.014857144 0.62400001
-0.097239219 0.014456986 0.62383342
-0.092453882 0.014347757 0.62400001
-0.087733179 0.014456986 0.62383336
-0.082298264 0.01444143 0.62316674
-0.077419832 0.013736712 0.62227279
-0.072315 0.013245952 0.62174994
-0.067565307 0.012147083 0.62231249
-0.062567569 0.011917618 0.6223889
-0.057707038 0.012104603 0.62183326
-0.052512325 0.011969461 0.62233335
-0.047147762 0.011762315 0.62214291
-0.042756051 0.011426816 0.62153846
-0.037216194 0.010824331 0.62209094
-0.033182383 0.012044922 0.62216675
-0.10160824 0.01788009 0.62390912
-0.097375661 0.01781268 0.62343752
-0.092606619 0.017808869 0.62331253
-0.087743446 0.017785478 0.62250006
-0.083478622 0.017384935 0.62163645
-0.078139693 0.016336508 0.62
-0.074596837 0.017123811 0.62
-0.095680006 0.020800002 0.62400001
-0.092906676 0.021394288 0.62400007
-0.087580748 0.022249892 0.62361544
-0.08373934 0.022892479 0.6227001
-0.077746049 0.024209525 0.62
-0.073661909 0.023323808 0.61999995
-0.086171433 0.025554288 0.62400001
-0.082738243 0.025882181 0.62371433
-0.076622225 0.026134923 0.6236667
-0.072250046 0.026884325 0.62300009
-0.067801207 0.02773389 0.62175006
-0.063018739 0.02855524 0.62033337
-0.057276189 0.028460955 0.62
-0.054323815 0.028933335 0.62
-0.06596572 0.030308573 0.62400001
-0.062151909 0.030680478 0.62350005
-0.057211868 0.03133117 0.62281829
-0.052196011 0.031653151 0.62233335
-0.047551066 0.032417141 0.62230772
-0.042590577 0.032771718 0.62110001
-0.037841432 0.033408098 0.62083334
-0.03395848 0.034433149 0.62120003
-0.045760002 0.035062861 0.62400001
-0.042772144 0.035048813 0.62375003
-0.037416194 0.036584955 0.62360007
-0.033253334 0.036816671 0.62349999
-0.062300958 0.0041933334 0.62900001
-0.052117147 0.0041933334 0.62900001
-0.047299683 0.0041911113 0.62866664
-0.041990753 0.0038481639 0.62857145
-0.03738885 0.0036789118 0.62885714
-0.032708 0.0039537149 0.62900001
-0.029330002 0.0035909526 0.62849998
-0.091853976 0.0085863499 0.62900001
-0.087677695 0.0084681641 0.62871432
-0.083028011 0.0087460969 0.62900001
-0.079673335 0.008985715 0.62900001
-0.072804868 0.0078827711 0.62800008
-0.067421965 0.0073900595 0.62718761
-0.062266391 0.0072666113 0.62688231
-0.057160374 0.0075732605 0.6266923
-0.052543275 0.0071618464 0.62693751
-0.047839053 0.0067402939 0.62607694
-0.042633258 0.006358651 0.62608331
-0.037245277 0.006795493 0.62606674
-0.031992644 0.006570477 0.62736374
-0.029306669 0.0059800004 0.62800002
-0.11666179 0.014189644 0.62737507
-0.1123966 0.013749129 0.62775004
-0.10749319 0.013567328 0.62784624
-0.10266775 0.012830238 0.62675005
-0.097412162 0.011893042 0.62692314
-0.092290826 0.011587826 0.62635726
-0.0871903 0.011806034 0.62620008
-0.082566068 0.011683063 0.62692863
-0.078179874 0.011191566 0.62800002
-0.07304763 0.010366858 0.62560004
-0.069642864 0.010119048 0.625
-0.055357147 0.010119048 0.625
-0.051785719 0.010119048 0.625
-0.049404766 0.011309525 0.625
-0.031571906 0.010424762 0.62550002
-0.12102667 0.018481907 0.62600005
-0.11732411 0.017980149 0.62600011
-0.11210608 0.017889285 0.62612504
-0.10728244 0.017879464 0.62581259
-0.10369048 0.017738096 0.625
-0.12053335 0.022623619 0.62840003
-0.11739659 0.022618923 0.62826669
-0.1122456 0.022468029 0.62785715
-0.10750727 0.022698333 0.62712514
-0.10258608 0.022666309 0.62625003
-0.097842366 0.02276375 0.62566674
-0.092812859 0.023352858 0.62549996
-0.08948414 0.024007939 0.625
-0.10698991 0.026238287 0.62900001
-0.10251082 0.02757423 0.62858832
-0.097274818 0.027395235 0.62833333
-0.092025071 0.027489945 0.62743747
-0.087386385 0.02775473 0.62615383
-0.082352385 0.028139221 0.62618184
-0.077800862 0.028118381 0.62550002
-0.073214293 0.029166669 0.625
-0.091654293 0.03055143 0.62900007
-0.087460965 0.03055143 0.62900001
-0.08228343 0.030781334 0.62880003
-0.077761978 0.032046061 0.62807155
-0.072737262 0.0323814 0.62752944
-0.067571945 0.032365326 0.62723535
-0.062283047 0.033051051 0.62639999
-0.057537343 0.033712193 0.62540001
-0.053571433 0.033928573 0.625
-0.071686044 0.035343811 0.62900007
-0.06662742 0.036275662 0.62900001
-0.062310655 0.036407448 0.62854552
-0.057389826 0.037065662 0.62768751
-0.052512202 0.036999233 0.62656248
-0.047850486 0.037112836 0.62646669
-0.042757221 0.037716337 0.62553847
-0.037743729 0.039152384 0.62545455
-0.033017717 0.039216958 0.62580007
-0.056909528 0.040136196 0.62900007
-0.052488685 0.040913656 0.6286667
-0.047732733 0.041202173 0.62863648
-0.042751797 0.041463304 0.62815398
-0.036654409 0.042042028 0.62837505
-0.032186888 0.042041548 0.62853855
-0.045285717 -0.00060380955 0.634
-0.042266667 -0.00060380955 0.634
-0.037004605 -0.0010058731 0.63349998
-0.032677282 -0.0011210886 0.63371438
-0.028349211 -0.0012069843 0.63333338
-0.086646676 0.0039247619 0.634
-0.081972003 0.0039838101 0.63379997
-0.076819167 0.0034710716 0.63387501
-0.07239072 0.0030156353 0.63341665
-0.067494214 0.0030116667 0.63275003
-0.062647723 0.0027696192 0.63249999
-0.057805955 0.0030096034 0.63225001
-0.052483119 0.002367175 0.63246673
-0.04743116 0.0020642178 0.63271427
-0.042374101 0.0015638097 0.63199997
-0.03712349 0.0014039153 0.63211113
-0.032352816 0.0016960173 0.63227272
-0.028891906 0.0012033334 0.63200003
-0.11680069 0.0085334703 0.63357151
-0.11204857 0.0086498428 0.63366669
-0.10710173 0.008080001 0.63319993
-0.1026646 0.0079468396 0.63309091
-0.097457498 0.0079421643 0.63272727
-0.092711315 0.0066210721 0.63212496
-0.087464862 0.0061427616 0.63250005
-0.082303658 0.0065226979 0.63233334
-0.077500202 0.0071019684 0.63213336
-0.072315007 0.0054235719 0.63275003
-0.068563342 0.005412857 0.63150001
-0.058292385 0.0054085716 0.63100004
-0.11749163 0.01131524 0.63200003
-0.11236742 0.010908362 0.63244444
-0.10742731 0.010622224 0.63133335
-0.10236224 0.010216191 0.63100004
-0.098556191 0.010216191 0.63100004
-0.07692191 0.010216191 0.63100004
-0.11598381 0.02463905 0.63100004
-0.11427191 0.024658572 0.63150001
-0.12015811 0.028379049 0.634
-0.11734182 0.026867528 0.63249999
-0.11233328 0.027708158 0.63243747
-0.10774234 0.028388467 0.63122225
-0.11222096 0.030770002 0.63349998
-0.10705022 0.031263269 0.63300008
-0.10228477 0.031550582 0.63300002
-0.097559564 0.03215019 0.63323075
-0.093001693 0.032981031 0.6331538
-0.087556683 0.033232719 0.63278574
-0.082606867 0.033236954 0.6322
-0.076320961 0.034254286 0.63100004
-0.093187951 0.035624765 0.634
-0.087552391 0.036228579 0.634
-0.082022652 0.036417358 0.6337778
-0.076899529 0.037202246 0.63292861
-0.072258182 0.037727036 0.63184613
-0.06792327 0.03838395 0.63114291
-0.062378861 0.038821526 0.63100004
-0.072166264 0.040954556 0.63371438
-0.067366458 0.041224871 0.63344443
-0.062705487 0.0416039 0.63308328
-0.058034874 0.042634141 0.63323081
-0.053239599 0.043433335 0.6321429
-0.04788905 0.043680798 0.6311667
-0.042082623 0.043886907 0.63125002
-0.038205478 0.043621194 0.63175005
-0.03185048 0.043869525 0.63100004
-0.028890479 0.04393905 0.63200003
-0.050720003 0.045285717 0.634
-0.047450166 0.045640644 0.63333333
-0.04223334 0.045853816 0.63349998
-0.037166007 0.04621591 0.63349992
-0.032447431 0.046923496 0.63326675
-0.02847611 0.046912473 0.63372719
-0.029586669 0.050116193 0.634
-0.049294289 -0.005477143 0.63900006
-0.04077429 -0.005477143 0.63900006
-0.037445717 -0.0059951027 0.6385715
-0.032837145 -0.0060814284 0.63850003
-0.027939763 -0.0060745245 0.63775003
-0.086417146 -0.00060857146 0.63900006
-0.083374292 -0.00060857146 0.63900006
-0.077268735 -0.0012169841 0.6388334
-0.073105082 -0.0014185186 0.63788891
-0.067420736 -0.0018239564 0.63776928
-0.06227399 -0.0024325596 0.63793755
-0.057325795 -0.0016216668 0.6380834
-0.052203946 -0.0023109845 0.63786674
-0.04767473 -0.0022904032 0.63738465
-0.042513024 -0.0030376192 0.6376667
-0.037807811 -0.0032733337 0.63620013
-0.032665186 -0.0034359789 0.63644451
-0.027840953 -0.0036319052 0.63550007
-0.11055715 0.0038542859 0.63900006
-0.10670286 0.0038542859 0.63900006
-0.10163143 0.0030428576 0.639
-0.09754587 0.0026046257 0.63842863
-0.09201362 0.0029109528 0.63730001
-0.087549165 0.002094799 0.6360001
-0.08247932 0.0017061473 0.63636369
-0.07794036 0.0013613097 0.63562506
-0.072571434 0.00060476194 0.63500005
-0.067733333 0.00060476194 0.63500005
-0.062968813 0.00060547621 0.63575006
-0.057488192 0.00060514291 0.63540006
-0.053823814 0.00060476194 0.63500005
-0.11646744 0.0061927624 0.63760006
-0.11269302 0.0065317461 0.63655561
-0.1083343 0.0058603175 0.63666672
-0.10229699 0.005660159 0.63683337
-0.098086439 0.0057516666 0.63575006
-0.094342865 0.0054428573 0.63500005
-0.12053715 0.029680002 0.63600004
-0.1175089 0.029276829 0.63600004
-0.12136263 0.032242145 0.63875008
-0.11765308 0.032911375 0.63861114
-0.11237715 0.03352173 0.63781822
-0.10790262 0.033644523 0.63650006
-0.10311553 0.033968575 0.63528579
-0.098576203 0.03447143 0.63500011
-0.11745429 0.036108576 0.63900006
-0.11015143 0.035905715 0.63900006
-0.10664763 0.036292702 0.63866675
-0.10198139 0.037492037 0.63772732
-0.097681724 0.037620179 0.63706255
-0.092632316 0.038035974 0.63700002
-0.087206081 0.038758215 0.63587511
-0.082352936 0.038800001 0.63514298
-0.079286195 0.038735718 0.63550007
-0.10041429 0.04077429 0.63900006
-0.095545724 0.04077429 0.63900006
-0.092073187 0.041169368 0.6388334
-0.08736328 0.042292796 0.63828582
-0.082595907 0.042514469 0.63768756
-0.077571012 0.042422328 0.6363126
-0.072824456 0.043371961 0.63544452
-0.068022996 0.043649118 0.63528579
-0.062920719 0.044165 0.63525009
-0.085808575 0.04564286 0.63900006
-0.077508196 0.045872003 0.63880008
-0.072737932 0.046670742 0.63790917
-0.067619935 0.046843376 0.63876927
-0.061967842 0.047283743 0.63838464
-0.057278719 0.047276702 0.63782352
-0.052364834 0.047598578 0.63721442
-0.047048386 0.048140768 0.63660014
-0.042366669 0.048419528 0.63550007
-0.037918732 0.048608258 0.63533342
-0.03447143 0.048985716 0.63500005
-0.051728576 0.050511431 0.63900006
-0.047440838 0.05109036 0.63862503
-0.042566668 0.05108048 0.63849998
-0.037528139 0.051567107 0.63836366
-0.032780003 0.052206792 0.637375
-0.028702671 0.051228769 0.63580006
-0.080960006 -0.0055200006 0.64400005
-0.076733813 -0.0059182546 0.64283335
-0.072233573 -0.0061221435 0.64275002
-0.067204759 -0.00611 0.6415
-0.062255599 -0.0061041666 0.64087498
-0.057541195 -0.0061226198 0.64275002
-0.052573457 -0.0061146431 0.64187503
-0.047379769 -0.0070330948 0.64191669
-0.042929184 -0.0068329005 0.64145452
-0.038361907 -0.0081284363 0.64228576
-0.03271069 -0.0086383075 0.6426667
-0.028246477 -0.0084384773 0.64200002
-0.11668306 -0.0011028573 0.64280003
-0.11285335 -0.00061333337 0.64400005
-0.10640573 -0.0010215875 0.64333338
-0.10282762 -0.001837619 0.6426667
-0.097565308 -0.0020983675 0.64200002
-0.092452243 -0.002025275 0.64223087
-0.087855138 -0.0019725927 0.64211118
-0.082313709 -0.0023060809 0.6416924
-0.078156084 -0.0030539287 0.64112508
-0.072324768 -0.0037285716 0.64055562
-0.067047626 -0.0042666672 0.64000005
-0.057435241 -0.0040241908 0.64020008
-0.053028576 -0.0042666672 0.64000005
-0.046323813 -0.0042666672 0.64000005
-0.12082668 0.0036800003 0.64400005
-0.11737276 0.0024439287 0.64187503
-0.1126833 0.0021123081 0.64115393
-0.10778916 0.0015866669 0.64160007
-0.103497 0.0014226985 0.64050007
-0.095695242 0.0012190477 0.64000005
-0.093530104 0.0010973335 0.64020008
-0.12045144 0.0055028577 0.64200002
-0.11834048 0.0054900004 0.64050007
-0.12190477 0.032914288 0.64000005
-0.1200762 0.037180956 0.64000005
-0.11717179 0.038576972 0.64109093
-0.11254357 0.038004771 0.64153349
-0.10765486 0.038692959 0.6408
-0.10393017 0.039253972 0.64066672
-0.11736143 0.041368097 0.64350003
-0.11285334 0.041093335 0.64400005
-0.10760134 0.042036384 0.64340007
-0.10285674 0.042859327 0.64285725
-0.097809181 0.043057028 0.64237505
-0.092941388 0.043517251 0.64155561
-0.089060485 0.044530004 0.64050007
-0.095680006 0.046000004 0.64400005
-0.091655523 0.046835382 0.64342862
-0.087583438 0.047218099 0.64220011
-0.082714051 0.047063418 0.64175004
-0.077713631 0.048388477 0.64150012
-0.072623245 0.04918934 0.64080006
-0.067101121 0.048597306 0.64050007
-0.063390478 0.049371433 0.64000005
-0.076053336 0.050906669 0.64400005
-0.072005339 0.051152002 0.64400005
-0.067197524 0.052223593 0.64276934
-0.062224321 0.052446548 0.64180011
-0.057434943 0.052550297 0.64156252
-0.052654292 0.052937657 0.64115393
-0.047580004 0.05368048 0.64050007
-0.042666674 0.053638101 0.64000005
-0.038156193 0.054003812 0.64000005
-0.052746668 0.055813339 0.64400005
-0.047765717 0.056340005 0.64300001
-0.042792741 0.05624108 0.64187503
-0.037776411 0.057066809 0.64215392
-0.032983117 0.057285588 0.64213341
-0.029913336 0.056774288 0.64100003
-0.031474289 -0.015428573 0.648
-0.029005716 -0.015428573 0.648
-0.062331434 -0.010491429 0.648
-0.058011431 -0.010491429 0.648
-0.052636199 -0.010897461 0.64766669
-0.047664925 -0.010889049 0.64716673
-0.042523336 -0.011340288 0.64710003
-0.037162464 -0.012220169 0.64717633
-0.032035831 -0.012323215 0.64687496
-0.027528796 -0.012368795 0.64676923
-0.10726025 -0.0061642863 0.64725006
-0.10250363 -0.0065306672 0.64679998
-0.097114839 -0.0060756477 0.64714289
-0.09246476 -0.0061647622 0.64725
-0.087526478 -0.0065342858 0.64720005
-0.082671441 -0.0073960326 0.64700001
-0.077910475 -0.0082603823 0.64720005
-0.073038787 -0.0085465331 0.64757144
-0.067576744 -0.0085465312 0.64757144
-0.062803812 -0.0086204773 0.64649999
-0.057888459 -0.008622501 0.64662504
-0.052921548 -0.0086153578 0.64612502
-0.048554294 -0.0092190485 0.64533341
-0.04301643 -0.0092178574 0.64525002
-0.037471432 -0.0092142867 0.64500004
-0.027642859 -0.0092142867 0.64500004
-0.11513858 -0.003694762 0.64649999
-0.11228938 -0.002985348 0.64646161
-0.10784529 -0.002852381 0.64572734
-0.10201168 -0.0043016667 0.64525002
-0.096852385 -0.0043000001 0.6450001
-0.092347622 -0.0043000001 0.6450001
-0.087460384 -0.0040596197 0.64580005
-0.083542861 -0.0043000001 0.64500004
-0.12138953 0.001232381 0.64700001
-0.11633938 0.043705299 0.64633334
-0.1123599 0.043812856 0.64609998
-0.10773288 0.04444493 0.6451667
-0.11910858 0.045051433 0.648
-0.11232001 0.046285719 0.648
-0.10637525 0.046558574 0.64750004
-0.1021339 0.047810894 0.64714289
-0.097458579 0.048291095 0.64649999
-0.092711918 0.049046669 0.64574999
-0.087228581 0.049757145 0.64500004
-0.08231429 0.049757145 0.64500004
-0.096891433 0.051222861 0.648
-0.092151947 0.05269276 0.64738458
-0.087457202 0.052968755 0.64668751
-0.082529359 0.052968048 0.64668745
-0.077747494 0.053210754 0.64642853
-0.072735332 0.053616021 0.64572728
-0.068185717 0.054671433 0.6450001
-0.064500004 0.054671433 0.64500004
-0.082697153 0.056160003 0.648
-0.077348575 0.056571435 0.648
-0.07279525 0.056755479 0.64775002
-0.067613244 0.05719455 0.64700001
-0.062918983 0.057640612 0.64678562
-0.057907306 0.057292536 0.6468333
-0.052979529 0.058524605 0.6468333
-0.048007861 0.059085723 0.64624995
-0.043025125 0.059006076 0.64537501
-0.038700007 0.059585717 0.6450001
-0.031328574 0.059585717 0.6450001
-0.028534606 0.059330162 0.64666671
-0.052210297 0.061590862 0.648
-0.047761276 0.061740953 0.64755559
-0.04225767 0.061846461 0.64722228
-0.037020121 0.062573813 0.64649999
-0.032020058 0.062811129 0.64656246
-0.028350122 0.062864408 0.64712501
-0.035177145 0.066034287 0.648
-0.026327305 -0.020937463 0.65300006
-0.080847621 -0.01554762 0.65300006
-0.077116199 -0.01554762 0.65300006
-0.073384762 -0.01554762 0.65300006
-0.062397785 -0.015547621 0.65300006
-0.057215244 -0.01554762 0.65300006
-0.052152701 -0.016371537 0.65277779
-0.04725302 -0.01678746 0.65283334
-0.042056873 -0.017125307 0.65214288
-0.037218157 -0.017370062 0.65131259
-0.032284703 -0.017487368 0.65106678
-0.027588403 -0.017998617 0.65163636
-0.1162962 -0.011816192 0.65300006
-0.11156972 -0.010821144 0.65300006
-0.10687879 -0.011105443 0.65300012
-0.1038581 -0.010572381 0.65300006
-0.091115624 -0.01106343 0.65260005
-0.086908899 -0.011942964 0.65233332
-0.082658865 -0.01236578 0.65126663
-0.077492982 -0.012400264 0.65094441
-0.072270364 -0.012409166 0.651375
-0.067099668 -0.011879798 0.65149999
-0.062063977 -0.01303492 0.65166676
-0.057040002 -0.01302127 0.65100002
-0.052079625 -0.013268954 0.65100002
-0.047319159 -0.013431747 0.65088892
-0.042398918 -0.01371973 0.65057153
-0.11273868 -0.0075572561 0.65147072
-0.10742287 -0.0086942874 0.65200001
-0.10194033 -0.0089098429 0.65266675
-0.097518295 -0.0084485738 0.65219998
-0.092380643 -0.0086806361 0.65100002
-0.087994926 -0.0088825403 0.65066671
-0.083571434 -0.0092857145 0.65000004
-0.071190484 -0.0092857145 0.65000004
-0.069952384 -0.0092857145 0.65000004
-0.12055667 0.049092859 0.65250003
-0.11776218 0.047680955 0.65172726
-0.11292695 0.048025623 0.65149999
-0.10826215 0.048168339 0.65050006
-0.12127144 0.050996192 0.65300006
-0.11733271 0.050788894 0.65300012
-0.11211167 0.051600955 0.65277779
-0.10766699 0.052156899 0.65246677
-0.10307723 0.052280016 0.65169239
-0.098151118 0.053104762 0.65088892
-0.094714291 0.053857148 0.65000004
-0.10054129 0.055764131 0.65300006
-0.097026572 0.056478415 0.6516667
-0.092607282 0.056717928 0.65181822
-0.086878844 0.057621062 0.65211111
-0.0825243 0.058325559 0.65150011
-0.077996612 0.058520414 0.65071434
-0.072541282 0.058900006 0.65100002
-0.069952384 0.058809526 0.65000004
-0.08081691 0.060923576 0.65275002
-0.077057146 0.060900483 0.65250003
-0.071695589 0.061526418 0.65254545
-0.067033343 0.062069941 0.65171427
-0.061965469 0.062132202 0.65106684
-0.057141028 0.062099878 0.65073341
-0.052404191 0.063553534 0.6504001
-0.047047623 0.063761912 0.65000004
-0.042736828 0.063794613 0.6503334
-0.061568581 0.065300003 0.65300006
-0.057182264 0.065884411 0.65262502
-0.052385826 0.066051222 0.65222222
-0.04719238 0.066443175 0.65200007
-0.042217266 0.067051791 0.65187496
-0.037534051 0.067521676 0.65141666
-0.032240003 0.067581281 0.65100002
-0.028033812 0.067064293 0.65050006
-0.035448574 0.07027524 0.65300006
-0.032327384 0.070248336 0.65275007
-0.028585717 0.070843339 0.65250003
-0.051680718 -0.020985477 0.65775007
-0.047863815 -0.021203674 0.65757149
-0.042613339 -0.020680001 0.65800005
-0.036917962 -0.02136449 0.65700001
-0.032458354 -0.021772642 0.65654552
-0.028717145 -0.02122619 0.65550005
-0.1104143 -0.015595239 0.65500003
-0.10708191 -0.015869714 0.65600008
-0.10311753 -0.015912572 0.65780002
-0.097723342 -0.016287383 0.65775001
-0.092840351 -0.016792729 0.65745461
-0.087589934 -0.016893256 0.65691674
-0.082354203 -0.017450305 0.65645462
-0.077558815 -0.018140238 0.65675008
-0.07235688 -0.017778505 0.65657151
-0.067525722 -0.017509049 0.65650004
-0.06246528 -0.017938243 0.65638465
-0.057493024 -0.018124288 0.65616673
-0.052500959 -0.01880762 0.6551429
-0.047409527 -0.019338097 0.65500003
-0.043666668 -0.019338097 0.65500003
-0.11232001 -0.013104382 0.65520006
-0.10738286 -0.013518308 0.65511113
-0.10235658 -0.012623873 0.65613341
-0.097462855 -0.012496665 0.65600008
-0.092823826 -0.013115238 0.65572739
-0.088260762 -0.013857335 0.65539998
-0.067995243 -0.01434762 0.65500009
-0.12099588 0.052898094 0.65600002
-0.11713447 0.053322859 0.65560013
-0.11269486 0.054038484 0.6552
-0.12076286 0.05631429 0.65700001
-0.11751274 0.056964502 0.65727282
-0.1124111 0.056804165 0.65672731
-0.10737403 0.057262186 0.65657151
-0.10286961 0.057857297 0.65646166
-0.097955815 0.059175242 0.65680003
-0.092466198 0.059352383 0.65600002
-0.088580959 0.059261907 0.65500003
-0.10183334 0.061100006 0.65800005
-0.097551122 0.061204448 0.65800005
-0.092567153 0.062338036 0.65735722
-0.087550238 0.062537737 0.65662509
-0.082969062 0.06295874 0.65666676
-0.077515118 0.063763455 0.65637505
-0.073279813 0.063792579 0.65540004
-0.069242865 0.064252384 0.65500003
-0.075769052 0.066376671 0.65750003
-0.072494492 0.067487501 0.65733343
-0.067695521 0.067428172 0.65728581
-0.06266579 0.067955457 0.65646166
-0.057444882 0.068685122 0.65562505
-0.052235384 0.068843812 0.65628576
-0.047428336 0.069269292 0.65525001
-0.070813335 0.070813335 0.65800005
-0.067680001 0.070813335 0.65800005
-0.062620007 0.070759527 0.65750003
-0.057177149 0.07115937 0.65733337
-0.052620716 0.070786431 0.65775001
-0.04735408 0.071553029 0.65711117
-0.042532384 0.072557494 0.65675002
-0.037649021 0.07267265 0.65666664
-0.032520637 0.073172078 0.65666676
-0.028815478 0.073918812 0.65775001
-0.04198667 0.075826675 0.65800011
-0.037331428 0.076363824 0.65800011
-0.032586671 0.076453343 0.65800005
-0.029035559 0.076244459 0.65800011
-0.043568574 -0.025888573 0.66300005
-0.037675243 -0.025888573 0.66300005
-0.032550074 -0.026418643 0.66271436
-0.028040957 -0.026418643 0.66271436
-0.024625717 -0.025888573 0.66300005
-0.086375251 -0.020805717 0.66200006
-0.081860386 -0.021569336 0.66220009
-0.077641055 -0.021832211 0.66181827
-0.072655983 -0.021650689 0.66211122
-0.067379348 -0.022558389 0.6621539
-0.062927693 -0.022574795 0.66206676
-0.057838909 -0.022254143 0.66176933
-0.053222071 -0.023200637 0.66133332
-0.047682017 -0.023737039 0.66166669
-0.042849526 -0.023317143 0.66166675
-0.038300216 -0.023596933 0.66166675
-0.032880958 -0.024314858 0.66140008
-0.027725119 -0.023944881 0.66162509
-0.024168259 -0.024168257 0.66200006
-0.10576351 -0.019134922 0.66233337
-0.10249992 -0.018408477 0.66190004
-0.097893208 -0.018788436 0.66071439
-0.092282556 -0.019295875 0.6606667
-0.087459683 -0.019505398 0.6606667
-0.084566042 -0.019095557 0.66100001
-0.11610358 0.059467863 0.66075003
-0.11197144 0.059759527 0.66050005
-0.10874286 0.059714291 0.66000003
-0.12060287 0.062511429 0.66300005
-0.11721587 0.062080219 0.66288894
-0.11232357 0.062472783 0.66258347
-0.10721962 0.062903896 0.66158336
-0.10270573 0.063186288 0.66079998
-0.097854055 0.063715957 0.66075003
-0.093657151 0.064742863 0.66000003
-0.11934001 0.065037146 0.66300005
-0.11176287 0.065037146 0.66300005
-0.10208096 0.065458104 0.66300005
-0.096788667 0.067386389 0.66250008
-0.092196368 0.067558102 0.66181827
-0.087242939 0.067771733 0.66123086
-0.082355082 0.067983098 0.6612941
-0.077932037 0.068084434 0.66136378
-0.074913338 0.069877148 0.66100001
-0.067257144 0.069142863 0.66000003
-0.090925723 0.070088573 0.66300005
-0.087347627 0.070509523 0.66300005
-0.082085721 0.071351431 0.66300005
-0.076977149 0.071297623 0.66250008
-0.07308048 0.07119 0.66150004
-0.066846512 0.073154449 0.66216671
-0.062763952 0.073030077 0.66185725
-0.058148574 0.073427223 0.66057146
-0.052626032 0.073173545 0.6604445
-0.048062045 0.074293613 0.66028577
-0.065037146 0.075140007 0.66300005
-0.062488336 0.075427391 0.66275007
-0.058143951 0.07581307 0.66257155
-0.053118106 0.076334298 0.66240013
-0.047923263 0.077559143 0.66208345
-0.04299619 0.077812485 0.66066664
-0.03812591 0.078391433 0.66060007
-0.032710001 0.078630954 0.66050005
-0.028776828 0.078349531 0.66166675
-0.046725716 0.080191433 0.66300005
-0.042484291 0.080551907 0.66250008
-0.038123678 0.080663539 0.66242868
-0.032809529 0.080762386 0.66250008
-0.029023334 0.080130957 0.66250002
-0.046511434 -0.031220002 0.66900003
-0.041742455 -0.031739458 0.66842866
-0.036954287 -0.031220002 0.66900003
-0.032239433 -0.031729717 0.66900009
-0.027967978 -0.031779882 0.66737503
-0.022918575 -0.031833336 0.66850007
-0.019721907 -0.031808574 0.66800004
-0.096845716 -0.026122859 0.66900003
-0.081554294 -0.026122859 0.66900003
-0.07739307 -0.026646666 0.6684286
-0.072420008 -0.027111048 0.66820014
-0.067361042 -0.027327545 0.6672501
-0.062230244 -0.027307544 0.66675007
-0.05702731 -0.027817907 0.66680014
-0.052065305 -0.027940417 0.66668761
-0.047249798 -0.028116193 0.66657144
-0.042573404 -0.027991911 0.66578567
-0.037936907 -0.028216429 0.66575003
-0.033193655 -0.028966775 0.66600007
-0.027674181 -0.028942117 0.66544443
-0.0234745 -0.028554076 0.66622227
-0.10576572 -0.022299999 0.66900003
-0.10234573 -0.022592066 0.66816676
-0.097670235 -0.022736382 0.66680008
-0.0930968 -0.022249872 0.66745466
-0.0879618 -0.022680955 0.66766667
-0.083062023 -0.023783494 0.66688895
-0.077383503 -0.024314921 0.66600001
-0.071974695 -0.024173062 0.66542858
-0.06903334 -0.024700001 0.66500002
-0.060166672 -0.024700001 0.66500002
-0.05826667 -0.024700001 0.66500002
-0.11843334 0.063966677 0.66500008
-0.11739226 0.067264497 0.66628569
-0.11286588 0.067828268 0.66766679
-0.10800205 0.067459643 0.66676927
-0.10285742 0.067937933 0.66554546
-0.09943334 0.06840001 0.66500002
-0.11723429 0.070722863 0.66900003
-0.11213715 0.070722863 0.66900003
-0.10698699 0.071537152 0.66866672
-0.10254835 0.071828507 0.66741675
-0.097573943 0.071609616 0.66645455
-0.092744932 0.072419539 0.66700006
-0.087753423 0.073099747 0.66636366
-0.082441792 0.073563941 0.66587502
-0.077324763 0.073522381 0.66549999
-0.072254293 0.073522381 0.66549999
-0.069137149 0.074211434 0.66600001
-0.086905725 0.076081909 0.66850007
-0.082648151 0.076568365 0.66811115
-0.077711858 0.076441176 0.66699994
-0.072437674 0.076833859 0.66772729
-0.06733606 0.077501372 0.667
-0.06229648 0.078283533 0.66609997
-0.05732042 0.07869184 0.66557145
-0.052883338 0.078850009 0.66500002
-0.065985084 0.081261277 0.66833341
-0.062620193 0.081839822 0.66820008
-0.057257146 0.081433341 0.6680001
-0.051851165 0.082454979 0.66742861
-0.04728901 0.082976453 0.66690904
-0.043005243 0.083314061 0.66650003
-0.037820324 0.083459057 0.66555554
-0.032951552 0.083647512 0.66537499
-0.047500957 -0.035304762 0.67400002
-0.042365719 -0.035304762 0.67400002
-0.037230477 -0.035304762 0.67400002
-0.032095239 -0.035304762 0.67400002
-0.027601909 -0.035304762 0.67400002
-0.02369762 -0.035547145 0.67250001
-0.09050858 -0.030811429 0.67400002
-0.086686358 -0.03112741 0.67311108
-0.081995167 -0.031295586 0.67309088
-0.077478416 -0.031377461 0.67233342
-0.072828688 -0.031760953 0.67144448
-0.067683294 -0.032534204 0.67218179
-0.063104205 -0.032000955 0.67200005
-0.057600718 -0.032000951 0.67200005
-0.05245477 -0.032626033 0.67166674
-0.047510479 -0.033023912 0.67111111
-0.042597719 -0.033644572 0.67160004
-0.037057742 -0.033225119 0.67087507
-0.032354098 -0.03363448 0.67140007
-0.027493972 -0.033886351 0.67133343
-0.023632383 -0.033852704 0.67066669
-0.11156306 -0.026574859 0.67400002
-0.10798371 -0.026728682 0.67355561
-0.10239977 -0.02688143 0.67200005
-0.097309522 -0.027321227 0.67157149
-0.092228822 -0.027221432 0.67250001
-0.087870762 -0.027373049 0.67150003
-0.083269633 -0.027714571 0.67050004
-0.078254297 -0.02846762 0.67020005
-0.07312572 -0.029480001 0.67000002
-0.067638099 -0.029990477 0.67000002
-0.061895244 -0.029990477 0.67000002
-0.059342861 -0.029990477 0.67000002
-0.1074954 -0.024313493 0.6718334
-0.10337143 -0.024885716 0.67000002
-0.09255182 -0.024382669 0.67020005
-0.088057153 -0.024885716 0.67000002
-0.11421905 0.069552384 0.67000002
-0.11675943 0.072767429 0.67140001
-0.1124559 0.072458386 0.67090005
-0.10779929 0.073943101 0.67075002
-0.10209525 0.07465715 0.67000002
-0.097025953 0.074685 0.67025006
-0.093800008 0.07465715 0.67000002
-0.11618477 0.075102866 0.67400002
-0.1125901 0.075359635 0.67400002
-0.10746636 0.077129215 0.67300004
-0.10253992 0.077547073 0.67291665
-0.097340092 0.077489771 0.67241663
-0.092397332 0.077610314 0.67245454
-0.08816652 0.077732235 0.67083335
-0.083179817 0.07909067 0.67080003
-0.077640556 0.079282999 0.67057145
-0.072936192 0.079578102 0.67060006
-0.069552384 0.079761907 0.67000002
-0.042680003 -0.040740002 0.67900002
-0.03750667 -0.040740002 0.67900002
-0.03211778 -0.040740006 0.67900008
-0.027150476 -0.041371673 0.67874998
-0.022885336 -0.041245338 0.67880005
-0.087558672 -0.035825338 0.67900002
-0.082791008 -0.036405616 0.67855555
-0.07854072 -0.035876907 0.67875004
-0.07143072 -0.035876907 0.67875004
-0.067104287 -0.036457621 0.67750001
-0.062200226 -0.0366874 0.67761546
-0.057459582 -0.036801167 0.67788887
-0.053098101 -0.036473338 0.67660004
-0.047760006 -0.038080644 0.67766666
-0.042595875 -0.038080007 0.67766666
-0.037452228 -0.038098097 0.67800009
-0.032210398 -0.03801024 0.67641675
-0.027053338 -0.038005397 0.67633343
-0.022769209 -0.038453337 0.67666674
-0.11041715 -0.030348573 0.67800003
-0.10711683 -0.031497777 0.67800003
-0.10231664 -0.031854212 0.67830771
-0.097762868 -0.031729784 0.67736369
-0.092951886 -0.032275535 0.67669243
-0.088349946 -0.033444624 0.67714292
-0.082610868 -0.033895053 0.67660004
-0.077257149 -0.034121908 0.67600006
-0.072000012 -0.034071431 0.67500001
-0.06235715 -0.034071431 0.67500007
-0.057922147 -0.034109287 0.67575008
-0.11065286 -0.028950002 0.67550004
-0.1074108 -0.028942859 0.67533338
-0.10297072 -0.028960716 0.67575008
-0.097547315 -0.028942859 0.67533338
-0.093214296 -0.028928574 0.67500007
-0.037131436 -0.046251431 0.68400002
-0.033222858 -0.046251431 0.68400002
-0.028011432 -0.046251431 0.68400002
-0.022148572 -0.046251431 0.68400002
-0.090548575 -0.041040003 0.68400002
-0.087291434 -0.041040003 0.68400002
-0.08161696 -0.041264575 0.68340009
-0.077205516 -0.042474288 0.68377781
-0.073061101 -0.042515323 0.68353856
-0.06769906 -0.041661434 0.68350005
-0.062491432 -0.041661434 0.68350005
-0.056814846 -0.042504527 0.68308342
-0.052057389 -0.042948578 0.68324995
-0.047432624 -0.042887069 0.68225002
-0.04290048 -0.04355143 0.68250006
-0.037695639 -0.043545321 0.6824168
-0.032515243 -0.043305572 0.68176931
-0.027260002 -0.044136669 0.68150002
-0.021816572 -0.04376591 0.68180007
-0.01889143 -0.04234286 0.68400002
-0.11096001 -0.036697146 0.68400002
-0.10729603 -0.037581045 0.68354553
-0.10333905 -0.036616672 0.68350005
-0.097572394 -0.036427144 0.68300009
-0.092193194 -0.037529163 0.68207699
-0.087455884 -0.038574398 0.68133336
-0.082216471 -0.03902436 0.6812858
-0.077421919 -0.038092382 0.682091
-0.073062785 -0.038210083 0.68191671
-0.067785993 -0.03904096 0.68157142
-0.062308099 -0.039591905 0.68150008
-0.056990482 -0.039504763 0.68000001
-0.052321531 -0.039078858 0.68160009
-0.11158857 -0.033387046 0.6820001
-0.1082543 -0.033992384 0.68200004
-0.10317461 -0.034391113 0.68133342
-0.096495241 -0.034323812 0.68000001
-0.091866672 -0.045277145 0.68900001
-0.080477148 -0.045145717 0.68700004
-0.077403061 -0.045971815 0.68760008
-0.072437249 -0.046503335 0.68770003
-0.067834839 -0.045755107 0.68771434
-0.062497146 -0.0456708 0.68833339
-0.057660956 -0.046522859 0.68800008
-0.052469123 -0.047045719 0.68742865
-0.047044359 -0.047045715 0.68742865
-0.042538255 -0.047121115 0.68716669
-0.038329527 -0.047487624 0.68680006
-0.032464765 -0.04728096 0.68633342
-0.027063239 -0.047459815 0.68640012
-0.021819368 -0.048223495 0.68733335
-0.019001905 -0.047178097 0.68800002
-0.10664668 -0.041220002 0.68700004
-0.10223448 -0.041077524 0.68900007
-0.096982464 -0.042447761 0.68871439
-0.092827812 -0.042491809 0.68640006
-0.087657265 -0.043175597 0.68687499
-0.082704499 -0.04326776 0.68685728
-0.079053335 -0.043773334 0.68600005
-0.067946672 -0.043773334 0.68600005
-0.062766671 -0.043805242 0.68650007
-0.058800004 -0.043773334 0.68600005
-0.10714667 -0.039853334 0.68600005
-0.10228492 -0.038952932 0.68657154
-0.097780831 -0.039131571 0.68642867
-0.094080009 -0.039853334 0.68600005
-0.073365718 -0.050893337 0.69400001
-0.061468579 -0.050893337 0.69400001
-0.057475876 -0.050868895 0.6936667
-0.053096514 -0.050893337 0.69400001
-0.047588572 -0.050893337 0.69400001
-0.041994762 -0.05189934 0.69330007
-0.037051752 -0.052667141 0.69266671
-0.032659121 -0.052522518 0.69178587
-0.027885173 -0.052476596 0.69242871
-0.022471284 -0.052299265 0.69238472
-0.017834697 -0.052561499 0.69357151
-0.10509144 -0.045605719 0.69400001
-0.10239905 -0.045583814 0.6936667
-0.097305298 -0.046346772 0.69188893
-0.092213348 -0.047030862 0.69160002
-0.087184861 -0.046920609 0.69209099
-0.082700647 -0.046726245 0.69100004
-0.077591702 -0.04825075 0.69128585
-0.072163247 -0.049208574 0.69260007
-0.066960216 -0.04852064 0.69155556
-0.062410124 -0.04858036 0.691625
-0.058009721 -0.04880286 0.6906001
-0.052637912 -0.049208574 0.69260007
-0.047624197 -0.049208578 0.69260007
-0.042103574 -0.049339287 0.69075006
-0.037457146 -0.049285721 0.69000006
-0.032857146 -0.049285717 0.69000006
-0.027600002 -0.049285717 0.69000006
-0.023657145 -0.049285717 0.69000006
-0.019057143 -0.049285717 0.69000006
-0.10258858 -0.043403339 0.69050002
-0.098790489 -0.043590479 0.69000006
-0.017948573 -0.060493339 0.69800001
-0.061822861 -0.055175241 0.69800001
-0.05118667 -0.055175241 0.69800001
-0.047505122 -0.055976555 0.69762498
-0.042628955 -0.057104386 0.6972
-0.037167747 -0.057078216 0.69687504
-0.03222343 -0.056890864 0.69620007
-0.027869763 -0.05706834 0.69674999
-0.022626668 -0.057624768 0.69690913
-0.017923495 -0.057752702 0.69700003
-0.092401914 -0.051186673 0.69800007
-0.087553054 -0.05221343 0.69749999
-0.082371198 -0.051814526 0.69749999
-0.077195719 -0.052294761 0.69725001
-0.072748095 -0.052367143 0.6960001
-0.067465283 -0.052274294 0.69636375
-0.062560111 -0.052834179 0.69633341
-0.057335787 -0.053168166 0.69657153
-0.052715715 -0.052717384 0.69625008
-0.047675002 -0.052971669 0.69525009
-0.04249429 -0.054408576 0.69500011
-0.03839048 -0.0549381 0.69500005
-0.026476193 -0.0549381 0.69500005
-0.022284128 -0.0549381 0.69500005
-0.01875397 -0.054496832 0.69500005
-0.10628134 -0.047370482 0.69660008
-0.10217108 -0.04810179 0.69662499
-0.096843824 -0.049088098 0.6965
-0.092269532 -0.049785718 0.69700003
-0.087371431 -0.049642861 0.69500005
-0.082076192 -0.049642861 0.69500005
-0.078766674 -0.049642861 0.69500005
-0.067000479 -0.060970005 0.70350003
-0.06300167 -0.060991671 0.70375001
-0.059001908 -0.061013337 0.70400006
-0.051626675 -0.061013337 0.70400012
-0.047268003 -0.061463054 0.70300001
-0.042752266 -0.06145465 0.70137507
-0.037392505 -0.061432745 0.70112503
-0.032091431 -0.061509531 0.70200002
-0.027411748 -0.061509848 0.70200008
-0.022720639 -0.062150165 0.70166671
-0.018484605 -0.062357627 0.70150006
-0.10392382 -0.055649526 0.70400006
-0.097460009 -0.055901904 0.70380002
-0.092188329 -0.056774646 0.70281821
-0.087257579 -0.056664128 0.70177782
-0.082408398 -0.056989353 0.70245469
-0.077769458 -0.057230815 0.70221442
-0.072257876 -0.057036348 0.70200014
-0.067478105 -0.05745874 0.70150012
-0.06281741 -0.057567373 0.70120007
-0.057558928 -0.057561189 0.70275003
-0.052335449 -0.05778021 0.70192868
-0.047373906 -0.058850862 0.70060003
-0.042888891 -0.059333336 0.70000005
-0.037333336 -0.059333336 0.70000005
-0.033012144 -0.059021194 0.70025003
-0.028009763 -0.059354529 0.70025003
-0.022000002 -0.059333336 0.70000005
-0.10695163 -0.051809341 0.70100003
-0.10280226 -0.052071098 0.70092857
-0.097663276 -0.052362315 0.70100003
-0.092689052 -0.053346194 0.7001667
-0.08866667 -0.054000005 0.70000005
-0.082666665 -0.054000005 0.70000005
-0.078666672 -0.054000005 0.70000005
-0.070666671 -0.054000005 0.70000005
-0.10866667 -0.048666671 0.70000005
-0.060685717 -0.065405719 0.708
-0.057314292 -0.065405719 0.70800006
-0.053942859 -0.065405719 0.708
-0.035737146 -0.065405719 0.708
-0.032068957 -0.066428766 0.70739996
-0.027598413 -0.066639476 0.70677769
-0.023038758 -0.066840075 0.70669234
-0.018364493 -0.066249661 0.70671439
-0.10586286 -0.060011432 0.708
-0.10220245 -0.061360009 0.70800006
-0.097366676 -0.06211824 0.70785719
-0.09315943 -0.061612386 0.70779997
-0.08731553 -0.061900824 0.70757145
-0.082402602 -0.062018648 0.70671427
-0.078050002 -0.061679214 0.70650005
-0.072830759 -0.061863683 0.70714289
-0.067334294 -0.062620327 0.70699996
-0.062279433 -0.063088581 0.70620006
-0.057539809 -0.062783815 0.7058
-0.052669212 -0.06298095 0.70600003
-0.047549337 -0.063716196 0.70719999
-0.042480003 -0.064057149 0.708
-0.037720241 -0.063989289 0.70725
-0.032228574 -0.063785717 0.70500004
-0.027528573 -0.063785717 0.7050001
-0.10561366 -0.057180639 0.70633334
-0.10200176 -0.057839848 0.70616663
-0.097594529 -0.058624528 0.70549995
-0.093270294 -0.059624195 0.70660001
-0.087186038 -0.059394285 0.70600003
-0.083257154 -0.059757147 0.70500004
-0.076542862 -0.059757147 0.70500004
-0.07229048 -0.059757151 0.7050001
-0.051000003 -0.070040002 0.71400005
-0.047373336 -0.070040002 0.71400011
-0.041706666 -0.070493333 0.71400011
-0.037391271 -0.072063342 0.71383345
-0.032605715 -0.072004534 0.71325004
-0.027134763 -0.071904287 0.71225005
-0.022191839 -0.072199188 0.71228576
-0.017868679 -0.072161369 0.71255565
-0.014260001 -0.071300007 0.71300006
-0.097920008 -0.065960005 0.71400005
-0.091800004 -0.065960005 0.71400011
-0.087040007 -0.065960005 0.71400005
-0.08228001 -0.065960005 0.71400011
-0.078200005 -0.065960005 0.71400011
-0.071400002 -0.065960005 0.71400011
-0.066683248 -0.066683248 0.713
-0.062674098 -0.067423061 0.71220011
-0.057319734 -0.067989126 0.71285719
-0.052331641 -0.067241915 0.71155554
-0.047433015 -0.067085885 0.71150011
-0.042436387 -0.067249537 0.71180004
-0.037767477 -0.067671657 0.71107703
-0.032955557 -0.069294617 0.71099997
-0.027723812 -0.069647625 0.71000004
-0.022314288 -0.069647625 0.71000004
-0.01759254 -0.069245562 0.7105
-0.10616191 -0.061533336 0.71000004
-0.10330059 -0.06322857 0.71080005
-0.097712867 -0.064464286 0.71250004
-0.092220955 -0.063968256 0.71200007
-0.088119768 -0.064058334 0.71175003
-0.082670957 -0.064373814 0.71149999
-0.077211052 -0.064184763 0.71240008
-0.072557621 -0.064080954 0.71200001
-0.068360016 -0.064298421 0.71066666
-0.064238101 -0.064238101 0.71000004
-0.042600002 -0.064238101 0.71000004
-0.047433656 -0.07639461 0.71833342
-0.042455241 -0.076008573 0.71900004
-0.038346671 -0.076008573 0.71900004
-0.032183811 -0.076008573 0.71900004
-0.02707633 -0.076535106 0.71842867
-0.022560796 -0.076570004 0.7178334
-0.017764168 -0.076520592 0.71737504
-0.01364762 -0.076427147 0.71650004
-0.097236201 -0.070530482 0.71900004
-0.093812384 -0.070530482 0.71900004
-0.077104203 -0.071078293 0.71900004
-0.072559282 -0.071190722 0.71875
-0.067514978 -0.071424626 0.71814293
-0.062804289 -0.072070412 0.71678567
-0.057393577 -0.071743429 0.7174167
-0.052580215 -0.07215672 0.71700001
-0.047821909 -0.072809756 0.71653855
-0.042574476 -0.073278107 0.71640009
-0.037521593 -0.074362233 0.71633339
-0.032754287 -0.074379534 0.71650004
-0.027286429 -0.074353576 0.71625006
-0.023184763 -0.074327625 0.71600002
-0.017047621 -0.074327633 0.71600002
-0.013865398 -0.073873028 0.71600002
-0.10170545 -0.067966402 0.71671432
-0.097602867 -0.068254292 0.7166667
-0.093066789 -0.068037786 0.71677786
-0.087466672 -0.068334773 0.71750003
-0.082246035 -0.068350486 0.71766675
-0.077279292 -0.067897394 0.71650004
-0.072565615 -0.06801641 0.7165556
-0.068238102 -0.068238579 0.71650004
-0.026854288 -0.08056286 0.72300005
-0.022722861 -0.08056286 0.72300005
-0.017765144 -0.080838285 0.72300005
-0.014460001 -0.08056286 0.72300005
-0.08056286 -0.075054288 0.72300005
-0.077119999 -0.075054288 0.72300005
-0.072300002 -0.075054288 0.72300005
-0.067480005 -0.076087147 0.72300005
-0.062558576 -0.076996036 0.72183341
-0.057809886 -0.077080354 0.72262508
-0.052595112 -0.077173069 0.72257155
-0.048820954 -0.077700958 0.72200006
-0.04254524 -0.077539526 0.72050005
-0.03698229 -0.077404387 0.72180009
-0.032462046 -0.077579603 0.72085726
-0.027900955 -0.078758098 0.72160006
-0.022691432 -0.079076193 0.72200006
-0.017866192 -0.079021432 0.72150004
-0.013714286 -0.078857146 0.72000003
-0.097544767 -0.072789945 0.72200006
-0.091864966 -0.072201334 0.72200006
-0.08740826 -0.072267309 0.72266674
-0.082525007 -0.072209448 0.72208345
-0.077936195 -0.073130488 0.72100008
-0.072685719 -0.073371433 0.72000003
-0.067411818 -0.074277334 0.7208001
-0.061028574 -0.074742861 0.72000003
-0.057600003 -0.074742861 0.72000003
-0.053485718 -0.074742861 0.72000003
-0.082971431 -0.069257148 0.72000003
-0.047905717 -0.085397147 0.72900003
-0.0270654 -0.085358106 0.72866672
-0.021902179 -0.085925318 0.72842866
-0.017624954 -0.085905723 0.72860008
-0.014580001 -0.085397147 0.72900003
-0.071511433 -0.081231438 0.72900003
-0.067345716 -0.081578583 0.72900003
-0.062475361 -0.081911787 0.72887504
-0.057586201 -0.081870012 0.72850007
-0.052415621 -0.082230479 0.72800004
-0.047173418 -0.082554854 0.72841668
-0.042338524 -0.082595252 0.72877783
-0.037470862 -0.082297727 0.72860008
-0.032566983 -0.082458414 0.72755557
-0.027884552 -0.082729205 0.72588891
-0.022110479 -0.08291477 0.72549999
-0.017266287 -0.083018295 0.7252
-0.013491429 -0.08303 0.72650003
-0.10034921 -0.076821595 0.72666669
-0.097334579 -0.07698486 0.72689998
-0.092556037 -0.07670147 0.72672731
-0.087330103 -0.077645145 0.72660005
-0.082813598 -0.077283211 0.72627276
-0.077617787 -0.07831271 0.72766674
-0.072432674 -0.078390963 0.72710007
-0.067782618 -0.078505717 0.72624999
-0.062272862 -0.079569057 0.72650003
-0.057388574 -0.079514287 0.72600001
-0.052495003 -0.079432145 0.72525007
-0.047686674 -0.07947778 0.7256667
-0.042897619 -0.079569049 0.72650003
-0.037337147 -0.079514287 0.72600001
-0.033833336 -0.079404764 0.72500002
-0.098738104 -0.073880956 0.72500002
-0.093214288 -0.073880956 0.72500002
-0.025864763 -0.090177149 0.73400003
-0.022369524 -0.091225721 0.73400003
-0.017476192 -0.091109209 0.73400009
-0.014680001 -0.090177149 0.73400003
-0.076895237 -0.085982859 0.73400003
-0.072601914 -0.085865721 0.73300004
-0.067108579 -0.085982859 0.73400003
-0.062480006 -0.086215243 0.73300004
-0.057499189 -0.086596616 0.73242867
-0.052464236 -0.08687418 0.73233342
-0.047365893 -0.087314807 0.7323637
-0.04254508 -0.087184452 0.73233336
-0.037662856 -0.087184459 0.73233336
-0.032531239 -0.087403238 0.73300004
-0.027890597 -0.087507509 0.73212498
-0.022293333 -0.088825479 0.73149997
-0.017416667 -0.088709377 0.73150003
-0.013041907 -0.08691103 0.73171431
-0.10108572 -0.080868579 0.73200005
-0.097622074 -0.081511438 0.73263639
-0.092503726 -0.081762962 0.73250002
-0.087710366 -0.08248084 0.73237503
-0.081972107 -0.082253054 0.73189998
-0.077324338 -0.082897678 0.73144442
-0.072647199 -0.083323605 0.73111111
-0.067585908 -0.083751246 0.73159999
-0.06270048 -0.084296674 0.73150003
-0.057783812 -0.084239051 0.73100007
-0.05430286 -0.084239051 0.73100001
-0.037594289 -0.084239051 0.73100001
-0.030967621 -0.095014289 0.73900002
-0.028152384 -0.095014289 0.73900002
-0.018299049 -0.096421912 0.73900002
-0.011964763 -0.095718101 0.73900002
-0.0091495244 -0.095014289 0.73900002
-0.071084768 -0.090791434 0.73900002
-0.066158101 -0.090791434 0.73900002
-0.062990956 -0.09114334 0.73900002
-0.057322044 -0.091253765 0.73785716
-0.052643817 -0.091248259 0.73699999
-0.047549352 -0.091846325 0.73718184
-0.042692069 -0.091864347 0.73755562
-0.037615921 -0.091184095 0.73728579
-0.032088406 -0.091800272 0.73681825
-0.027357779 -0.092362441 0.73655558
-0.022681376 -0.093765192 0.73655564
-0.017323539 -0.093627222 0.73600012
-0.012688062 -0.092499353 0.737077
-0.0091247624 -0.093353339 0.73700005
-0.10107429 -0.086334288 0.73700005
-0.097389154 -0.086991049 0.73780006
-0.092266038 -0.086881593 0.73766673
-0.087471992 -0.087272532 0.73814291
-0.082459532 -0.087658584 0.73750001
-0.077762865 -0.08812049 0.73725003
-0.072313182 -0.088461116 0.73716676
-0.067371793 -0.088425606 0.73687506
-0.062137909 -0.088508569 0.73640007
-0.057498336 -0.089051202 0.73625004
-0.053973336 -0.08902096 0.73600006
-0.011230476 -0.088440008 0.73700005
-0.0091247624 -0.089141913 0.73700005
-0.1011708 -0.084347948 0.73600006
-0.097782865 -0.084464766 0.73600006
-0.092525721 -0.084815241 0.73600006
-0.086918101 -0.084815241 0.73600006
-0.083413348 -0.084815249 0.73600006
-0.070054293 -0.09552858 0.74300003
-0.067223817 -0.095528588 0.74300003
-0.062270481 -0.09552858 0.74300003
-0.057317149 -0.095528588 0.74300003
-0.052311666 -0.095432147 0.74225008
-0.047038861 -0.095914677 0.74160004
-0.042385004 -0.096075475 0.74175
-0.037486989 -0.096900955 0.74266672
-0.032788575 -0.097097524 0.74200004
-0.027597144 -0.096943818 0.74300003
-0.022162542 -0.09737207 0.74266672
-0.017657619 -0.097455725 0.74150002
-0.013427144 -0.097520962 0.74200004
-0.0070761908 -0.098359056 0.74300003
-0.10118953 -0.091282859 0.74300003
-0.097401276 -0.092212707 0.74288893
-0.092635721 -0.091929063 0.74250001
-0.087344758 -0.092291825 0.74200004
-0.082642861 -0.092533663 0.74166667
-0.07778728 -0.092435084 0.74190903
-0.072628789 -0.092889108 0.74200004
-0.06784752 -0.09263441 0.7412222
-0.062130801 -0.093432389 0.74133337
-0.057828099 -0.093444288 0.74050003
-0.052189048 -0.09379667 0.74050003
-0.040876195 -0.093733341 0.74000001
-0.037352383 -0.093733341 0.74000001
-0.034533337 -0.093733341 0.74000001
-0.10091715 -0.088920951 0.74100006
-0.097432397 -0.08919619 0.74133343
-0.09273953 -0.089212865 0.74050003
-0.087450951 -0.089565247 0.74050003
-0.075409532 -0.089504771 0.74000001
-0.034431752 -0.1066197 0.74800003
-0.028495241 -0.10685715 0.74800003
-0.050579052 -0.10044572 0.74800003
-0.04172343 -0.10096192 0.74760002
-0.037697628 -0.10242494 0.74683344
-0.03272244 -0.10243958 0.74693751
-0.028125122 -0.10182013 0.74762505
-0.022773134 -0.10227314 0.74721444
-0.017628692 -0.1016756 0.74787509
-0.013241238 -0.10194524 0.74750012
-0.0079957144 -0.10145334 0.74624997
-0.096754767 -0.096755251 0.74700004
-0.092547625 -0.096107148 0.7475
-0.087418824 -0.096302621 0.74625003
-0.082469054 -0.095978573 0.74650007
-0.077580325 -0.09608572 0.74733341
-0.072343819 -0.096509911 0.74620008
-0.067676201 -0.097596198 0.74800003
-0.06220112 -0.098049372 0.74783337
-0.057676833 -0.098265097 0.74766672
-0.052583933 -0.098063216 0.74612504
-0.04797405 -0.09843453 0.74625009
-0.042571433 -0.09862382 0.74500006
-0.027671432 -0.098623827 0.74500006
-0.024157144 -0.098756194 0.74600005
-0.017028574 -0.09862382 0.74500006
-0.011390001 -0.098954767 0.74750006
-0.00816881 -0.09765882 0.74575007
-0.097914293 -0.09436667 0.74500006
-0.092238098 -0.09436667 0.74500006
-0.088690482 -0.09436667 0.74500006
-0.077338099 -0.09436667 0.74500006
-0.037169047 -0.1107881 0.75050002
-0.065260008 -0.10542001 0.75300002
-0.062750004 -0.10577857 0.75300002
-0.058805719 -0.10542001 0.75300002
-0.045508575 -0.10678286 0.75250006
-0.042089339 -0.10694172 0.75160009
-0.038076192 -0.10749063 0.7502858
-0.032142859 -0.10785715 0.75000012
-0.025714288 -0.10642858 0.75000006
-0.095380008 -0.10398572 0.75300002
-0.08677429 -0.10111715 0.75300002
-0.08247143 -0.10111716 0.75300002
-0.077451438 -0.10111715 0.75300002
-0.072431438 -0.10111716 0.75300002
-0.067183293 -0.10237223 0.75263631
-0.062280528 -0.10237154 0.75166672
-0.057269212 -0.10237144 0.75166672
-0.052282188 -0.10241607 0.75200003
