# .PCD v0.7 - Point Cloud Data file format
VERSION 0.7
FIELDS x y z
SIZE 4 4 4
TYPE F F F
COUNT 1 1 1
WIDTH 1326
HEIGHT 1
VIEWPOINT 0 0 0 1 0 0 0
POINTS 1326
DATA ascii
-0.15242541 -0.0185418 0.65622228
-0.14738692 -0.018736191 0.65575004
-0.14232981 -0.018225024 0.65572739
-0.13742456 -0.0185418 0.65622222
-0.13255048 -0.018757619 0.65650004
-0.12735429 -0.018729048 0.65550005
-0.1222156 -0.018222164 0.65563649
-0.11733804 -0.017930988 0.65615392
-0.11237869 -0.017937509 0.65638471
-0.10766125 -0.017766397 0.65614295
-0.10246095 -0.018119365 0.65600008
-0.097445123 -0.018739881 0.65587503
-0.092274979 -0.018811841 0.65528572
-0.087554768 -0.018138096 0.65666676
-0.082563221 -0.017515836 0.65675002
-0.077500015 -0.017501665 0.65625
-0.072500013 -0.017501667 0.65624994
-0.067589648 -0.017524047 0.65712494
-0.063164376 -0.017331351 0.65775001
-0.076479055 -0.012101905 0.65500003
-0.072409235 -0.012484107 0.65543753
-0.06801372 -0.013277716 0.65760005
-0.064546674 -0.014413334 0.65800005
-0.086085722 -0.0056142863 0.65500003
-0.08167202 -0.0067134527 0.65587503
-0.077634476 -0.0076241912 0.65633339
-0.072990961 -0.0082623828 0.65730006
-0.069560006 -0.0094000008 0.65800005
-0.091457143 -0.00093619054 0.65549999
-0.087585725 -0.0026440297 0.65653855
-0.0834442 -0.0038780959 0.65679997
-0.10105715 0.004366667 0.65500003
-0.096249722 0.0036203812 0.65540004
-0.092872806 0.0023251704 0.65700001
-0.089613341 0.0006266667 0.65800005
-0.10636318 0.0085346047 0.65566671
-0.10240821 0.0076292707 0.65646672
-0.097889595 0.0073321778 0.65707147
-0.092836194 0.0061771437 0.65800011
-0.089613341 0.0056400006 0.65800005
-0.12039524 0.01434762 0.65500003
-0.11710761 0.013520742 0.65522224
-0.11231687 0.012917878 0.65546161
-0.10786917 0.012264032 0.65646166
-0.10277334 0.010653334 0.65800005
-0.098386675 0.010653335 0.65800011
-0.12538572 0.019338097 0.65500003
-0.12210148 0.017828206 0.65592313
-0.11761168 0.017517738 0.65687501
-0.11265013 0.017524647 0.657125
-0.1090819 0.017271023 0.65771431
-0.13167405 0.024025954 0.65525001
-0.1269142 0.022801671 0.65591675
-0.12278904 0.022405401 0.6571334
-0.11927556 0.021097779 0.65800011
-0.14542159 0.028085716 0.6553334
-0.14235501 0.028096907 0.65558344
-0.13755143 0.028136987 0.6565001
-0.13296358 0.026437381 0.65700001
-0.12779072 0.025683573 0.65775007
-0.12345334 0.025693335 0.65800011
-0.14245594 0.031210478 0.65728581
-0.13875358 0.031008335 0.65775007
-0.152932 -0.026141146 0.66300005
-0.14753143 -0.025849525 0.66200006
-0.14232402 -0.026141146 0.66300005
-0.13765143 -0.025888573 0.66300005
-0.13386285 -0.025888573 0.66300005
-0.12944287 -0.025888573 0.66300005
-0.12060287 -0.025888573 0.66300005
-0.1168143 -0.025888573 0.66300005
-0.11239429 -0.025888573 0.66300005
-0.10734287 -0.025888573 0.66300005
-0.10216516 -0.026141146 0.66300005
-0.09745048 -0.025888573 0.66300005
-0.094082862 -0.025888573 0.66300005
-0.1563358 -0.022437554 0.6622858
-0.15280902 -0.023303032 0.66127282
-0.14722465 -0.02390893 0.66062498
-0.14230825 -0.02329921 0.66116679
-0.1373653 -0.023097441 0.66092312
-0.13226588 -0.023305558 0.66133344
-0.12726367 -0.023127403 0.66176933
-0.12241487 -0.023127401 0.66176933
-0.11700048 -0.022951908 0.6615001
-0.11226007 -0.022806734 0.66146678
-0.10742067 -0.023016999 0.66138476
-0.1026117 -0.023293769 0.66100007
-0.097426333 -0.023211364 0.66121429
-0.092327975 -0.02234048 0.66207147
-0.086920597 -0.022374362 0.66246158
-0.08220347 -0.022514807 0.66163647
-0.077502601 -0.022365285 0.66063637
-0.072630882 -0.022043414 0.66125005
-0.067396395 -0.022579493 0.66220009
-0.063138217 -0.021654183 0.66222233
-0.058058217 -0.021456787 0.66262507
-0.053015716 -0.021838002 0.66270012
-0.049882859 -0.021468572 0.66300005
-0.061285719 -0.018228572 0.66000003
-0.057887331 -0.017618515 0.66068751
-0.053122994 -0.017791431 0.6624667
-0.049882859 -0.019574286 0.66300005
-0.067273811 -0.011316984 0.66016674
-0.062813282 -0.012460888 0.66086674
-0.058332868 -0.01313746 0.66216677
-0.05430286 -0.014522858 0.66300005
-0.076057151 -0.0056571434 0.66000003
-0.072303653 -0.0062871436 0.66016674
-0.067749292 -0.0074041672 0.66175008
-0.063398212 -0.0086736903 0.66237509
-0.086742863 -0.00062857149 0.66000003
-0.082466677 -0.0017826984 0.66100001
-0.077626675 -0.0024807847 0.66141182
-0.072649345 -0.0026456513 0.66180009
-0.068780683 -0.0035153744 0.66257155
-0.091142863 0.003771429 0.66000003
-0.087390378 0.0026185471 0.66115797
-0.082439236 0.0017676194 0.66280007
-0.077034295 0.00063142861 0.66300005
-0.073245719 0.00063142861 0.66300005
-0.095687151 0.0088138096 0.66100001
-0.091908686 0.008448096 0.6619001
-0.087527744 0.0064663095 0.66237509
-0.083980009 0.0056828577 0.66300005
-0.10616877 0.013728002 0.66119999
-0.10244223 0.012812509 0.66153347
-0.096947946 0.012127832 0.66244447
-0.093100242 0.011045953 0.66275007
-0.10665562 0.017784104 0.66146153
-0.1023616 0.016627619 0.66300005
-0.12084129 0.024168259 0.66200006
-0.11723533 0.02253788 0.66153854
-0.11195779 0.0216363 0.66166675
-0.10816135 0.021329716 0.66260004
-0.13514286 0.02954286 0.66000003
-0.13201381 0.028568098 0.66070002
-0.12735525 0.02837207 0.66200006
-0.12439144 0.02715143 0.66300005
-0.14171462 0.034012072 0.66133344
-0.13712989 0.033024289 0.66135716
-0.13266574 0.0325366 0.66242868
-0.12876263 0.031559762 0.66275007
-0.14207146 0.03599143 0.66300005
-0.13765143 0.03599143 0.66300005
-0.1561 -0.031220002 0.66900003
-0.15355144 -0.031220002 0.66900003
-0.14654286 -0.031220002 0.66900003
-0.14272001 -0.031220002 0.66900003
-0.13783525 -0.031220002 0.66900003
-0.13252573 -0.031220002 0.66900003
-0.12870286 -0.031220002 0.66900003
-0.12105715 -0.031220002 0.66900003
-0.071997151 -0.031220002 0.66900003
-0.068174295 -0.031220002 0.66900003
-0.16139525 -0.027696192 0.66850007
-0.1574721 -0.027941093 0.66671431
-0.15217958 -0.028683469 0.66654545
-0.14722858 -0.02855905 0.66633338
-0.14233354 -0.028797526 0.66600001
-0.13742796 -0.028544134 0.66600001
-0.13229321 -0.028181912 0.66600001
-0.12741025 -0.028057843 0.66646671
-0.1227671 -0.02802 0.66642869
-0.1178403 -0.028376706 0.66661549
-0.11258624 -0.028131008 0.66622227
-0.10775749 -0.028457062 0.66663647
-0.10303848 -0.028552383 0.66619998
-0.097689845 -0.0277218 0.66655558
-0.092172064 -0.027153231 0.66644448
-0.087872595 -0.027689731 0.66721433
-0.082765646 -0.027525349 0.66730767
-0.077572025 -0.027979169 0.66762507
-0.07244429 -0.027963098 0.66724998
-0.067303643 -0.027939469 0.66668743
-0.062525906 -0.027070863 0.66720003
-0.057277862 -0.026730714 0.66825002
-0.051994633 -0.027241908 0.66800004
-0.047312491 -0.026945928 0.66833335
-0.042688575 -0.026851021 0.66900009
-0.15854447 -0.02427778 0.66500008
-0.092255563 -0.023855558 0.66500008
-0.088033341 -0.02427778 0.66500008
-0.0836 -0.024700001 0.66500002
-0.077266671 -0.024700001 0.66500002
-0.072200008 -0.024700001 0.66500002
-0.06903334 -0.024700001 0.66500002
-0.061834835 -0.02417306 0.66542858
-0.057085481 -0.024103571 0.66600001
-0.051523976 -0.024283972 0.66516668
-0.046931729 -0.022833155 0.66593748
-0.041932736 -0.022873811 0.66712493
-0.037696712 -0.023104506 0.6688183
-0.050368816 -0.016789287 0.66525006
-0.046966963 -0.017770298 0.66643757
-0.042340666 -0.018158387 0.66815388
-0.038170479 -0.019721907 0.66800004
-0.056414291 -0.011500002 0.66557145
-0.05210457 -0.012707145 0.66721433
-0.048227385 -0.013209763 0.66850007
-0.043962859 -0.014654287 0.66900003
-0.065233335 -0.0057000006 0.66500002
-0.061515529 -0.0069749528 0.66589999
-0.057382349 -0.0080711348 0.66776925
-0.053732388 -0.0091323815 0.66900003
-0.070300005 -0.0006333334 0.66500002
-0.066634804 -0.0021341995 0.66636366
-0.063010193 -0.0031814289 0.66830009
-0.059254289 -0.0044600004 0.66900003
-0.081740648 0.0038022222 0.66533333
-0.077353418 0.0031713499 0.66575003
-0.072416998 0.0025433337 0.66700006
-0.067421794 0.0012727381 0.66787505
-0.086957142 0.0087116677 0.66525
-0.082461216 0.0077531431 0.66706669
-0.078091674 0.0065216674 0.66800004
-0.09749411 0.014326477 0.6656
-0.092230558 0.013206906 0.66558331
-0.088369094 0.012312296 0.6675455
-0.10261824 0.019111296 0.66571438
-0.097825132 0.017788215 0.66700006
-0.09314537 0.017078355 0.66863644
-0.088562861 0.015928572 0.66900003
-0.11662048 0.024718571 0.66550004
-0.11310164 0.024178369 0.66557145
-0.10748365 0.023392729 0.66709095
-0.10308505 0.021707894 0.66757149
-0.098757148 0.021662857 0.66900003
-0.12218948 0.028308392 0.66606253
-0.11736002 0.027997339 0.66706681
-0.11268321 0.027536532 0.66792864
-0.10942382 0.026083812 0.66800004
-0.13173334 0.034833334 0.66500002
-0.12724076 0.033509459 0.66564292
-0.12245736 0.032317758 0.66721433
-0.11723429 0.031857144 0.66900009
-0.11404858 0.031857144 0.66900003
-0.14243048 0.03865334 0.66533333
-0.13789563 0.038276773 0.66539997
-0.1324254 0.037345514 0.66621429
-0.12737629 0.037410736 0.66781825
-0.12333144 0.035874289 0.66866678
-0.14546953 0.04383143 0.66700006
-0.14234221 0.042395532 0.66746157
-0.13726994 0.041944221 0.66728568
-0.13333735 0.040625717 0.66860008
-0.14546953 0.046372384 0.66700006
-0.14324906 0.045521904 0.66850007
-0.13826001 0.045237146 0.66900003
-0.15778022 -0.035561528 0.67400002
-0.15265858 -0.035278574 0.6735
-0.14828001 -0.035304762 0.67400002
-0.14250287 -0.035304762 0.67400002
-0.16227259 -0.032660957 0.6724
-0.15748468 -0.032853048 0.67110002
-0.15209694 -0.033035133 0.67133343
-0.14785939 -0.032899156 0.67144448
-0.14250667 -0.03323143 0.671
-0.1375526 -0.033057567 0.67177784
-0.13237906 -0.033256669 0.67150003
-0.12750886 -0.032403268 0.67085719
-0.12309255 -0.032157939 0.67083335
-0.11737069 -0.03216688 0.67100006
-0.11283058 -0.032529958 0.67209101
-0.10721747 -0.032188047 0.67144448
-0.10230441 -0.031970832 0.67137504
-0.09741307 -0.031557009 0.6722858
-0.092545919 -0.031104002 0.67200005
-0.087103352 -0.03202524 0.67250001
-0.082855254 -0.03188245 0.67142862
-0.077934295 -0.031941194 0.67075002
-0.072992072 -0.032133654 0.67033339
-0.067081749 -0.032584604 0.67083335
-0.062703982 -0.031848576 0.6724546
-0.057783119 -0.031249437 0.67209089
-0.052518763 -0.031385049 0.67249995
-0.047197755 -0.031253852 0.67218179
-0.041989245 -0.03162162 0.67210001
-0.037655238 -0.030926671 0.67299998
-0.031780139 -0.030681364 0.67314285
-0.028885717 -0.031453334 0.67400002
-0.16143811 -0.029990477 0.67000002
-0.11294287 -0.029990477 0.67000002
-0.10081905 -0.029990477 0.67000002
-0.096990481 -0.029671431 0.67000002
-0.092570484 -0.029579367 0.67033339
-0.086780958 -0.029990477 0.67000002
-0.082314298 -0.029990477 0.67000002
-0.062533341 -0.029352382 0.67000002
-0.057428572 -0.028714288 0.67000002
-0.052323811 -0.029352382 0.67000002
-0.046580955 -0.02871429 0.67000002
-0.041849393 -0.028720411 0.67014289
-0.037045553 -0.027466033 0.67066669
-0.031998098 -0.027520955 0.67200005
-0.027485875 -0.026847145 0.67116666
-0.023916192 -0.026478734 0.67266673
-0.035392385 -0.022616003 0.67080003
-0.031962618 -0.02301429 0.67124999
-0.027178982 -0.022877483 0.67264289
-0.024220193 -0.023193907 0.6728
-0.040645402 -0.016385715 0.67033339
-0.036908776 -0.017631225 0.67150003
-0.032692861 -0.01858905 0.67310005
-0.028243812 -0.01989905 0.67400002
-0.050409526 -0.01084762 0.67000002
-0.046153575 -0.012296429 0.67075002
-0.042069718 -0.012658669 0.67133337
-0.037683338 -0.013950477 0.67349994
-0.056790482 -0.0057428582 0.67000002
-0.052103814 -0.0073295985 0.67161548
-0.047388338 -0.0083230957 0.67241669
-0.042822439 -0.0086205285 0.67333341
-0.061500322 -0.0014892066 0.67033339
-0.05738534 -0.0024268574 0.67100006
-0.053072914 -0.0033474073 0.67322224
-0.071466669 0.0044666668 0.67000002
-0.067750841 0.0038355952 0.67112505
-0.062963821 0.002029524 0.67233336
-0.058821339 0.0014102858 0.67280006
-0.07751286 0.0087907147 0.67124999
-0.072972268 0.0076839305 0.67212498
-0.068187937 0.0066273012 0.67333341
-0.086233623 0.013779457 0.67071432
-0.082259789 0.01265704 0.67188889
-0.07727021 0.0126498 0.67371422
-0.072535239 0.010912383 0.67400002
-0.095076196 0.019780954 0.67000002
-0.091324635 0.019067759 0.67057151
-0.087199122 0.017781969 0.67159998
-0.082438931 0.016597824 0.67400008
-0.07831239 0.016047619 0.67400002
-0.10592382 0.024885716 0.67000002
-0.10195715 0.023529785 0.671
-0.096922196 0.023063885 0.67123079
-0.092204295 0.022412067 0.67233336
-0.08870858 0.021589844 0.67333335
-0.11166668 0.029990477 0.67000002
-0.10719931 0.027599484 0.6710909
-0.10241263 0.02752389 0.67208332
-0.097970381 0.027004026 0.67333329
-0.093076199 0.02503429 0.67400002
-0.11754025 0.033856906 0.67075002
-0.11215486 0.032740004 0.67140001
-0.10775365 0.031583663 0.6725384
-0.10314739 0.030960716 0.67375004
-0.099495247 0.030169526 0.67400002
-0.12570477 0.038923811 0.67000002
-0.12180763 0.037815936 0.67090911
-0.11795643 0.036724478 0.67284614
-0.11337144 0.03608048 0.67349994
-0.1359143 0.044028573 0.67000002
-0.13238893 0.042775761 0.67036372
-0.12748297 0.0423389 0.67194736
-0.12268165 0.04077252 0.6734286
-0.14571239 0.048784766 0.67400002
-0.14223386 0.047802001 0.67245454
-0.13745397 0.047491916 0.67233336
-0.13245168 0.046403382 0.67245454
-0.12773907 0.045575242 0.67400002
-0.14651477 0.052796669 0.67400002
-0.14288801 0.051224004 0.67400002
-0.13929334 0.050710481 0.67400002
-0.14581619 0.057043813 0.67299998
-0.14442858 0.057771433 0.67400002
-0.16296001 -0.040740002 0.67900002
-0.15778667 -0.040740002 0.67900002
-0.15261334 -0.040740002 0.67900002
-0.14808668 -0.040740006 0.67900008
-0.16711748 -0.03742604 0.67750013
-0.16240078 -0.037479367 0.67613345
-0.15731068 -0.03826667 0.67640007
-0.15244254 -0.038005397 0.67633343
-0.14733496 -0.037840445 0.6769231
-0.14267108 -0.037568945 0.67738461
-0.13748819 -0.037207484 0.67685717
-0.1328398 -0.03694411 0.67684633
-0.1279618 -0.036346987 0.67744446
-0.12265573 -0.036798254 0.67783344
-0.1174916 -0.036798257 0.67783344
-0.11222994 -0.036766753 0.67725009
-0.10725411 -0.037560638 0.67760009
-0.10294382 -0.036703989 0.67827272
-0.096813142 -0.036063049 0.67860001
-0.092881113 -0.035989054 0.67883337
-0.087894864 -0.03658038 0.67860001
-0.082486384 -0.03653267 0.67770004
-0.077766292 -0.036559053 0.67820001
-0.072211519 -0.036723375 0.67863637
-0.066896759 -0.036548574 0.67799997
-0.062120143 -0.036091026 0.67842859
-0.057510953 -0.03618715 0.67850006
-0.052880127 -0.036114883 0.6771251
-0.04781124 -0.036569912 0.67839998
-0.042790577 -0.036585625 0.67869997
-0.037496988 -0.035989054 0.67883337
-0.032603268 -0.036113471 0.67885715
-0.16585717 -0.034071431 0.67500001
-0.12670541 -0.034088258 0.67533338
-0.12218834 -0.034084052 0.67524999
-0.11828572 -0.034071431 0.67500001
-0.1112143 -0.034071431 0.67500001
-0.10864287 -0.034071431 0.67500007
-0.10285715 -0.034071431 0.67500001
-0.09743017 -0.033693336 0.67600006
-0.09279418 -0.033510357 0.67662501
-0.088125147 -0.033935431 0.67740005
-0.082410008 -0.034121908 0.676
-0.077199057 -0.034096669 0.67550004
-0.072106674 -0.034121908 0.67600006
-0.068193808 -0.034096669 0.67550004
-0.062012151 -0.034235477 0.67825001
-0.056997858 -0.0338131 0.67625004
-0.053131241 -0.033834483 0.67540002
-0.047985338 -0.03383448 0.67540002
-0.042476431 -0.034109287 0.67575002
-0.036878452 -0.033337023 0.67637503
-0.032685477 -0.033170238 0.67625004
-0.028928574 -0.032785717 0.67500001
-0.020677621 -0.030370954 0.67850006
-0.017442225 -0.031440001 0.6783334
-0.012926071 -0.031022975 0.67862499
-0.0088377781 -0.030824449 0.67900008
-0.021380322 -0.02710286 0.67577779
-0.017797418 -0.027114291 0.67785722
-0.012933334 -0.028453335 0.67900002
-0.021259716 -0.021903526 0.67650002
-0.018088693 -0.02293488 0.67837501
-0.03107143 -0.016928572 0.67500007
-0.026866263 -0.01775633 0.6762858
-0.023313064 -0.018335102 0.67728579
-0.036850359 -0.011746786 0.67587507
-0.032245539 -0.012896489 0.67718756
-0.028230637 -0.014007462 0.67883337
-0.047675718 -0.0057985722 0.67650008
-0.042136036 -0.0066623813 0.6771667
-0.037626497 -0.0085106492 0.67799997
-0.033303335 -0.0093766674 0.67900002
-0.052191298 -0.0015638096 0.67657149
-0.047777563 -0.0025814883 0.67793757
-0.043303125 -0.0029961045 0.67863637
-0.062402859 0.0041819052 0.67550004
-0.057461999 0.0031061475 0.67654556
-0.052981965 0.0025856553 0.67843759
-0.048284449 0.0010777778 0.67900002
-0.043973334 0.00064666668 0.67900002
-0.070071436 0.0096428581 0.67500001
-0.066941552 0.0090117864 0.67587507
-0.062299006 0.007601642 0.67750007
-0.057683222 0.0069484529 0.67862499
-0.05496667 0.0064666672 0.67900002
-0.075214289 0.014142858 0.67500001
-0.071940675 0.013320295 0.67584622
-0.067248292 0.012458536 0.67746156
-0.063588902 0.011424446 0.67900008
-0.085500002 0.019928573 0.67500001
-0.082125187 0.01908434 0.67544448
-0.077089921 0.017662097 0.67680001
-0.072672799 0.016714152 0.67871433
-0.069193341 0.016166668 0.67900002
-0.087056518 0.022820532 0.67600006
-0.082640089 0.022598177 0.67791671
-0.07820826 0.021186456 0.67866665
-0.096428573 0.028285718 0.67500001
-0.092717007 0.027534144 0.67715389
-0.088334285 0.026506582 0.67881817
-0.084066674 0.025220001 0.67900002
-0.10740954 0.034088258 0.67533338
-0.10227186 0.033424236 0.67633337
-0.097366042 0.03188362 0.67766672
-0.093335569 0.030824449 0.67900008
-0.11635715 0.039214291 0.67500007
-0.11209694 0.038179055 0.67688894
-0.10743663 0.036440264 0.67772728
-0.10260107 0.036355123 0.67862499
-0.12213752 0.043419812 0.67640013
-0.1174221 0.042584341 0.67743754
-0.11394493 0.042218577 0.67850006
-0.14464286 0.049500003 0.67500001
-0.13628572 0.049500003 0.67500001
-0.13229191 0.049180798 0.67650002
-0.12812635 0.0478254 0.67755562
-0.12290709 0.046448033 0.67871433
-0.11859868 0.04643067 0.67900002
-0.14242446 0.053518102 0.67566675
-0.13727547 0.053022914 0.67747062
-0.13300554 0.052349906 0.67860001
-0.12998001 0.051086672 0.67900002
-0.1425065 0.057086587 0.67763638
-0.1382843 0.056218576 0.67850006
-0.14528573 0.060051434 0.67800003
-0.14345382 0.06009572 0.67850006
-0.1661143 -0.046251431 0.68400002
-0.16481143 -0.046251431 0.68400002
-0.15829715 -0.046251431 0.68400002
-0.17067429 -0.04234286 0.68400002
-0.16707432 -0.04267152 0.68163639
-0.1625143 -0.043626323 0.68181825
-0.15757583 -0.043459196 0.68261546
-0.15228748 -0.043672904 0.68254548
-0.14717379 -0.043330699 0.68215388
-0.14250095 -0.04285321 0.68240011
-0.13766356 -0.042770103 0.68246675
-0.13292444 -0.042667147 0.68321437
-0.1274254 -0.042823501 0.68333328
-0.12238414 -0.042790733 0.68280005
-0.11727845 -0.04240606 0.68309098
-0.11280276 -0.041986246 0.68288893
-0.10780156 -0.041563217 0.68187499
-0.10269715 -0.040950004 0.68250006
-0.097192071 -0.04204667 0.68388891
-0.092435718 -0.042312704 0.68350005
-0.087462008 -0.042039912 0.68330008
-0.082020007 -0.041661434 0.68350005
-0.077463344 -0.041661434 0.68350005
-0.072906666 -0.041661434 0.68350005
-0.067338482 -0.041288573 0.68380004
-0.062211432 -0.041365717 0.68400002
-0.059280004 -0.041040003 0.68400002
-0.051462859 -0.041040003 0.68400002
-0.047473177 -0.041621115 0.68283337
-0.043406665 -0.041454289 0.68366671
-0.039737146 -0.041040003 0.68400002
-0.030617144 -0.04169143 0.68400002
-0.027354646 -0.041683935 0.68387502
-0.023668572 -0.04147429 0.68400002
-0.14053334 -0.039504763 0.68000001
-0.13794287 -0.039504763 0.68000001
-0.13172318 -0.039582223 0.68133342
-0.12776858 -0.038915243 0.68099999
-0.12304763 -0.039504763 0.68000001
-0.11786667 -0.039504763 0.68000001
-0.11277001 -0.039533813 0.68050003
-0.1014173 -0.038708419 0.68116677
-0.097687624 -0.038583245 0.68200004
-0.092154935 -0.038692493 0.68088895
-0.086752005 -0.039292194 0.68080002
-0.082861722 -0.039033145 0.68080008
-0.077395879 -0.039131116 0.68099999
-0.072921909 -0.039245721 0.68000001
-0.067966193 -0.039179526 0.68183339
-0.062261172 -0.038743708 0.68177783
-0.057158101 -0.038972385 0.68200004
-0.052000009 -0.039000481 0.68250006
-0.046952385 -0.039180957 0.68000001
-0.042556986 -0.039101116 0.68050003
-0.037674081 -0.038541801 0.68333334
-0.032306775 -0.038813226 0.68299997
-0.027313692 -0.037722267 0.68287498
-0.022301499 -0.03744939 0.68300003
-0.017575717 -0.036453813 0.68350005
-0.013028572 -0.035828575 0.68400002
-0.0084685721 -0.035828575 0.68400002
-0.02077 -0.033750955 0.68150002
-0.017206429 -0.034088336 0.68175006
-0.012987739 -0.033770837 0.68187505
-0.0076738102 -0.032638893 0.68083334
-0.0025933334 -0.031795084 0.6813333
0.0014657143 -0.033059999 0.68400002
-0.012955081 -0.026774444 0.68016666
-0.0077926801 -0.0272753 0.68193763
-0.0029269846 -0.027868098 0.68316674
0.00065142859 -0.029314287 0.68400002
-0.016977144 -0.020865144 0.68040007
-0.013004703 -0.022108633 0.68281251
-0.0083039291 -0.023284167 0.68387502
-0.021049118 -0.017339185 0.68157142
-0.017881667 -0.01853119 0.68274999
-0.014982858 -0.01889143 0.68400002
-0.026617242 -0.012334382 0.68169999
-0.023524631 -0.013295512 0.68342865
-0.040800001 -0.005828572 0.68000001
-0.037248958 -0.0060996194 0.6814
-0.032162622 -0.0072537302 0.68225002
-0.027838523 -0.0087494198 0.6833334
-0.024102859 -0.009771429 0.68400002
-0.041342102 -0.0016841906 0.68040007
-0.037849337 -0.0027299686 0.68286675
-0.033204168 -0.0035805954 0.68362504
-0.04773372 0.0035034288 0.68100005
-0.04306208 0.002541732 0.68227273
-0.039737146 0.00065142859 0.68400002
-0.056654133 0.0092985723 0.68116665
-0.051960599 0.0077970251 0.68200004
-0.047812492 0.0073062438 0.6835556
-0.044948574 0.0058628577 0.68400002
-0.066965722 0.014953652 0.68266672
-0.062100083 0.013201192 0.68158334
-0.057535619 0.012106477 0.68340009
-0.053417146 0.011074287 0.68400002
-0.072270095 0.018554287 0.68120009
-0.067688763 0.017573524 0.68340009
-0.063792862 0.016273811 0.68350005
-0.077123679 0.023109524 0.68214297
-0.07295385 0.021979369 0.6827333
-0.06840001 0.020194288 0.68400002
-0.086949527 0.028768256 0.68133342
-0.082384765 0.027579937 0.68186671
-0.078067712 0.026413811 0.68310004
-0.074480012 0.025840003 0.68400002
-0.096729845 0.03440794 0.68166673
-0.092219256 0.032281484 0.68244445
-0.087278321 0.031455662 0.6833334
-0.08305715 0.030942857 0.68400002
-0.11074287 0.039504763 0.68000001
-0.10789954 0.039216988 0.68250006
-0.10213691 0.038810242 0.68200004
-0.098206393 0.037072863 0.68290007
-0.11175802 0.043319449 0.68225002
-0.1079751 0.042431276 0.68366665
-0.10314001 0.041572656 0.68357152
-0.12670143 0.04893095 0.68050003
-0.12245487 0.048540194 0.68320006
-0.11669631 0.047948219 0.68262506
-0.11252977 0.046672143 0.68300003
-0.13060318 0.053320639 0.68000001
-0.12713246 0.052246328 0.68207151
-0.12270515 0.05175788 0.68392318
-0.11921144 0.050160002 0.68400002
-0.14118096 0.058933336 0.68000001
-0.13719621 0.057965726 0.68080002
-0.13231951 0.057267312 0.68173343
-0.12794374 0.056937147 0.68353856
-0.12442286 0.05602286 0.68400002
-0.14526857 0.061885718 0.68400002
-0.14179975 0.061648984 0.68342865
-0.13790001 0.060494289 0.68300009
-0.13347715 0.060553338 0.68366671
-0.12963429 0.060582861 0.68400002
-0.17214064 -0.051401593 0.68900001
-0.17572781 -0.046852004 0.68900007
-0.17216365 -0.046987709 0.68781829
-0.16804616 -0.047802694 0.68754554
-0.16214477 -0.047074769 0.68650007
-0.15681238 -0.047222454 0.68728572
-0.15226409 -0.047262177 0.68785727
-0.14742763 -0.047178093 0.68800008
-0.14241377 -0.047035512 0.68728584
-0.13730001 -0.047074769 0.68650007
-0.13221778 -0.046302862 0.68688893
-0.12767953 -0.047143649 0.68750012
-0.12249895 -0.046985433 0.68710005
-0.11762365 -0.046349354 0.68718195
-0.11264574 -0.046500959 0.68766683
-0.10865588 -0.046130162 0.68866676
-0.10236572 -0.045277145 0.68900001
-0.097536832 -0.045823179 0.68733335
-0.092659794 -0.046004344 0.68677777
-0.087736905 -0.045834292 0.6875
-0.082560003 -0.045867622 0.68800008
-0.077159658 -0.04641645 0.688182
-0.072111122 -0.046545722 0.68833345
-0.06746991 -0.045723241 0.68780005
-0.062902868 -0.045211431 0.68800002
-0.059713338 -0.045277145 0.68900001
-0.05183905 -0.045277145 0.68900001
-0.04721 -0.045244288 0.68849999
-0.041996196 -0.045277145 0.68900001
-0.037402861 -0.045277145 0.68900001
-0.032809526 -0.045277145 0.68900001
-0.027539525 -0.045244288 0.68850005
-0.023622859 -0.045277145 0.68900001
-0.17520286 -0.043964766 0.68900001
-0.17191081 -0.043794602 0.68633336
-0.11172001 -0.043773334 0.68600005
-0.10681639 -0.043537527 0.68640006
-0.10267334 -0.043162227 0.68666673
-0.099524453 -0.043337785 0.68600005
-0.086240008 -0.043773334 0.68600005
-0.082320005 -0.043773334 0.68600005
-0.077093333 -0.043773334 0.68600005
-0.071892142 -0.04378929 0.68625009
-0.067979693 -0.043141276 0.68633342
-0.062939644 -0.042996548 0.686625
-0.05745282 -0.042688835 0.68763649
-0.052621163 -0.043014396 0.68777782
-0.047073334 -0.043805242 0.68650007
-0.042291239 -0.043340009 0.68740004
-0.037774377 -0.042654552 0.68709099
-0.033073239 -0.042616483 0.68629998
-0.027449287 -0.04378929 0.68625009
-0.021739895 -0.042827509 0.68711114
-0.017291144 -0.042311151 0.68770009
-0.013113811 -0.041310001 0.68850005
-0.0078700008 -0.040981907 0.68850005
-0.0006561905 -0.041340001 0.68900001
0.0006561905 -0.041340001 0.68900001
0.0085304771 -0.040027622 0.68900001
-0.03854667 -0.039853334 0.68600005
-0.020906668 -0.039853334 0.68600005
-0.016771324 -0.038988676 0.68611115
-0.012424644 -0.03841893 0.686625
-0.0083361911 -0.038411908 0.68650001
0.0034949209 -0.037131116 0.68800008
0.0081109535 -0.037027333 0.68690008
0.012205143 -0.036615431 0.68900007
0.0037575001 -0.032182265 0.68612504
0.0077213338 -0.032843497 0.6870001
0.011155238 -0.034121908 0.68900001
-0.0016335715 -0.025815954 0.68625009
0.0026189683 -0.027822301 0.68741673
0.0069521912 -0.028986478 0.68860006
-0.007351072 -0.02107369 0.68612498
-0.0027489527 -0.022390097 0.6874668
0.0006561905 -0.024279049 0.68900001
-0.020906668 -0.015026668 0.68600005
-0.01684312 -0.016247796 0.6874547
-0.012562254 -0.01720329 0.68763644
-0.008081588 -0.018130478 0.68811119
-0.0045933337 -0.019029524 0.68900001
-0.021216737 -0.012244219 0.68700004
-0.018154604 -0.012905079 0.68900007
-0.013780001 -0.013780001 0.68900001
-0.026830481 -0.0066367346 0.68714297
-0.022788193 -0.0081192385 0.68760008
-0.019029524 -0.0098428577 0.68900001
-0.035933334 -0.00065333338 0.68600005
-0.032240003 -0.0017746941 0.68685716
-0.028020479 -0.0037685717 0.68825006
-0.024279049 -0.0045933337 0.68900001
-0.041635558 0.0041415878 0.68666673
-0.038018908 0.0024685718 0.68738478
-0.033886351 0.0015307938 0.68866676
-0.046039369 0.0089466674 0.68733346
-0.04232705 0.0070775249 0.68800002
-0.056186669 0.013720001 0.68600005
-0.052072864 0.012692477 0.68690008
-0.048384 0.011932953 0.68840003
-0.065986671 0.018946668 0.68600005
-0.062451955 0.017683119 0.68763649
-0.057674762 0.016386194 0.6881668
-0.053098734 0.01507778 0.68833339
-0.070410162 0.023760637 0.68666673
-0.067721054 0.02240105 0.68769997
-0.063931435 0.020655241 0.68849999
-0.076676041 0.02897159 0.6861667
-0.072482698 0.027338963 0.68790913
-0.068900004 0.025591429 0.68900001
-0.09189263 0.03433786 0.68675005
-0.087599196 0.034124359 0.68714297
-0.082321241 0.032982383 0.68710011
-0.077834427 0.031565309 0.68842864
-0.074149527 0.030840954 0.68900001
-0.096934453 0.038991906 0.68616676
-0.093220964 0.03734944 0.68800008
-0.088585719 0.036840409 0.68900007
-0.10518667 0.043773334 0.68600005
-0.10153302 0.043358736 0.68633342
-0.097445637 0.042169608 0.68825006
-0.093835242 0.040027622 0.68900001
-0.11201353 0.048752952 0.68620008
-0.10719156 0.047249973 0.68713343
-0.10240841 0.046409439 0.68809104
-0.098428577 0.045277145 0.68900001
-0.12173778 0.053791117 0.68600005
-0.11767354 0.052490797 0.68720007
-0.11283892 0.051961396 0.68792319
-0.10914636 0.050964132 0.68900001
-0.1265289 0.059017785 0.68600005
-0.12231576 0.057725418 0.68681252
-0.11909176 0.056159686 0.68833339
-0.14234731 0.064089209 0.68666673
-0.13776146 0.063251525 0.68750012
-0.13266599 0.06244858 0.68814296
-0.12761638 0.061518576 0.68716669
-0.17664 -0.052177142 0.69000006
-0.17215884 -0.052836191 0.6901539
-0.16730572 -0.052697621 0.69162512
-0.1624442 -0.052918866 0.69279999
-0.15749443 -0.052829877 0.69337499
-0.1524795 -0.05214823 0.69309109
-0.14755635 -0.052613474 0.69300008
-0.14257388 -0.052806485 0.69306248
-0.13751346 -0.052281566 0.69327271
-0.13263394 -0.05147155 0.69287503
-0.12726097 -0.051740322 0.69155556
-0.12293553 -0.051840287 0.69250005
-0.11726334 -0.051840287 0.6925
-0.11265884 -0.051969949 0.69266671
-0.10823762 -0.050820004 0.69300002
-0.10376953 -0.050893337 0.69400001
-0.0958381 -0.050893337 0.69400001
-0.091872394 -0.050893337 0.69400001
-0.087214053 -0.050875004 0.69375002
-0.082619056 -0.050893337 0.69400001
-0.076670483 -0.050893337 0.69400001
-0.072484456 -0.050893337 0.69400001
-0.068739057 -0.050893337 0.69400001
-0.17696501 -0.048353575 0.69075006
-0.17414287 -0.049285717 0.69000006
-0.16297144 -0.049285717 0.69000006
-0.15782809 -0.049321432 0.69050002
-0.15256763 -0.049321428 0.69050002
-0.1473593 -0.049339287 0.69075
-0.14209738 -0.049339287 0.69075
-0.13754192 -0.049357146 0.6910001
-0.13243303 -0.04889524 0.69066668
-0.12753263 -0.049303576 0.69025004
-0.12222859 -0.049285717 0.69000006
-0.11697143 -0.049285717 0.69000006
-0.11237144 -0.049285721 0.69000006
-0.10704278 -0.048168659 0.691091
-0.10260348 -0.047980439 0.69181824
-0.097522266 -0.048762266 0.69187504
-0.092208996 -0.048783679 0.69085723
-0.087463342 -0.048664294 0.69050002
-0.082919046 -0.048700001 0.69100004
-0.07816305 -0.049165718 0.69200009
-0.072571665 -0.049482144 0.69275004
-0.067242861 -0.048220426 0.69144452
-0.06205726 -0.047904644 0.69137502
-0.057709619 -0.046827193 0.69072729
-0.052892074 -0.047187939 0.69133341
-0.04744298 -0.047444172 0.69187498
-0.042158734 -0.048089847 0.69166678
-0.037484288 -0.047349051 0.69050002
-0.032945119 -0.047444168 0.69187504
-0.027604381 -0.047151431 0.69340008
-0.022323541 -0.046624769 0.69228578
-0.017153097 -0.046184529 0.69274998
-0.01577143 -0.044028573 0.69000006
-0.012064762 -0.043215878 0.6910001
-0.008237619 -0.043169525 0.69200003
-0.0023527895 -0.043395784 0.69185722
0.0030302859 -0.042300384 0.69180006
0.0080109527 -0.042221028 0.69264293
0.012535319 -0.042227231 0.69274998
0.017158452 -0.042234287 0.69287503
0.022406757 -0.041509271 0.69381827
0.026658414 -0.040758736 0.69400001
0.0046000001 -0.038771432 0.69000006
0.0065714289 -0.038771432 0.69000006
0.012814287 -0.038442861 0.69000006
0.017110242 -0.037507385 0.69091672
0.022344207 -0.037532307 0.69341671
0.026438097 -0.038996194 0.69400001
0.0098571433 -0.030885717 0.69000006
0.012754001 -0.032607719 0.69030005
0.017002862 -0.033079308 0.69193333
0.021000192 -0.033943046 0.69340008
0.0032857149 -0.025628572 0.69000006
0.0083115166 -0.026963642 0.6905455
0.012408833 -0.027872037 0.69236368
0.015721906 -0.028668573 0.69360006
-0.0006571429 -0.02037143 0.69000006
0.0027641908 -0.022235937 0.69080013
0.0074622724 -0.022587694 0.69292313
-0.011171429 -0.015114287 0.69000006
-0.0076068034 -0.015683813 0.6902858
-0.0028534126 -0.017352305 0.6919167
0.00066095241 -0.019167621 0.69400001
-0.015990477 -0.01204762 0.69000006
-0.012327739 -0.012327739 0.69037503
-0.0084184138 -0.012809524 0.69177777
-0.0046266671 -0.01388 0.69400001
-0.020903049 -0.0069674291 0.69020003
-0.016976258 -0.0077631762 0.69093341
-0.012694762 -0.00873762 0.6925
-0.0099142864 -0.0099142864 0.69400001
-0.030885717 -0.0006571429 0.69000006
-0.027121788 -0.0014789286 0.69037503
-0.022442052 -0.0027849087 0.69153845
-0.018093908 -0.0040942859 0.69340008
-0.036800005 0.0046000001 0.69000006
-0.032253906 0.0032914288 0.69120002
-0.027790133 0.0018616453 0.69327289
-0.023794288 0.0013219048 0.69400001
-0.041409686 0.0092023825 0.69016671
-0.037374582 0.0079653487 0.69223082
-0.033253204 0.006500545 0.69242865
-0.046507761 0.012872382 0.69057155
-0.042373251 0.012408051 0.69227272
-0.038555559 0.011676826 0.69400001
-0.057828575 0.019057143 0.69000006
-0.052465789 0.017557219 0.69061548
-0.047650483 0.017029524 0.69300014
-0.043821909 0.015635241 0.6936667
-0.065526672 0.023887938 0.69033337
-0.062028419 0.022947779 0.69166672
-0.058037158 0.021986669 0.69250011
-0.05327826 0.0209154 0.69350004
-0.049571432 0.020489525 0.69400001
-0.070642859 0.028585715 0.69000006
-0.067101851 0.027818799 0.69213343
-0.063774489 0.027333716 0.69320005
-0.081485718 0.034828573 0.69000006
-0.077477269 0.03372274 0.69087499
-0.072301179 0.032783665 0.6916154
-0.068502069 0.031938575 0.69383335
-0.091342866 0.037457146 0.69000006
-0.087137155 0.038245719 0.69000006
-0.083067708 0.037580561 0.69225001
-0.078413814 0.036563974 0.69383335
-0.074687622 0.035030477 0.69400001
-0.095285721 0.043371432 0.69000006
-0.092097528 0.042297024 0.69173348
-0.087590694 0.041415449 0.69266671
-0.084258735 0.040700641 0.69300002
-0.10217867 0.049051434 0.69040006
-0.097238861 0.047681436 0.69121432
-0.093160249 0.046580002 0.69375002
-0.11237144 0.054542862 0.69000006
-0.10746172 0.053075038 0.69164294
-0.10284163 0.05188467 0.69310009
-0.098717533 0.051407434 0.69380003
-0.12025715 0.059800003 0.69000006
-0.11689931 0.05758382 0.6906364
-0.11234867 0.057285983 0.69281822
-0.10905715 0.056180958 0.69400001
-0.11390414 0.060587309 0.69400001
-0.15090096 -0.061158098 0.69800001
-0.14752501 -0.061136194 0.69774997
-0.14292382 -0.060493343 0.69800007
-0.16581017 -0.057779685 0.69733334
-0.1626185 -0.057520766 0.69580013
-0.1577401 -0.057564504 0.69618195
-0.15265819 -0.057745636 0.69691676
-0.14750916 -0.057785906 0.69580007
-0.14248134 -0.057657141 0.6958462
-0.13816382 -0.056673147 0.69680005
-0.13323639 -0.055659622 0.69740003
-0.12678763 -0.055096194 0.69700003
-0.1229216 -0.055148896 0.69766665
-0.11633335 -0.055175241 0.69800007
-0.11234477 -0.055175241 0.69800007
-0.093066677 -0.055175241 0.69800001
-0.087748572 -0.055175241 0.69800001
-0.084424764 -0.055175241 0.69800001
-0.068470478 -0.055175241 0.69800001
-0.1522381 -0.0549381 0.69500005
-0.13767619 -0.0549381 0.69500005
-0.13198382 -0.053879052 0.69500011
-0.12818891 -0.054496832 0.69500005
-0.12179048 -0.053614289 0.69500005
-0.11881191 -0.054276198 0.69500005
-0.11135906 -0.053691432 0.69600004
-0.1072816 -0.052867625 0.69677782
-0.10238276 -0.052703395 0.69655561
-0.097825468 -0.052501649 0.69618195
-0.092848942 -0.052726552 0.69637507
-0.087434284 -0.052990954 0.69550008
-0.082084768 -0.052647438 0.69620007
-0.077457987 -0.052911784 0.69662505
-0.072735123 -0.052688926 0.69587511
-0.067355528 -0.052639719 0.69610012
-0.062618963 -0.052139718 0.69650006
-0.057107385 -0.051131669 0.69725001
-0.05118667 -0.05118667 0.69800001
-0.047548983 -0.051725041 0.69757146
-0.042445596 -0.05173203 0.69637507
-0.037061147 -0.051408578 0.69740003
-0.031908572 -0.05118667 0.69800001
-0.029249527 -0.05118667 0.69800001
-0.1793762 -0.046995241 0.69500005
-0.065528579 -0.049642861 0.69500005
-0.063542858 -0.049642861 0.69500005
-0.057003815 -0.04971429 0.69600004
-0.052491751 -0.049833339 0.69766665
-0.047727622 -0.04971429 0.6960001
-0.037066668 -0.049642861 0.69500005
-0.032573339 -0.049857151 0.69800007
-0.028307941 -0.049099367 0.69666672
-0.022690097 -0.048962098 0.69660008
-0.017101714 -0.048654478 0.6960001
-0.012616381 -0.047410864 0.6972
-0.0079641277 -0.047120165 0.69683337
-0.0026527778 -0.047092468 0.69641674
0.0025225715 -0.046859339 0.69690007
0.007962143 -0.047115006 0.69675004
0.012588254 -0.047041591 0.69566673
0.017246431 -0.047091357 0.69641674
0.022580003 -0.047153339 0.69733334
0.027864151 -0.047486331 0.69664294
0.032160413 -0.046960685 0.69728577
-0.0072809528 -0.044347622 0.69500005
-0.0046333335 -0.044347622 0.69500005
0.0033095239 -0.044347622 0.69500005
0.0059571434 -0.044347622 0.69500005
0.022637144 -0.044082861 0.69500011
0.028054582 -0.042718321 0.69500011
0.032464765 -0.04240413 0.69566673
0.035411909 -0.041369051 0.69500005
0.024490478 -0.03574286 0.69500005
0.02802225 -0.036823746 0.69578576
0.032487463 -0.037127145 0.69616675
0.03565162 -0.038036004 0.69580001
0.01919524 -0.031109527 0.69500005
0.02306466 -0.032199688 0.69633335
0.027242539 -0.033221908 0.69766665
0.03188524 -0.033878572 0.69749999
0.013900001 -0.025814287 0.69500005
0.017768955 -0.027580574 0.69620007
0.02214889 -0.029457144 0.69766665
0.009928572 -0.021842858 0.69500005
0.012476954 -0.022959623 0.69680005
0.015289525 -0.024596192 0.69800001
-0.0011038096 -0.015679684 0.69566673
0.0027855875 -0.017104702 0.69620007
0.0074229441 -0.017800782 0.69700003
-0.0064041279 -0.011704445 0.69566673
-0.0026551429 -0.01261343 0.69710004
0.0013295239 -0.013960001 0.69800001
-0.012266429 -0.0062988102 0.69625008
-0.0081457142 -0.0083874464 0.69700003
-0.021180954 -0.00066190481 0.69500005
-0.01702106 -0.0022830688 0.69633341
-0.01351016 -0.0042079366 0.69766665
-0.027667621 0.0043685716 0.69500011
-0.02211016 0.0030966667 0.69650006
-0.018740764 0.0017278098 0.69779998
-0.035080954 0.009928572 0.69500005
-0.032263406 0.0089891162 0.69542867
-0.028125865 0.0076077669 0.6967693
-0.023525527 0.0065129525 0.69779998
-0.040376194 0.013900001 0.69500005
-0.036585506 0.012882433 0.69566673
-0.03332286 0.012348001 0.69700003
-0.045671433 0.01919524 0.69500005
-0.04246467 0.017252477 0.69670004
-0.03748028 0.015846532 0.69742858
-0.056261908 0.023828574 0.69500005
-0.052777339 0.023472954 0.69620007
-0.047943376 0.022134028 0.69654554
-0.043874286 0.02060762 0.69800001
-0.061468661 0.027996108 0.69536376
-0.057476338 0.027796781 0.69615388
-0.053251054 0.026161907 0.6972
-0.066442549 0.032890797 0.69533342
-0.062553257 0.032394286 0.69672734
-0.058664136 0.031656511 0.69733334
-0.080090478 0.039052382 0.69500005
-0.076586194 0.038294766 0.69625008
-0.072641149 0.037318289 0.6972
-0.068305723 0.035148259 0.69633341
-0.086930171 0.043906353 0.69500011
-0.082131833 0.042338498 0.69641674
-0.079106674 0.041215241 0.69800001
-0.092086792 0.048694648 0.69562507
-0.087611362 0.047126114 0.6969167
-0.084092386 0.046865717 0.69800001
-0.10524286 0.0549381 0.69500005
-0.10259525 0.054607145 0.69500005
-0.097777694 0.053101502 0.69571441
-0.094328105 0.051150002 0.69749999
-0.1105381 0.058909528 0.69500005
-0.10715853 0.057766672 0.69572735
-0.1028531 0.057233334 0.69675004
-0.097720005 0.055175241 0.69800001
-0.15311113 -0.061111115 0.70000005
-0.14226668 -0.061733335 0.70000005
-0.13764933 -0.061731644 0.70200008
-0.13270643 -0.06166191 0.70375007
-0.12779276 -0.061281528 0.70400006
-0.12198263 -0.060991671 0.70375001
-0.11733335 -0.061013337 0.70400012
-0.11196953 -0.061013337 0.70400012
-0.10720096 -0.060970005 0.70350003
-0.10258286 -0.061013337 0.70400012
-0.097820014 -0.061640482 0.70350003
-0.092503339 -0.061445877 0.70383334
-0.087161914 -0.061013337 0.70400006
-0.082468584 -0.061013337 0.70400012
-0.13729757 -0.058870617 0.70128572
-0.13240349 -0.058274638 0.70181823
-0.12733839 -0.058259912 0.70150012
-0.12246817 -0.058119442 0.70141673
-0.11742479 -0.058016114 0.70163631
-0.11216704 -0.057962053 0.7020002
-0.10749978 -0.057423737 0.70108342
-0.10277643 -0.057396434 0.70074999
-0.097420126 -0.057385836 0.700625
-0.092286363 -0.058001272 0.7013334
-0.087502427 -0.058115073 0.70136368
-0.082498245 -0.057417553 0.70099998
-0.077713609 -0.05719021 0.7017144
-0.072231516 -0.05685119 0.70225
-0.067175552 -0.057208791 0.70300001
-0.062978417 -0.056437254 0.7026667
-0.05763036 -0.056290358 0.70362502
-0.052027278 -0.056774627 0.70281821
-0.047382005 -0.057154953 0.70270008
-0.042992588 -0.057230279 0.70221442
-0.037665721 -0.056774635 0.70281821
-0.031896885 -0.056686148 0.70172739
-0.027548671 -0.057106387 0.7021001
-0.023273099 -0.056427859 0.70324999
-0.017426906 -0.055629767 0.70375007
-0.061376669 -0.054038577 0.70050001
-0.057395007 -0.053391196 0.70075005
-0.052319527 -0.052987147 0.7007001
-0.047333341 -0.054000005 0.70000005
-0.042666666 -0.054000005 0.70000005
-0.037451565 -0.053461637 0.70042861
-0.032517023 -0.053195596 0.70037508
-0.027344672 -0.052556287 0.70030004
-0.022507759 -0.052361771 0.70100009
-0.017401654 -0.052204702 0.70093334
-0.012120886 -0.052113544 0.70150012
-0.0073511112 -0.051465619 0.70177782
-0.0024838098 -0.051874973 0.70214295
0.0026747622 -0.05216084 0.70212507
0.0073494185 -0.051448897 0.70155561
0.012032381 -0.051470008 0.70183343
0.01738381 -0.050812863 0.70200002
0.022730479 -0.050812867 0.70200002
0.026624385 -0.05177905 0.70240003
0.0033333334 -0.048666671 0.70000005
0.028040638 -0.031377144 0.70100009
0.031413127 -0.031411428 0.70177788
0.019333335 -0.026000002 0.70000005
0.022970004 -0.027108097 0.70110005
0.026911194 -0.027911432 0.70200008
0.03115524 -0.028474765 0.70350003
0.013343334 -0.02068143 0.70050001
0.017516131 -0.022593459 0.70193344
0.022555027 -0.023894288 0.70344448
0.026148573 -0.024807621 0.70400006
0.0080247624 -0.015377143 0.70200002
0.012056429 -0.018418809 0.70324999
-0.0022666669 -0.010266668 0.70000005
0.002861361 -0.011727211 0.70085722
0.0064631752 -0.012478096 0.70200002
-0.0070021432 -0.0063354764 0.70025003
-0.0026685717 -0.0073393667 0.70066679
0.0021774999 -0.0078708343 0.70337504
0.0060342862 -0.0087161912 0.70400006
-0.016010953 -0.00066714291 0.70050001
-0.011659854 -0.0023098171 0.70115399
-0.0073562707 -0.002672778 0.70225012
-0.0033482858 -0.003348286 0.70330006
0.00067047623 -0.0046933335 0.70400006
-0.016716452 0.0031025975 0.70209098
-0.012487187 0.0020108228 0.70354551
-0.0087161912 0.00067047623 0.70400006
-0.027333336 0.0086666672 0.70000005
-0.022258572 0.0077909529 0.70116675
-0.01944381 0.0060342862 0.70400006
-0.031341907 0.013204001 0.70020002
-0.027829684 0.012024763 0.7013334
-0.023873493 0.010934128 0.70283335
-0.041111115 0.018888891 0.70000005
-0.037128575 0.018453652 0.70033342
-0.032228954 0.017253591 0.70213354
-0.028383493 0.015867939 0.70400012
-0.047016434 0.024342144 0.70025003
-0.042553071 0.022995783 0.70128578
-0.037733972 0.02165905 0.70333338
-0.033523813 0.020784764 0.70400006
-0.055333339 0.028666668 0.70000005
-0.051527031 0.027848456 0.70037496
-0.047452703 0.027404657 0.70177782
-0.043498415 0.027439365 0.7026667
-0.060666669 0.034000002 0.70000005
-0.056787338 0.03273876 0.70150012
-0.052349705 0.031314895 0.70227277
-0.048274286 0.03017143 0.70400006
-0.070333347 0.038333334 0.70000005
-0.067089714 0.037949268 0.70127279
-0.062876262 0.037174359 0.70235723
-0.058566101 0.036051434 0.70360005
-0.081333339 0.04466667 0.70000005
-0.077125587 0.042901918 0.70071435
-0.07226906 0.042829286 0.7026251
-0.068237007 0.042206805 0.70342863
-0.063695244 0.040899049 0.70400006
-0.082036436 0.047619764 0.70175004
-0.077911861 0.04710551 0.70322227
-0.074422859 0.04626286 0.70400006
-0.095823184 0.053581279 0.70033336
-0.092115588 0.052961309 0.70227277
-0.087411642 0.052201595 0.70206672
-0.08381255 0.051047467 0.70216674
-0.11514001 -0.070700005 0.70700002
-0.1128 -0.070500001 0.70500004
-0.13197334 -0.065313339 0.70700002
-0.12734953 -0.066370957 0.70750004
-0.12327874 -0.066018417 0.70733333
-0.11711372 -0.067249849 0.7075333
-0.11285175 -0.066872701 0.7076667
-0.13630001 -0.063785717 0.70500004
-0.13322429 -0.063921437 0.70650005
-0.12733565 -0.063236065 0.70528573
-0.12232929 -0.063182145 0.70574999
-0.11730573 -0.063313618 0.70614284
-0.11291929 -0.06284643 0.70574999
-0.10792457 -0.062765725 0.70559996
-0.10257225 -0.063352391 0.7065714
-0.097097151 -0.064057149 0.708
-0.092114292 -0.062980965 0.70600003
-0.08747144 -0.063250005 0.70650005
-0.082385041 -0.06316001 0.70657146
-0.077691846 -0.061751436 0.70585716
-0.072758228 -0.06197989 0.70737505
-0.067369416 -0.061979886 0.70737505
-0.062285315 -0.062093481 0.70757145
-0.05765279 -0.061888445 0.70742863
-0.052538574 -0.061968815 0.70725
-0.047393747 -0.062005997 0.70657146
-0.042735111 -0.061751436 0.70585716
-0.038131241 -0.06130762 0.70740002
-0.033040002 -0.060910486 0.70800006
-0.027289527 -0.061653815 0.70750004
-0.023363812 -0.061780643 0.70766664
-0.017936002 -0.060281146 0.708
0.0033714287 -0.060011432 0.70800006
0.0074171438 -0.060011432 0.70800006
0.010788572 -0.060011432 0.708
-0.076542862 -0.059757147 0.70500004
-0.072514288 -0.059757147 0.70500004
-0.067142859 -0.059757147 0.70500004
-0.062209722 -0.059253909 0.70540011
-0.05774286 -0.059085716 0.70499998
-0.052774288 -0.059488576 0.70500004
-0.048342861 -0.059757147 0.70500004
-0.041628577 -0.059757147 0.70500004
-0.037626192 -0.059463814 0.70550007
-0.032945715 -0.059506197 0.70600003
-0.026857145 -0.059757147 0.70500004
-0.022340238 -0.058960244 0.70550001
-0.017481904 -0.057825722 0.70599997
-0.012298703 -0.057090394 0.70672733
-0.007411906 -0.056600478 0.70749998
-0.002695794 -0.057281192 0.70758337
0.0026915083 -0.057201356 0.70658326
0.0074020112 -0.057198208 0.70655549
0.011942945 -0.057140701 0.70736361
0.016857143 -0.05630286 0.708
0.023600003 -0.056736335 0.70800006
-0.010071429 -0.054385718 0.70500004
-0.0073857149 -0.054385718 0.7050001
-0.0040285718 -0.054385718 0.70500004
0.0073857149 -0.054385718 0.7050001
0.012095716 -0.05442429 0.70550007
0.017481904 -0.053791434 0.70599997
0.022860954 -0.053791434 0.70599997
0.026260002 -0.054540005 0.70700002
0.02887143 -0.026857145 0.70500004
0.032777861 -0.027062146 0.70599997
0.02314599 -0.021415649 0.70585716
0.027726233 -0.022705456 0.70690912
0.03184982 -0.023044987 0.70692301
0.012379185 -0.016024627 0.70528579
0.017501192 -0.017498573 0.70674998
0.022515239 -0.01833524 0.70780009
0.026297145 -0.019554287 0.708
0.0082809534 -0.011638097 0.70500004
0.011991493 -0.012259938 0.70733333
0.015958097 -0.013710476 0.70800006
0.0036985718 -0.0063871434 0.70599997
0.0075730956 -0.0072347624 0.70674992
0.010563811 -0.0083161918 0.70800006
-0.0015684129 -0.0015684129 0.70616674
0.0023211641 -0.0032187302 0.70744449
0.0060685719 -0.0047200001 0.708
-0.011151429 0.0041655242 0.70539999
-0.0072819926 0.0028781821 0.70681828
-0.0029650477 0.0017526665 0.70770007
0.00067428575 0.00067428575 0.708
-0.020814287 0.0087285722 0.70500004
-0.017314028 0.0075270138 0.70663637
-0.012345821 0.0069595776 0.70711106
-0.0083161918 0.0065180957 0.70800006
-0.026185716 0.014100001 0.70500004
-0.022354182 0.012635874 0.7065556
-0.018655241 0.011013335 0.70800006
-0.030214287 0.019471429 0.70500004
-0.027276404 0.01801143 0.70622224
-0.024671813 0.017122477 0.70779997
-0.037326675 0.024277417 0.70528573
-0.032239344 0.023030112 0.7063846
-0.028168766 0.02169981 0.70760006
-0.041034609 0.027581906 0.70633334
-0.037874982 0.027474981 0.70672733
-0.033922859 0.026734289 0.70766664
-0.051968571 0.03397429 0.70500004
-0.047039643 0.032758608 0.70638454
-0.043283693 0.031496074 0.70737511
-0.039782859 0.030342858 0.708
-0.061100002 0.03961429 0.70500004
-0.057389531 0.038322169 0.70590907
-0.052945625 0.036915146 0.70730001
-0.06632667 0.043322627 0.70525002
-0.06211143 0.042530693 0.70633328
-0.058580004 0.041073337 0.70700002
-0.077286035 0.049060639 0.70566672
-0.072480269 0.047893595 0.70645458
-0.067176931 0.047600526 0.70700002
-0.063338101 0.045819528 0.70749998
-0.10732643 -0.071325004 0.71325004
-0.10240801 -0.071128003 0.71400005
-0.097885489 -0.072055005 0.71375006
-0.093281709 -0.071982011 0.71377784
-0.13050477 -0.066942863 0.71000004
-0.12915239 -0.066942863 0.71000004
-0.12247731 -0.067666829 0.7105
-0.1110362 -0.068323001 0.71028578
-0.10743953 -0.06801191 0.71207154
-0.1027431 -0.067253895 0.71208334
-0.097628817 -0.067799889 0.7118752
-0.092549458 -0.067464218 0.71191669
-0.087428063 -0.067099757 0.71163642
-0.082669057 -0.066407144 0.71149999
-0.077649109 -0.066784129 0.71311122
-0.072327763 -0.066697553 0.71357149
-0.067667894 -0.066503264 0.71357149
-0.06251619 -0.066593818 0.71350008
-0.056648005 -0.066158108 0.71320003
-0.052681193 -0.066276908 0.71375
-0.048030477 -0.06638255 0.7136668
-0.042160004 -0.065960005 0.71400005
-0.038080003 -0.065960005 0.71400005
-0.031053338 -0.066866674 0.71400011
-0.026994286 -0.067145452 0.71345472
-0.022871112 -0.066804759 0.71333337
-0.019266669 -0.066413343 0.71400011
-0.10751429 -0.064238101 0.71000004
-0.09331429 -0.064238101 0.71000004
-0.080466673 -0.064238101 0.71000004
-0.077085719 -0.064238101 0.71000004
-0.072454296 -0.064328574 0.71100008
-0.067714289 -0.064328574 0.71100003
-0.062297147 -0.064328574 0.71100003
-0.057557147 -0.064328574 0.71100008
-0.052852862 -0.064373814 0.71150005
-0.047400001 -0.064328574 0.71100003
-0.042701274 -0.064388894 0.7116667
