# .PCD v0.7 - Point Cloud Data file format
VERSION 0.7
FIELDS x y z
SIZE 4 4 4
TYPE F F F
COUNT 1 1 1
WIDTH 1330
HEIGHT 1
VIEWPOINT 0 0 0 1 0 0 0
POINTS 1330
DATA ascii
-0.049300004 0.018560002 0.60900003
-0.055100005 0.020300001 0.60900003
-0.052105311 0.021454969 0.60885715
-0.049300004 0.020300001 0.60900003
-0.072136573 0.014380382 0.61380005
-0.067777149 0.014022383 0.6135
-0.06251245 0.013290298 0.61343753
-0.057664767 0.014221272 0.61366671
-0.052879192 0.014117825 0.61400008
-0.07543429 0.016958095 0.61400002
-0.072267964 0.017274356 0.61335719
-0.067715541 0.017512681 0.61293745
-0.06238696 0.017491622 0.61220014
-0.057102799 0.017479585 0.61181253
-0.052461464 0.017356956 0.61160004
-0.049233973 0.016151428 0.61300004
-0.066839844 0.021240797 0.61383343
-0.062285192 0.021995135 0.6131112
-0.057218611 0.022258988 0.61180007
-0.052445717 0.022569314 0.6111111
-0.056822147 0.025855001 0.6135
-0.053473175 0.025862385 0.61250007
-0.10175182 0.0083712386 0.61900002
-0.098450482 0.0088428576 0.61900002
-0.090786666 0.0088428576 0.61900002
-0.087085247 0.0088250795 0.61783338
-0.083512776 0.0088335238 0.61840004
-0.078111909 0.0082533341 0.61900002
-0.072383299 0.0084111691 0.61881822
-0.067070395 0.0088234134 0.61775005
-0.062681429 0.0088271433 0.61800003
-0.059541907 0.0088428576 0.61900002
-0.052278336 0.0086878566 0.61849999
-0.048930481 0.0088428576 0.61900002
-0.10139809 0.011790476 0.61900002
-0.097524092 0.012127349 0.61900008
-0.092650905 0.012427667 0.61845011
-0.08732041 0.013003708 0.61621058
-0.082124107 0.012454134 0.61663169
-0.077534437 0.012331096 0.61675
-0.072817035 0.01161854 0.61626667
-0.067667209 0.011657249 0.61544448
-0.061618861 0.010679429 0.61620003
-0.057365451 0.011487483 0.61642867
-0.05254367 0.011337949 0.61669242
-0.048637215 0.012491224 0.61635715
-0.092303723 0.016954189 0.61810005
-0.087396145 0.017520268 0.61772227
-0.082225896 0.017620893 0.6166876
-0.077758469 0.017716266 0.61530775
-0.073800005 0.019328572 0.61500001
-0.085480958 0.020633334 0.61900002
-0.081463501 0.021396827 0.61833334
-0.077510037 0.022209084 0.61686677
-0.072754703 0.022296965 0.61606258
-0.068249792 0.022963379 0.61536366
-0.063842863 0.024014287 0.61500001
-0.076048575 0.025349526 0.61900002
-0.072210588 0.026121696 0.61866671
-0.067213506 0.026949299 0.61747056
-0.062062766 0.027437191 0.61568421
-0.057724454 0.028618416 0.61533332
-0.052807622 0.029106667 0.61533338
-0.049866669 0.029920002 0.61600006
-0.066580951 0.030049525 0.61866665
-0.062437624 0.030630954 0.61849999
-0.057168733 0.031825878 0.6188333
-0.053864956 0.032885339 0.61880004
-0.08795429 0.0041600005 0.62400001
-0.08260572 0.0041600005 0.62400001
-0.078382388 0.0041566668 0.62349999
-0.060617149 0.0041600005 0.62400001
-0.057645716 0.0041600005 0.62400001
-0.12228573 0.0072685718 0.62400007
-0.11756304 0.0071244645 0.62343746
-0.11276864 0.0072312388 0.62253338
-0.10746239 0.0073592518 0.62192857
-0.10321049 0.0066257152 0.62140006
-0.097443618 0.0075988439 0.6206429
-0.09242326 0.0070997626 0.62141669
-0.087671913 0.0059228572 0.62200004
-0.082380883 0.0065099644 0.62161541
-0.077574141 0.0067006359 0.62100005
-0.072572693 0.0059856088 0.62177777
-0.067504048 0.005919762 0.62175
-0.062762 0.0062740007 0.62169999
-0.057556424 0.006856808 0.6215294
-0.052397929 0.0064060609 0.62200004
-0.047786787 0.0075429766 0.62137496
-0.11715299 0.010839406 0.62362504
-0.11262082 0.012397544 0.6228947
-0.10780653 0.012441381 0.62194997
-0.10355826 0.01279762 0.62016666
-0.098272122 0.012568709 0.62
-0.09388572 0.010038096 0.62
-0.11232001 0.016045716 0.62400001
-0.10632064 0.017027304 0.6236667
-0.10238302 0.017477462 0.62200004
-0.097628213 0.017753283 0.62127775
-0.092619248 0.019280953 0.62099999
-0.091597632 0.021047143 0.6225
-0.087703072 0.022520887 0.62221432
-0.083392389 0.02306686 0.62099999
-0.078533337 0.024209525 0.62
-0.086765721 0.025554288 0.62400001
-0.082261398 0.026964981 0.6227693
-0.077793278 0.02731381 0.62149996
-0.072943501 0.028166775 0.62044442
-0.080228575 0.030308573 0.62400001
-0.076851822 0.03052686 0.62360001
-0.072344646 0.030835599 0.62262505
-0.067576595 0.032308809 0.62241673
-0.062991351 0.032709438 0.62236369
-0.057836741 0.033518914 0.62057149
-0.051357567 0.033076089 0.62144446
-0.049325716 0.032685716 0.62400001
-0.068342865 0.035062861 0.62400001
-0.062400006 0.035062861 0.62400001
-0.056591522 0.037709963 0.62309098
-0.053202957 0.037446577 0.62210006
-0.056457147 0.041005716 0.62400001
-0.13576762 -0.0005980953 0.62800002
-0.13328175 -0.00099793659 0.62850004
-0.12872636 -0.00059873023 0.62866664
-0.11621524 -0.00059904763 0.62900001
-0.11244191 -0.0005980953 0.62800002
-0.10774238 -0.0005985715 0.62849998
-0.10483334 -0.00059904763 0.62900001
-0.077876195 -0.00059904763 0.62900001
-0.07278429 -0.00059904763 0.62900001
-0.067692384 -0.00059904763 0.62900001
-0.062300954 -0.00059904763 0.62900001
-0.057508577 -0.00059904763 0.62900001
-0.052356768 -0.00083866669 0.62900001
-0.049121909 -0.0011980953 0.62900001
-0.13665619 0.0028731604 0.62609088
-0.13249877 0.0023862503 0.62668759
-0.12752797 0.0022791035 0.6265884
-0.12251878 0.0023496917 0.6268236
-0.11741894 0.0024196079 0.62658828
-0.11229049 0.0024889074 0.62617642
-0.10743268 0.002385655 0.62668759
-0.1028626 0.0027297961 0.62742871
-0.09705516 0.0031913498 0.62841678
-0.092204593 0.0028783556 0.62754548
-0.086813129 0.0021839153 0.62577778
-0.082361594 0.0017880953 0.62666672
-0.077431776 0.002129728 0.62678576
-0.072647683 0.0022793841 0.62676471
-0.067610092 0.0023502526 0.62694114
-0.062574409 0.0023094048 0.62650007
-0.057239998 0.0021299322 0.62700009
-0.052584939 0.0023879171 0.62743747
-0.048333339 0.0025893655 0.62783337
-0.13691519 0.006987825 0.62621433
-0.13232788 0.00715381 0.62587506
-0.12740667 0.0071446439 0.62512505
-0.1232143 0.0065476196 0.625
-0.11071429 0.005357143 0.625
-0.10833333 0.005357143 0.625
-0.10059524 0.005357143 0.625
-0.097892627 0.0053721429 0.62674999
-0.09360382 0.0053657144 0.62600005
-0.047637388 0.005359286 0.62524998
-0.13691728 0.011032654 0.62857145
-0.13269439 0.012436741 0.62805259
-0.12772414 0.012664443 0.62738109
-0.12262559 0.012527763 0.62625015
-0.11813992 0.013488486 0.62563634
-0.11488096 0.013690477 0.625
-0.13179049 0.016174287 0.62900001
-0.12679844 0.016174287 0.62900007
-0.12170834 0.016916668 0.62875003
-0.11735129 0.017988062 0.62792319
-0.11238565 0.018090416 0.62613338
-0.10789111 0.018612381 0.62588894
-0.10357143 0.019642858 0.625
-0.11651477 0.021266192 0.62900001
-0.11232213 0.021746667 0.62844449
-0.10759512 0.022621145 0.62833339
-0.10272917 0.022697499 0.62712497
-0.09784364 0.022672324 0.62643754
-0.093280002 0.02314651 0.62583333
-0.089880958 0.024404764 0.625
-0.10603143 0.026358098 0.62900001
-0.10241906 0.027551642 0.62888891
-0.097176246 0.027438434 0.62870598
-0.092139371 0.027607052 0.62739998
-0.087495022 0.027729597 0.62561542
-0.08353176 0.028769843 0.625
-0.046126671 0.029353335 0.62900001
-0.044928573 0.029353335 0.62900001
-0.096446678 0.03055143 0.62900001
-0.091571838 0.031208031 0.62842864
-0.087322503 0.032298815 0.62800008
-0.082499318 0.032356959 0.62680006
-0.077701569 0.032914374 0.62627268
-0.072633937 0.033340119 0.62512499
-0.069642864 0.033928573 0.625
-0.060119051 0.033928573 0.625
-0.047565158 0.031742781 0.62691677
-0.044857144 0.03050286 0.62800002
-0.08662229 0.035823051 0.62900001
-0.082587719 0.036136299 0.62888891
-0.077690996 0.036990672 0.62846678
-0.072873406 0.037035659 0.62718761
-0.067933783 0.037088703 0.62606668
-0.062414855 0.037622478 0.62522727
-0.058690485 0.038452383 0.625
-0.076478422 0.040535562 0.62900007
-0.072484769 0.040735245 0.62900007
-0.066697739 0.041566011 0.62830776
-0.062104449 0.042398103 0.62699997
-0.057329599 0.043089077 0.62660003
-0.053667977 0.042937264 0.62612498
-0.056310482 0.046126671 0.62900001
-0.053914286 0.046126671 0.62900001
-0.13190897 -0.0059139053 0.6336
-0.12861143 -0.0054342858 0.634
-0.1008362 -0.0060380958 0.634
-0.09777905 -0.0060359528 0.63374996
-0.093163028 -0.0058353972 0.63383341
-0.06702286 -0.005917334 0.634
-0.06400381 -0.0060380958 0.634
-0.13223577 -0.0031193942 0.63190907
-0.12753233 -0.0026694559 0.63249999
-0.12265739 -0.0024129762 0.63287497
-0.11774749 -0.0026935239 0.63273329
-0.11237291 -0.0029051951 0.63281816
-0.10747416 -0.0029214651 0.63261539
-0.10243483 -0.0024122025 0.63268745
-0.097537689 -0.0024094649 0.63218755
-0.09275686 -0.0024104172 0.63243747
-0.087866962 -0.0023081792 0.63370574
-0.082114093 -0.0021538099 0.63264292
-0.077104762 -0.0030138099 0.63249999
-0.072270051 -0.0028295971 0.63276923
-0.067365922 -0.0026686399 0.63235724
-0.062664293 -0.0030144448 0.63266671
-0.058044612 -0.0024122228 0.63266671
-0.053626034 -0.0030146034 0.63266671
-0.047248259 -0.0010057143 0.63333338
-0.10138457 0.0010820953 0.63140005
-0.097746298 0.00084152393 0.63120002
-0.092546672 0.00060095242 0.63100004
-0.088527307 0.00060222228 0.6323334
-0.045992069 0.0014066668 0.63266671
-0.13778263 0.013537858 0.63175005
-0.13757423 0.016896011 0.63356245
-0.13263009 0.017724765 0.63299996
-0.12745813 0.01822537 0.63209093
-0.12321584 0.019107502 0.63187504
-0.11977906 0.019862859 0.63200003
-0.13223429 0.021133335 0.634
-0.12776612 0.02209943 0.634
-0.12286275 0.023026669 0.63329411
-0.11798169 0.023396593 0.63258332
-0.11303937 0.024050795 0.63133335
-0.10997429 0.02463905 0.63100004
-0.048078418 0.023535557 0.63366669
-0.12136572 0.025963811 0.634
-0.11650493 0.026560796 0.63383341
-0.11195973 0.027474154 0.63300002
-0.10764867 0.028046928 0.63145459
-0.050438415 0.028333019 0.63300002
-0.048016284 0.027865976 0.63236362
-0.11110096 0.030794287 0.634
-0.10668192 0.031428576 0.63285714
-0.1024456 0.032543696 0.63275009
-0.097660154 0.032783948 0.63242859
-0.093129739 0.033360854 0.63177776
-0.10144001 0.036228575 0.634
-0.097798221 0.036221553 0.63387501
-0.092656307 0.036379471 0.63311112
-0.087989926 0.03802675 0.63208336
-0.082731113 0.038460959 0.63100004
-0.07992667 0.039061908 0.63100004
-0.086981431 0.041428901 0.63349998
-0.081948757 0.0421803 0.63268751
-0.07737118 0.042705376 0.63154554
-0.072171435 0.043303337 0.63150001
-0.068781279 0.043515243 0.63166666
-0.076683812 0.045285717 0.634
-0.072017148 0.045664452 0.63366669
-0.067337967 0.04578286 0.63371432
-0.062691852 0.047020059 0.63293755
-0.057978578 0.047753811 0.63150001
-0.05411429 0.048703499 0.63133335
-0.060984764 0.050116193 0.634
-0.057585716 0.051187046 0.63379997
-0.054321196 0.051907387 0.63375002
-0.13131049 -0.0080946032 0.63733339
-0.12711772 -0.006916001 0.63680011
-0.12252239 -0.0072820233 0.63687503
-0.11768916 -0.0070830481 0.63720006
-0.11261515 -0.0064334287 0.6371001
-0.10761559 -0.0065658879 0.63709098
-0.10297734 -0.0067952382 0.63680005
-0.095545724 -0.0079114288 0.63900006
-0.092087224 -0.0070191845 0.63671434
-0.087365404 -0.0062659266 0.63655561
-0.082378104 -0.0060580955 0.6360001
-0.077622391 -0.0060654772 0.63675004
-0.07275822 -0.0060639293 0.63662511
-0.069079764 -0.0066673812 0.63625002
-0.061514862 -0.0061895242 0.63700002
-0.057353232 -0.0059991539 0.63688898
-0.052213095 -0.0060723815 0.63749999
-0.047431432 -0.0060814284 0.63850003
-0.042292796 -0.0059926533 0.63828582
-0.12518573 -0.0042333337 0.63500005
-0.11430001 -0.0042333337 0.63500005
-0.085876197 -0.0042333337 0.63500005
-0.08345715 -0.0042333337 0.63500005
-0.056847624 -0.0042333337 0.63500005
-0.050730795 -0.0038393652 0.63666672
-0.046880089 -0.0030309092 0.63627279
-0.043057542 -0.0024270634 0.6367501
-0.043275815 0.0010906667 0.63640004
-0.13745354 0.019982288 0.63580006
-0.13189073 0.019965 0.63525009
-0.12881429 0.019957144 0.63500005
-0.1370535 0.022589207 0.63816667
-0.13258353 0.023396855 0.6374616
-0.12795787 0.024502145 0.63525003
-0.050353333 0.023055241 0.63700002
-0.048985716 0.022376193 0.63500011
-0.13127348 0.02733252 0.63771433
-0.12730548 0.027793461 0.63713342
-0.12257499 0.028026924 0.63693345
-0.11787315 0.02859067 0.6360001
-0.11369525 0.029633336 0.63500005
-0.051324528 0.02702881 0.63775003
-0.1259743 0.031037144 0.63900006
-0.12293144 0.031037144 0.63900006
-0.11734723 0.032225795 0.63841671
-0.11243612 0.033096589 0.63758337
-0.10822655 0.033499643 0.63662505
-0.11136858 0.035905715 0.63900006
-0.10673501 0.037200559 0.63858336
-0.10293203 0.038257979 0.63762504
-0.097720645 0.038806353 0.63555568
-0.093182229 0.038725402 0.63533336
-0.1012481 0.041046672 0.63850003
-0.09717261 0.042154003 0.63861543
-0.092538163 0.042682681 0.63840002
-0.087643437 0.044003051 0.63640004
-0.086913496 0.046191901 0.63816673
-0.082294129 0.046578795 0.63663644
-0.077765003 0.04763183 0.63708341
-0.073066108 0.048185907 0.63720006
-0.068007305 0.048230581 0.63566673
-0.076071434 0.050511431 0.63900006
-0.072014295 0.051322859 0.63900006
-0.067574352 0.052352592 0.63800007
-0.062708102 0.052106991 0.63616675
-0.058157012 0.053317562 0.63514292
-0.053470477 0.054078098 0.63800001
-0.065117151 0.055380005 0.63900006
-0.062307898 0.056050483 0.63871431
-0.05715308 0.056162428 0.63781822
-0.052260745 0.056992598 0.6388889
-0.1302343 -0.010394286 0.64200002
-0.12785894 -0.011332501 0.64312506
-0.12220226 -0.011272036 0.64127284
-0.117485 -0.011015715 0.64250004
-0.11301068 -0.010652572 0.64280003
-0.10769382 -0.010402381 0.64249998
-0.10316267 -0.010672001 0.64400005
-0.097482622 -0.010882621 0.64375007
-0.092262872 -0.011127619 0.64400005
-0.087637149 -0.011031905 0.64350003
-0.082440428 -0.010961059 0.64333332
-0.076986663 -0.011401526 0.64360011
-0.072452284 -0.011226033 0.64288896
-0.060720004 -0.010426668 0.64400005
-0.057609051 -0.010418572 0.64350003
-0.054586671 -0.010426668 0.64400005
-0.12800002 -0.009142858 0.64000005
-0.11647905 -0.0091476198 0.64033341
-0.11226922 -0.0087460335 0.64066672
-0.10743105 -0.0089019053 0.64020008
-0.10283739 -0.009182143 0.64275002
-0.097960278 -0.0086361915 0.64114285
-0.092456393 -0.0089161918 0.64120001
-0.087762736 -0.0086285733 0.64057148
-0.082991675 -0.0085438099 0.64075005
-0.07778836 -0.0086135464 0.64088893
-0.072645955 -0.0085473815 0.64100003
-0.067579873 -0.008481361 0.64257145
-0.062076747 -0.0084696608 0.64171433
-0.057385713 -0.0085471431 0.64100009
-0.052592024 -0.0085629756 0.64212507
-0.047710005 -0.0085640484 0.64225
-0.043585852 -0.0083001368 0.64200008
-0.13847096 0.024399526 0.64050007
-0.14001715 0.027514288 0.64200002
-0.13712209 0.028036252 0.64168757
-0.1331147 0.028718779 0.64157146
-0.05311143 0.028081907 0.64100003
-0.13772351 0.031672701 0.64366674
-0.13186634 0.032452643 0.64290917
-0.12758236 0.033368427 0.64238471
-0.12259795 0.033604287 0.6415
-0.11715049 0.034255244 0.64000005
-0.12696001 0.036186669 0.64400005
-0.12219524 0.03657683 0.64366674
-0.11751232 0.037604179 0.64238471
-0.11242826 0.038117077 0.6410715
-0.10823311 0.039329764 0.64025009
-0.11192572 0.041558478 0.64360005
-0.10756844 0.042710926 0.64246672
-0.10286526 0.043243341 0.64100003
-0.098133348 0.04449524 0.64000005
-0.10242667 0.046000004 0.64400005
-0.097382389 0.046794005 0.64310008
-0.092428043 0.047746804 0.64271432
-0.088142969 0.048245184 0.6412223
-0.083313525 0.04915848 0.64040005
-0.078628577 0.049371433 0.64000005
-0.091737159 0.051782858 0.64400005
-0.087365732 0.052258104 0.64300013
-0.082599126 0.052620664 0.64243758
-0.077668197 0.052663241 0.64146668
-0.073476195 0.052897383 0.64025003
-0.076374486 0.056269336 0.64360005
-0.071828358 0.057153776 0.64207697
-0.067288838 0.057520963 0.64113343
-0.062233217 0.058571793 0.640625
-0.057716992 0.05873286 0.64016676
-0.052825402 0.057904765 0.6400001
-0.071760006 0.060720004 0.64400005
-0.066853344 0.060720004 0.64400005
-0.061976511 0.061568473 0.6428889
-0.057358675 0.062252257 0.64206672
-0.053695787 0.061729528 0.64171439
-0.13083778 -0.016226351 0.64700001
-0.12826525 -0.015416668 0.64750004
-0.11716764 -0.015416667 0.64750004
-0.11229128 -0.015836034 0.64783335
-0.1075063 -0.015675431 0.648
-0.10200842 -0.015836034 0.64783335
-0.097848199 -0.015670668 0.64780003
-0.09257143 -0.015428573 0.648
-0.087634288 -0.015428573 0.648
-0.082491443 -0.015428573 0.648
-0.077760004 -0.015428573 0.648
-0.072747946 -0.015824128 0.64733338
-0.068119735 -0.015950751 0.64771438
-0.062948577 -0.015428573 0.648
-0.13097811 -0.01291397 0.64566672
-0.12740168 -0.013694763 0.64625001
-0.123036 -0.013672191 0.64660001
-0.11744203 -0.013527977 0.645625
-0.11235349 -0.013020158 0.64583331
-0.10732638 -0.012831429 0.64623082
-0.10197637 -0.013034894 0.64609092
-0.097018525 -0.01333344 0.64611113
-0.092339642 -0.013543691 0.646375
-0.087363817 -0.013536192 0.64600003
-0.08242584 -0.013533215 0.64587504
-0.077849537 -0.01372635 0.64533341
-0.072333336 -0.013623403 0.64600009
-0.067766786 -0.012323333 0.64687496
-0.062961973 -0.012446287 0.64686668
-0.05836191 -0.012474047 0.64674997
-0.05268205 -0.011170478 0.64642859
-0.047558017 -0.011596798 0.64700001
-0.044008762 -0.010971812 0.64720005
-0.065728575 -0.0092142867 0.64500004
-0.064500004 -0.0092142867 0.64500004
-0.1419 0.027642859 0.64500004
-0.13674001 0.033294287 0.64500004
-0.13391429 0.033785716 0.64500004
-0.13683602 0.036614478 0.64720005
-0.13268642 0.037044488 0.64671433
-0.12790096 0.037667304 0.64600003
-0.12295239 0.038730484 0.6455
-0.1177381 0.039519053 0.6450001
-0.13162366 0.0405154 0.64783335
-0.12645881 0.040801909 0.64771438
-0.12220667 0.042347908 0.64730769
-0.11724817 0.042776436 0.64625001
-0.1130062 0.043666195 0.64574999
-0.10995715 0.044842862 0.64500004
-0.12096001 0.045051433 0.648
-0.11664002 0.045051437 0.648
-0.11108573 0.046285719 0.648
-0.10691188 0.047743373 0.64715385
-0.10226893 0.048702866 0.64581817
-0.097320423 0.04923062 0.6450001
-0.10553144 0.051840004 0.648
-0.10213621 0.05217848 0.6476
-0.097227141 0.052921906 0.64612502
-0.092692979 0.053956553 0.645625
-0.087979048 0.054756194 0.64600003
-0.096841916 0.056748256 0.64766669
-0.092427857 0.056689765 0.64700001
-0.087224536 0.057431504 0.64724994
-0.082621112 0.057634551 0.64671433
-0.077965975 0.05848996 0.64645451
-0.073957473 0.059206989 0.64533341
-0.085782863 0.061097145 0.648
-0.082080007 0.061508577 0.648
-0.077740476 0.062315561 0.64783329
-0.072729789 0.062956326 0.64679998
-0.06777177 0.063026331 0.64607143
-0.06334205 0.063869119 0.64571428
-0.059585717 0.064500004 0.64500004
-0.072177865 0.066317387 0.64775002
-0.067259312 0.067483723 0.64790899
-0.062943637 0.067091003 0.6473636
-0.057888687 0.067743823 0.64662498
-0.054253064 0.067444354 0.64628577
-0.12739342 -0.01766897 0.6509167
-0.12280668 -0.017368216 0.65125006
-0.11761619 -0.018085644 0.6513077
-0.11237716 -0.01823505 0.6512
-0.10761515 -0.017978383 0.65090007
-0.10318353 -0.018231908 0.65110004
-0.097454302 -0.018193776 0.65176922
-0.092311434 -0.017744383 0.65140003
-0.087202519 -0.017893421 0.65190905
-0.082480378 -0.017816484 0.65192312
-0.077310652 -0.017158892 0.65116674
-0.071988694 -0.017998692 0.65162504
-0.066752963 -0.018240765 0.65140003
-0.061922792 -0.017810112 0.65169233
-0.05705722 -0.017127279 0.65221435
-0.0522388 -0.017275747 0.65246665
-0.047327559 -0.017138164 0.65264291
-0.042459141 -0.016678357 0.65300006
-0.12195239 -0.014238096 0.65000004
-0.056568261 -0.0138327 0.6503334
-0.052040007 -0.013630001 0.65050006
-0.047448765 -0.013999239 0.6504001
-0.04184103 -0.012739195 0.65123075
-0.13857096 0.038750004 0.65100002
-0.14142115 0.042165149 0.65300006
-0.13769014 0.041964013 0.65207142
-0.13296895 0.043042101 0.6512
-0.12807144 0.043011744 0.6503334
-0.13744096 0.045399051 0.65300006
-0.13301155 0.045994885 0.65262502
-0.12742582 0.047032043 0.65221435
-0.12288044 0.04729246 0.65138465
-0.11786064 0.04776524 0.65133339
-0.11305391 0.047973718 0.65080005
-0.10957143 0.048904765 0.65000004
-0.12562478 0.050374288 0.65300006
-0.12160029 0.050896332 0.65285718
-0.11684257 0.052084621 0.65284616
-0.11257065 0.052011508 0.65192312
-0.10841072 0.052397706 0.65108335
-0.104 0.053857148 0.65000004
-0.11181848 0.055847049 0.65300006
-0.10717525 0.056441564 0.65254545
-0.10258851 0.056952607 0.65161544
-0.098605245 0.058295719 0.65116668
-0.092963576 0.058877382 0.65075004
-0.089900009 0.058900002 0.65100002
-0.10105953 0.060635716 0.65300006
-0.096927814 0.061264005 0.65240002
-0.09185195 0.062022619 0.65253329
-0.087708674 0.0622782 0.65130001
-0.083089612 0.062361132 0.65063643
-0.086568482 0.0662563 0.65288895
-0.081928872 0.066719785 0.65284622
-0.076987416 0.066951513 0.65230769
-0.072473913 0.06826134 0.65040004
-0.068404764 0.068714291 0.65000004
-0.06252382 0.069539689 0.65000004
-0.053857148 0.069952384 0.65000004
-0.075626679 0.070653975 0.65266675
-0.071921401 0.071921915 0.65213335
-0.067166232 0.072418258 0.65161544
-0.06212125 0.072435252 0.65176922
-0.057127148 0.072652392 0.65200001
-0.05329429 0.071680956 0.65220004
-0.070843339 0.075192869 0.65250003
-0.066682547 0.075588256 0.65233338
-0.062166907 0.075843573 0.65275002
-0.057837151 0.075250491 0.65300006
-0.12623048 -0.021644194 0.65679997
-0.12261632 -0.021271072 0.65687507
-0.11738593 -0.021476509 0.65677786
-0.11278822 -0.022409018 0.6572001
-0.10787334 -0.021651048 0.65700001
-0.10243221 -0.021784589 0.65690917
-0.097611427 -0.021901272 0.65700006
-0.092855431 -0.021650668 0.65700006
-0.087583929 -0.021270834 0.65687501
-0.082331143 -0.021647334 0.65690005
-0.077667311 -0.021922857 0.65766668
-0.072888486 -0.021666763 0.65750003
-0.06735801 -0.021660285 0.65730006
-0.062840953 -0.021656951 0.65720004
-0.058026832 -0.021082064 0.65750003
-0.052640006 -0.020680001 0.65800005
-0.048253339 -0.020680001 0.65800011
-0.042613335 -0.020680001 0.65800005
-0.092323817 -0.019338097 0.65500003
-0.089204766 -0.019338097 0.65500003
-0.077768266 -0.018922225 0.65500003
-0.073609531 -0.019338097 0.65500003
-0.058014289 -0.019338097 0.65500003
-0.051776193 -0.019338097 0.65500003
-0.04682048 -0.019352859 0.65550005
-0.042160768 -0.019141335 0.65680003
-0.038600355 -0.017661311 0.65637505
-0.14035715 0.044290479 0.65500003
-0.13910954 0.044290479 0.65500003
-0.14106002 0.047089845 0.65633333
-0.13781701 0.047864333 0.65661544
-0.13237418 0.048703931 0.65562505
-0.12912858 0.049280956 0.65500003
-0.14180583 0.05321655 0.65737504
-0.13780089 0.052615415 0.65768754
-0.13277739 0.052610837 0.65762502
-0.12775545 0.052800618 0.65664285
-0.12264139 0.053512916 0.65588897
-0.11852382 0.054271434 0.65500003
-0.1421819 0.056371432 0.65766668
-0.13912001 0.055773336 0.65800005
-0.13348001 0.055773336 0.65800005
-0.12739034 0.05617699 0.6578334
-0.12242033 0.057088416 0.65750003
-0.11755638 0.057529226 0.65656257
-0.1126902 0.058344867 0.65590006
-0.10773583 0.059048574 0.6554001
-0.11593334 0.060786672 0.65800005
-0.11227492 0.061740953 0.65777779
-0.10773715 0.062441532 0.65693337
-0.10277286 0.062998585 0.65600002
-0.097490333 0.063950323 0.65616667
-0.094195247 0.064252384 0.65500003
-0.10277334 0.065800004 0.65800005
-0.096934967 0.067253433 0.65750003
-0.092474356 0.067482322 0.6560626
-0.087976605 0.068545043 0.6551429
-0.08296667 0.069242865 0.65500009
-0.078600004 0.069242865 0.65500003
-0.095880009 0.070813335 0.65800005
-0.092343055 0.071042478 0.65780002
-0.087421373 0.072315797 0.65700001
-0.08255554 0.072550058 0.6566875
-0.0778258 0.072827555 0.65615392
-0.074233338 0.074233338 0.65500003
-0.053811431 0.074460007 0.65700001
-0.081592008 0.076578669 0.65800005
-0.078059629 0.076054297 0.65780008
-0.072753027 0.076090805 0.6566667
-0.067798197 0.078429244 0.65670007
-0.062429294 0.078660235 0.65550011
-0.057286527 0.077839926 0.65546161
-0.052783813 0.077387489 0.65757149
-0.062095456 0.08170519 0.65711117
-0.057744078 0.081867196 0.65709096
-0.053468764 0.081267618 0.65740001
-0.12546477 -0.025849525 0.66200006
-0.12226645 -0.026726143 0.66288894
-0.11707906 -0.026695345 0.66211116
-0.11213905 -0.027091272 0.6615001
-0.10735275 -0.026996538 0.66200018
-0.1021018 -0.026699895 0.66222227
-0.097217016 -0.026530478 0.66100007
-0.092362866 -0.026323095 0.66200006
-0.087723814 -0.025875559 0.66266674
-0.082008936 -0.026495595 0.66237503
-0.077238239 -0.026587892 0.66242868
-0.072229169 -0.026337741 0.66237509
-0.067301437 -0.026289999 0.66250008
-0.062511429 -0.025888573 0.66300005
-0.058091432 -0.025888573 0.66300005
-0.054934289 -0.025888573 0.66300005
-0.043568574 -0.025888573 0.66300005
-0.12556794 -0.02410762 0.6603334
-0.12215156 -0.023927025 0.66112506
-0.11786591 -0.024026288 0.66040009
-0.11062858 -0.024514288 0.66000003
-0.10691048 -0.02410762 0.6603334
-0.10316382 -0.024218574 0.66050005
-0.098057151 -0.024514288 0.66000003
-0.092136674 -0.02409762 0.66150004
-0.087237559 -0.024038371 0.66171438
-0.083173528 -0.024033336 0.66060013
-0.077942863 -0.024514288 0.66000003
-0.072531119 -0.024107303 0.6603334
-0.068374924 -0.024119683 0.6606667
-0.062500328 -0.024120001 0.66066676
-0.057716388 -0.023566669 0.66160005
-0.052960008 -0.023328891 0.66200012
-0.047760006 -0.023129966 0.66184628
-0.042988136 -0.022828573 0.66153854
-0.039389763 -0.021744525 0.66175002
-0.037085716 -0.019485716 0.66000003
-0.14087492 0.058156192 0.66133338
-0.1371306 0.057296664 0.66109997
-0.1320466 0.057753943 0.66109103
-0.12735303 0.058956403 0.66088897
-0.12320001 0.059714291 0.66000003
-0.1433343 0.063774288 0.66300005
-0.12722355 0.061763398 0.66271436
-0.12202594 0.062539496 0.66123086
-0.11724573 0.06321007 0.6608572
-0.11287168 0.064453095 0.66025001
-0.10622858 0.064742863 0.66000003
-0.12155002 0.065984294 0.66300005
-0.11735646 0.067429885 0.66281825
-0.11249133 0.067074828 0.66233343
-0.10696563 0.067663126 0.66172737
-0.10245588 0.068269536 0.6606667
-0.099188574 0.06826286 0.66000003
-0.10608001 0.070720002 0.66300005
-0.10191076 0.071815521 0.6622858
-0.097002029 0.072437026 0.66137499
-0.09219072 0.073784053 0.66075003
-0.088628575 0.074800007 0.66000003
-0.052171431 0.074800007 0.66000003
-0.095766678 0.075560957 0.66300005
-0.091953248 0.077268921 0.66254556
-0.087304763 0.077605538 0.66140008
-0.083663665 0.077583022 0.66050011
-0.077574648 0.078361318 0.66087508
-0.073136024 0.078740522 0.66045451
-0.05154286 0.079828575 0.66000003
-0.089031436 0.080191433 0.66300005
-0.08107762 0.080446675 0.66250002
-0.077358261 0.080931596 0.66216677
-0.072317913 0.081910297 0.66260004
-0.067818291 0.082316384 0.66180009
-0.063814871 0.083953157 0.66080004
-0.057469528 0.084631436 0.66020006
-0.053588577 0.083853349 0.66200006
-0.12224144 -0.031196669 0.66850007
-0.11763652 -0.03115778 0.66766679
-0.11239851 -0.031712789 0.66785723
-0.10724889 -0.031582542 0.66766679
-0.10262899 -0.031726126 0.66814297
-0.097679332 -0.031712793 0.66785729
-0.092884764 -0.031598099 0.6680001
-0.087727152 -0.031150002 0.66750002
-0.08270286 -0.031173335 0.6680001
-0.077731431 -0.031220002 0.66900003
-0.070722863 -0.031220002 0.66900003
-0.067537151 -0.031220002 0.66900003
-0.12267087 -0.029304763 0.66600001
-0.11817267 -0.029249391 0.66557145
-0.11285977 -0.02980024 0.66575003
-0.10731848 -0.029522289 0.66520005
-0.10271212 -0.029230209 0.66514289
-0.097606674 -0.029155716 0.66549999
-0.092707522 -0.028975662 0.66622221
-0.087344624 -0.02833553 0.66569233
-0.082425483 -0.029166671 0.66574997
-0.077454887 -0.029205358 0.66662502
-0.072476409 -0.029005716 0.66688895
-0.067030571 -0.028819526 0.66650003
-0.062461432 -0.028312478 0.66650003
-0.057150479 -0.027941193 0.66675001
-0.05185983 -0.02717204 0.66627276
-0.047148425 -0.027998833 0.66692305
-0.042545352 -0.028089676 0.66676921
-0.038368575 -0.026578372 0.66671437
-0.034353334 -0.026083812 0.66800004
-0.041166671 -0.024700001 0.66500002
-0.03714871 -0.022923538 0.66600007
-0.033904284 -0.023943972 0.66750002
-0.13743334 0.058900002 0.66500002
-0.14170624 0.062139932 0.66630769
-0.13714746 0.062224817 0.66668743
-0.13238031 0.062553622 0.66653848
-0.12755589 0.064094931 0.66633338
-0.14123429 0.066164769 0.66800004
-0.13765593 0.066143826 0.6687144
-0.13205929 0.066348575 0.66825002
-0.12702134 0.066948585 0.66820008
-0.12344298 0.067928225 0.66812509
-0.11843334 0.06903334 0.66500002
-0.11215683 0.06906794 0.66533339
-0.10956667 0.06903334 0.66500002
-0.12042001 0.070722863 0.66900003
-0.11721239 0.071855351 0.66766667
-0.11266236 0.072413474 0.6673333
-0.10816105 0.072604053 0.66674995
-0.10313486 0.073958099 0.66600001
-0.098800004 0.074100003 0.66500002
-0.10640286 0.075820006 0.66900003
-0.10201938 0.077134714 0.66811121
-0.097989544 0.077673189 0.66666663
-0.094508573 0.078652382 0.66600001
-0.091926679 0.080513977 0.6656667
-0.11233334 -0.035304762 0.67400002
-0.10739201 -0.03554057 0.67360002
-0.10463049 -0.035304762 0.67400002
-0.082163818 -0.035304762 0.67400002
-0.078954294 -0.035304762 0.67400002
-0.12187267 -0.033373065 0.67200005
-0.11743484 -0.033176329 0.67171443
-0.11285581 -0.033614289 0.671
-0.10775985 -0.033435717 0.67083335
-0.10239544 -0.033705141 0.6728
-0.096779056 -0.033624381 0.67120004
-0.092480004 -0.033600952 0.67200005
-0.087520383 -0.032838475 0.67080003
-0.08257322 -0.03328798 0.67212498
-0.077722758 -0.032784127 0.67200005
-0.072878331 -0.03228524 0.67124999
-0.067522861 -0.033168849 0.67157149
-0.062643342 -0.032338098 0.67233336
-0.057851434 -0.031239791 0.67244446
-0.052348405 -0.031270478 0.67254543
-0.047704443 -0.032337941 0.67233324
-0.042207383 -0.031977147 0.67150003
-0.037509289 -0.031258814 0.67324996
-0.061895244 -0.029990477 0.67000002
-0.05806667 -0.029990477 0.67000002
-0.0542381 -0.028714288 0.67000002
-0.040200002 -0.029990477 0.67000002
-0.036948577 -0.02855619 0.67057151
-0.033894762 -0.028139524 0.67150003
-0.14090335 0.069172859 0.67250001
-0.13779226 0.06873703 0.67137504
-0.13316703 0.068819404 0.67062503
-0.12855105 0.069062673 0.67020005
-0.13635319 0.072125569 0.67216671
-0.13277505 0.07221543 0.67220008
-0.12790525 0.072266996 0.67149997
-0.12269714 0.07285279 0.67100006
-0.11786363 0.074446484 0.67040008
-0.12222001 -0.040740002 0.67900002
-0.12154792 -0.037382957 0.67670006
-0.11747576 -0.037270542 0.67699993
-0.11222116 -0.038054481 0.67720002
-0.10754165 -0.038155328 0.67690915
-0.10253756 -0.037407082 0.67714292
-0.097591273 -0.036636282 0.67700005
-0.092719235 -0.036656022 0.67736369
-0.08776138 -0.037429944 0.67756248
-0.082734853 -0.037394211 0.67691672
-0.077214979 -0.036880258 0.6771819
-0.072211519 -0.036723375 0.67863637
-0.066876374 -0.036538094 0.67780006
-0.061896197 -0.037076037 0.67700005
-0.057698335 -0.037072465 0.67691672
-0.053075239 -0.036656022 0.67736369
-0.047935028 -0.036329318 0.67711109
-0.042903539 -0.036076061 0.67814291
-0.037074476 -0.035783436 0.67820001
-0.032756034 -0.035989054 0.67883337
-0.090642862 -0.034071431 0.67500001
-0.088071436 -0.034071431 0.67500007
-0.076500006 -0.034071431 0.67500001
-0.072214298 -0.034071431 0.67500007
-0.062357146 -0.034071431 0.67500001
-0.05742858 -0.033642858 0.67500007
-0.053100001 -0.033814289 0.67500001
-0.04564286 -0.034071431 0.67500001
-0.042443577 -0.034084052 0.67524999
-0.036674425 -0.033365577 0.6755715
-0.033095907 -0.032454576 0.67610002
-0.05602286 -0.046251431 0.68400002
-0.053634293 -0.046685718 0.68400002
-0.12100215 -0.042498812 0.68125004
-0.11793153 -0.041871432 0.68209094
-0.11218049 -0.041661434 0.68350005
-0.1075426 -0.041478373 0.68200004
-0.10403937 -0.041314289 0.68133342
-0.09723302 -0.041454293 0.68366671
-0.09231247 -0.042256113 0.68258333
-0.087306157 -0.042147364 0.68272734
-0.082221232 -0.041715376 0.68285728
-0.077525407 -0.041979365 0.68277788
-0.072711214 -0.042487331 0.68307698
-0.068074293 -0.042287797 0.68309098
-0.061810963 -0.041641116 0.68316674
-0.057205416 -0.042906608 0.68256247
-0.052311089 -0.042742118 0.68292862
-0.047786672 -0.041537147 0.68360007
-0.042978808 -0.041025005 0.68375003
-0.037782859 -0.041040003 0.68400002
-0.033222862 -0.041040003 0.68400002
-0.11592381 -0.039504763 0.68000001
-0.11462858 -0.039504763 0.68000001
-0.10038096 -0.039504763 0.68000001
-0.0973882 -0.039292194 0.68080008
-0.09260954 -0.039504763 0.68000001
-0.081600003 -0.039504763 0.68000001
-0.07777001 -0.039533813 0.68050003
-0.073051058 -0.039315429 0.68120003
-0.067917787 -0.03915048 0.68133342
-0.062881909 -0.039543495 0.68066669
-0.055695243 -0.039504763 0.68000001
-0.052170955 -0.039210003 0.68050003
-0.047705855 -0.038999461 0.68085724
-0.04262371 -0.038730796 0.68155563
-0.037838966 -0.038431522 0.68181825
-0.032415241 -0.038625188 0.68222225
-0.11720835 -0.04639262 0.68850011
-0.11259663 -0.046434373 0.68845463
-0.10806762 -0.046080954 0.68875003
-0.10039715 -0.045277145 0.68900001
-0.097022228 -0.045889527 0.68833339
-0.092627078 -0.045707624 0.68700004
-0.088175081 -0.045616038 0.6875
-0.082261644 -0.045764495 0.68785727
-0.077022187 -0.045764495 0.68785727
-0.072049528 -0.046506427 0.6877501
-0.067750864 -0.045736384 0.68800002
-0.062511243 -0.045473907 0.68800014
-0.058930002 -0.046488099 0.6875
-0.05030667 -0.045080002 0.68600005
-0.047192141 -0.045227859 0.68825006
-0.041996196 -0.045277145 0.68900001
-0.03736667 -0.045233335 0.68833339
-0.033465713 -0.045277145 0.68900001
-0.11613175 -0.043359052 0.68633342
-0.11257029 -0.043537527 0.68640012
-0.10737953 -0.043869048 0.6875
-0.10219398 -0.043049 0.68833339
-0.097709291 -0.043462623 0.68625009
-0.085586675 -0.043773334 0.68600005
-0.082320005 -0.043773334 0.68600005
-0.079053335 -0.043773334 0.68600005
-0.066689052 -0.043805242 0.68650007
-0.063435242 -0.043162227 0.68666673
-0.05030667 -0.043773334 0.68600005
-0.046615399 -0.043348417 0.68616676
-0.042476669 -0.043130636 0.6861667
-0.037907146 -0.043135956 0.68625003
-0.032484975 -0.042951643 0.68677777
-0.029528573 -0.042652383 0.68900001
-0.11516667 -0.050673336 0.69100004
-0.11265644 -0.051058814 0.69175005
-0.10868795 -0.050722227 0.69166672
-0.10244763 -0.050893337 0.69400001
-0.097820953 -0.050893337 0.69400001
-0.091211438 -0.050893337 0.69400001
-0.08768636 -0.051333975 0.69400001
-0.082619056 -0.050893337 0.69400001
-0.077331439 -0.050893337 0.69400001
-0.073365718 -0.050893337 0.69400001
-0.11602834 -0.048974998 0.69025004
-0.11237144 -0.049285721 0.69000006
-0.1073368 -0.048491072 0.69037503
-0.1027646 -0.04750286 0.69080013
-0.097695448 -0.04852064 0.69155562
-0.092217036 -0.048744649 0.691625
-0.087129533 -0.048358731 0.69133335
-0.082903698 -0.048362501 0.69087499
-0.077887416 -0.048488889 0.69111109
-0.072879851 -0.048954766 0.69150007
-0.066884637 -0.047884088 0.69142872
-0.062062223 -0.048289951 0.6924445
-0.057689287 -0.048458338 0.69225001
-0.051861715 -0.047639623 0.69279999
-0.047091909 -0.047311913 0.69316667
-0.042195007 -0.047469527 0.69225001
-0.037510481 -0.047383498 0.69099998
-0.03279686 -0.047023337 0.69150001
-0.02873905 -0.04683293 0.69257152
-0.028914288 -0.044028573 0.69000006
-0.091737151 -0.055175241 0.69800001
-0.087653577 -0.055115957 0.69725001
-0.083760008 -0.055175241 0.69800001
-0.077112384 -0.055175241 0.69800001
-0.11583334 -0.052290481 0.69500005
-0.11246222 -0.05236572 0.69600004
-0.10709588 -0.051999684 0.69700003
-0.10257443 -0.053042993 0.69742858
-0.097212628 -0.05258977 0.69675004
-0.092858739 -0.05250572 0.695889
-0.086930171 -0.053173017 0.69500011
-0.081973344 -0.052808888 0.69600004
-0.077222452 -0.053157154 0.69642866
-0.072748095 -0.052367151 0.6960001
-0.067757145 -0.051814765 0.69749999
-0.062462013 -0.051991116 0.69688892
-0.057806037 -0.051162224 0.69766665
-0.05118667 -0.05118667 0.69800001
-0.047450863 -0.051437903 0.69780004
-0.042499766 -0.051796433 0.69725001
-0.037181072 -0.051787026 0.69712502
-0.032557465 -0.051826991 0.69766665
-0.029228576 -0.051814765 0.69749999
-0.067293659 -0.049642861 0.69500005
-0.064204767 -0.049642861 0.69500005
-0.057004765 -0.04971429 0.69600004
-0.051851429 -0.049857147 0.69800001
-0.048179846 -0.049284928 0.69616669
-0.042361908 -0.049642861 0.69500005
-0.037066668 -0.049642861 0.69500005
-0.032463178 -0.049690481 0.69566673
-0.028489208 -0.049249213 0.69566673
-0.11129905 -0.061013337 0.70400006
-0.11197979 -0.057510626 0.70276928
-0.10723703 -0.057703942 0.70286679
-0.10264572 -0.056745339 0.70260006
-0.097647242 -0.05685088 0.70225
-0.092448965 -0.057799429 0.70240003
-0.087400004 -0.058195882 0.70233339
-0.082315803 -0.057590719 0.70175004
-0.077712312 -0.057451509 0.70141673
-0.072257429 -0.056603152 0.70250005
-0.067239061 -0.05754064 0.70250005
-0.063096985 -0.056968894 0.70233339
-0.057620957 -0.055610001 0.70350003
-0.051978368 -0.056190345 0.7035715
-0.047570005 -0.056280479 0.70350003
-0.042879999 -0.056280479 0.70350003
-0.037474647 -0.0562106 0.70262504
-0.031761192 -0.056948345 0.70208347
-0.027865397 -0.057293553 0.70222229
-0.11133334 -0.054000005 0.70000005
-0.10733335 -0.054000005 0.70000005
-0.10066667 -0.054000005 0.70000005
-0.099333338 -0.054000005 0.70000005
-0.070666671 -0.054000005 0.70000005
-0.067333341 -0.054000005 0.70000005
-0.062473338 -0.054025721 0.70033336
-0.056966096 -0.052830856 0.70040005
-0.052479312 -0.052722249 0.7007274
-0.04762743 -0.053497531 0.70040005
-0.04266667 -0.054000005 0.70000005
-0.037360955 -0.054038577 0.70050001
-0.032682858 -0.054025721 0.70033336
-0.027519051 -0.052203812 0.70050001
-0.026000002 -0.048666671 0.70000005
-0.11514001 -0.061273336 0.70700002
-0.11293429 -0.06217429 0.70500004
-0.10762117 -0.062064767 0.70577782
-0.10236513 -0.061957743 0.70712495
-0.097326949 -0.062093481 0.70757145
-0.092687353 -0.061888441 0.70742857
-0.087488219 -0.06191441 0.70662498
-0.082101792 -0.061914414 0.70662498
-0.078780003 -0.061273336 0.70700002
-0.073497146 -0.060011432 0.70800006
-0.067162476 -0.061508384 0.70660007
-0.062559687 -0.061215561 0.70633334
-0.057926435 -0.061295003 0.70725
-0.051920008 -0.060011432 0.70800006
-0.048144002 -0.061360009 0.708
-0.04203048 -0.061809532 0.70800006
-0.037085719 -0.060910478 0.70800006
-0.033040002 -0.060011432 0.70800006
-0.1148143 -0.059757147 0.70500004
-0.10205714 -0.059757147 0.70500004
-0.097357154 -0.059757151 0.7050001
-0.094000012 -0.059757147 0.70500004
-0.077214293 -0.059757147 0.70500004
-0.071909532 -0.058918417 0.70566672
-0.069353335 -0.05992667 0.70700002
-0.061547622 -0.059309527 0.7050001
-0.057810329 -0.058484286 0.70583332
-0.053143814 -0.058525398 0.70633334
-0.04745619 -0.059019245 0.70580006
-0.042735111 -0.059062451 0.70585716
-0.037934288 -0.059062455 0.70585716
-0.034242861 -0.058414288 0.70500004
-0.10132001 -0.065960005 0.71400005
-0.097538874 -0.066973716 0.71320009
-0.092483282 -0.066815138 0.71344453
-0.087998107 -0.066253811 0.71350002
-0.082505532 -0.066195048 0.71360004
-0.078880005 -0.065960005 0.71400005
-0.046876829 -0.065898418 0.71333337
-0.04282064 -0.065929219 0.7136668
-0.1071381 -0.064419046 0.71200001
-0.10292573 -0.064328574 0.71100003
-0.097508579 -0.064328574 0.71100003
-0.092091434 -0.064328574 0.71100003
-0.087351434 -0.064328574 0.71100008
-0.082552858 -0.064283341 0.7105
-0.076995805 -0.062885627 0.71125007
-0.072284386 -0.063200951 0.71200007
-0.068077385 -0.063336432 0.71125001
-0.061923623 -0.063281715 0.71139997
-0.056971274 -0.063757621 0.71216673
-0.052632641 -0.062852725 0.71100003
-0.046844557 -0.063085824 0.71055555
-0.0429154 -0.063472226 0.71150005
-0.037918098 -0.062523179 0.71099997
-0.03301651 -0.06218826 0.71233338
-0.026714129 -0.061354451 0.71316671
-0.02542905 -0.057978574 0.71200007
-0.023766669 -0.059077147 0.71300006
-0.10785001 -0.070872858 0.71900004
-0.10234029 -0.071061365 0.71842867
-0.097740643 -0.070399694 0.71766675
-0.094234288 -0.070334293 0.71700001
-0.10725842 -0.067636199 0.71733338
-0.10292858 -0.06788604 0.7167778
-0.098876201 -0.068872385 0.71600002
-0.092596829 -0.068936519 0.7166667
-0.087164916 -0.06842532 0.71742862
-0.082511753 -0.068610169 0.71800005
-0.077338099 -0.067777254 0.71722227
-0.072643615 -0.067180112 0.71733338
-0.067319326 -0.067125313 0.71814287
-0.062728696 -0.067173935 0.717875
-0.057516411 -0.06724254 0.71800005
-0.053298578 -0.066283338 0.71750003
-0.04771103 -0.0678128 0.71714294
-0.04248558 -0.067879878 0.71785718
-0.037609525 -0.067014292 0.71800005
-0.032868575 -0.066421911 0.71900004
-0.029444763 -0.065052383 0.71900004
-0.066826671 -0.064780958 0.71600002
-0.063417152 -0.064780965 0.71600002
-0.059325717 -0.064780958 0.71600002
-0.040232383 -0.064780958 0.71600002
-0.037557147 -0.06487143 0.71700001
-0.03252032 -0.063901901 0.71633339
-0.027314289 -0.063505717 0.71700001
-0.10535143 -0.075742856 0.72300005
-0.041314289 -0.075054288 0.72300005
-0.03718286 -0.075054288 0.72300005
-0.033740003 -0.075054288 0.72300005
-0.11040001 -0.070628576 0.72000003
-0.10666128 -0.073245406 0.72100008
-0.10310781 -0.073453724 0.7208001
-0.097093664 -0.072592393 0.72133338
-0.092114858 -0.072456576 0.72180003
-0.087613441 -0.07207381 0.72210008
-0.082485959 -0.072176903 0.72175014
-0.077404007 -0.072181724 0.72180015
-0.072606124 -0.071428984 0.72214293
-0.067433335 -0.071562387 0.72250003
-0.06276644 -0.072054058 0.7222501
-0.058123272 -0.07149905 0.72285724
-0.052331433 -0.070922859 0.72300005
-0.047511436 -0.070922866 0.72300005
-0.042272288 -0.072152473 0.72290009
-0.037166033 -0.072266981 0.72266674
-0.032342963 -0.072255976 0.72255564
-0.028388456 -0.072090842 0.72262508
-0.072000012 -0.069257155 0.72000003
-0.067200005 -0.069257148 0.72000003
-0.061714292 -0.069257148 0.72000003
-0.057475559 -0.069385402 0.72133338
-0.052376911 -0.068519287 0.72125006
-0.048820954 -0.069449529 0.72200006
-0.041257143 -0.069449529 0.72200006
-0.037785403 -0.069385402 0.72133338
-0.032696087 -0.067907095 0.72022229
-0.027996361 -0.067404509 0.72018194
-0.10233395 -0.077020526 0.72736371
-0.097345032 -0.077437669 0.72772729
-0.092707358 -0.07719171 0.72642857
-0.087696664 -0.077327155 0.72600001
-0.082782343 -0.076624587 0.72600001
-0.077554375 -0.076865166 0.72708338
-0.072277233 -0.077068582 0.72781825
-0.067493528 -0.07678058 0.72760004
-0.062349766 -0.076899767 0.72741669
-0.05769036 -0.07674893 0.72762501
-0.053010348 -0.076198101 0.72828585
-0.047189847 -0.076336831 0.72866672
-0.04254942 -0.07732974 0.72711116
-0.038030483 -0.076290175 0.72600001
-0.032036193 -0.076287627 0.72600001
-0.029000003 -0.075261913 0.72500002
-0.10011905 -0.073880956 0.72500002
-0.098738104 -0.073880956 0.72500002
-0.075261913 -0.073880956 0.72500002
-0.072500005 -0.073880956 0.72500008
-0.067666665 -0.073880956 0.72500002
-0.060761906 -0.073880956 0.72500002
-0.056964289 -0.073535718 0.72500002
-0.052494287 -0.073215954 0.72524995
-0.047665082 -0.073224455 0.72533339
-0.044880956 -0.07319048 0.72500002
-0.10541239 -0.080980003 0.73300004
-0.10257398 -0.081641704 0.73266673
-0.097811922 -0.081789248 0.73149997
-0.092243217 -0.082132027 0.73237497
-0.087414615 -0.081138737 0.73233342
-0.082442865 -0.08084885 0.73271441
-0.077382863 -0.080171436 0.73200005
-0.072004139 -0.080600329 0.73166668
-0.066678219 -0.08151798 0.73312497
-0.06284786 -0.08030834 0.73325002
-0.058020961 -0.080390483 0.73400009
-0.056391433 -0.078669526 0.73100001
-0.052520957 -0.078434102 0.73140001
-0.047785338 -0.078434102 0.73140001
-0.027961906 -0.078992389 0.73400003
-0.023534607 -0.078060322 0.73400009
-0.10195905 -0.086490482 0.7383334
-0.09853334 -0.086568579 0.73900002
-0.091495246 -0.086568579 0.73900002
-0.085864767 -0.085160956 0.73900002
-0.080938101 -0.085160956 0.73900002
-0.077316195 -0.086451441 0.73800004
-0.073700003 -0.086334288 0.73700005
-0.061065719 -0.086334288 0.73700005
-0.10233905 -0.084815241 0.73600006
-0.097432397 -0.084815249 0.73600006
-0.092589527 -0.084872857 0.73650002
-0.087970868 -0.084042862 0.7366001
-0.082662098 -0.083223626 0.73680001
-0.07715746 -0.083470657 0.73650014
-0.072714455 -0.083704293 0.73650002
-0.069113657 -0.083172709 0.73800009
-0.062413018 -0.082749844 0.73633337
-0.057563145 -0.082836874 0.73710006
-0.052666672 -0.082161911 0.73733336
-0.04805769 -0.081368715 0.73742861
-0.043518096 -0.080719054 0.73700005
-0.03589429 -0.080938101 0.73900002
-0.031671431 -0.080938101 0.73900002
-0.028152384 -0.080938101 0.73900002
-0.023225715 -0.080938101 0.73900002
-0.030140955 -0.079207622 0.73600006
-0.02593524 -0.079207622 0.73600006
-0.021740574 -0.078689538 0.73640007
-0.017417666 -0.07739152 0.73690909
-0.014753334 -0.077980645 0.73766673
-0.10118953 -0.091282859 0.74300003
-0.099774294 -0.091282859 0.74300003
-0.10176048 -0.089040957 0.74200004
-0.09738259 -0.088098779 0.74171436
-0.093044132 -0.088570163 0.74200004
-0.087284677 -0.087993048 0.74150002
-0.08273723 -0.087746583 0.7413637
-0.078256994 -0.08886461 0.74250007
-0.072112709 -0.087195888 0.74233335
-0.06784001 -0.08550667 0.74200004
-0.060147624 -0.087037146 0.74300003
-0.057553913 -0.086118869 0.74240011
-0.052027095 -0.086398318 0.74155557
-0.047378574 -0.086802147 0.74250007
-0.042972859 -0.086477384 0.74275005
-0.026889525 -0.085621908 0.74300003
-0.050038099 -0.083866671 0.74000001
-0.046962384 -0.083684288 0.74150008
-0.042693473 -0.083471984 0.74185723
-0.038211431 -0.084206671 0.74300003
-0.032497145 -0.083359286 0.74175006
-0.027326262 -0.082988851 0.74114299
-0.022741525 -0.082636379 0.7416001
-0.01748405 -0.082477383 0.74175006
-0.014375558 -0.081774928 0.74233341
-0.013390477 -0.079638101 0.74000001
-0.10088667 -0.093072385 0.74600005
-0.09740752 -0.091721386 0.74655563
-0.092278108 -0.091745004 0.74675
-0.087658785 -0.092129543 0.74657148
-0.082442388 -0.092394061 0.74625009
-0.077177726 -0.091108389 0.74620008
-0.072553933 -0.091048464 0.74687505
-0.067554936 -0.091022544 0.74666679
-0.062678695 -0.091169648 0.74787509
-0.057677463 -0.091144457 0.74766672
-0.052680954 -0.091124289 0.74750006
-0.047697626 -0.091124296 0.74750006
-0.043134291 -0.090684772 0.74740005
-0.022083811 -0.090472385 0.74800003
-0.070952386 -0.088690482 0.74500006
-0.067404769 -0.087980971 0.74500006
-0.063064292 -0.088435732 0.74683344
-0.057232384 -0.088514298 0.74650002
-0.053214289 -0.088690482 0.74500006
-0.047538098 -0.088690482 0.74500006
-0.041507147 -0.088335723 0.74500006
-0.037863694 -0.087285362 0.74662507
-0.032718889 -0.08748778 0.74683344
-0.027953746 -0.087930351 0.74714297
-0.022953682 -0.087356627 0.74681824
-0.017797621 -0.086852871 0.74750006
-0.013294445 -0.086653814 0.74783343
-0.036185715 -0.08443334 0.74500006
-0.020576192 -0.08443334 0.74500006
-0.019157143 -0.08443334 0.74500006
-0.013197144 -0.083865725 0.74500006
-0.10071429 -0.095000006 0.75000006
-0.097257346 -0.096400388 0.75200003
-0.092429847 -0.096012384 0.75233334
-0.087288812 -0.095874526 0.75125003
-0.082581915 -0.095750675 0.75140005
-0.075300008 -0.095380008 0.75300002
-0.072431438 -0.095380008 0.75300002
-0.067501716 -0.095590867 0.7524001
-0.062022101 -0.095826291 0.75200003
-0.057258576 -0.095190004 0.75150001
-0.05303286 -0.095316678 0.75250006
-0.048048578 -0.095380008 0.75300002
-0.026944086 -0.095994696 0.75300002
-0.022545239 -0.095548108 0.75150007
-0.01720643 -0.095348343 0.75275004
-0.092142865 -0.093571432 0.75000006
-0.077245712 -0.093696192 0.75100005
-0.072208256 -0.093654603 0.75066674
-0.067142859 -0.093571432 0.75000006
-0.06214286 -0.093571439 0.75000012
-0.057142861 -0.093571432 0.75000006
-0.052281909 -0.093820959 0.75200003
-0.047251672 -0.093789764 0.75175005
-0.042264607 -0.0931262 0.75216675
-0.037236478 -0.092091329 0.75190014
-0.032223601 -0.092376836 0.75188893
-0.027191905 -0.092308268 0.75133342
-0.022156669 -0.09238334 0.75050002
-0.017604001 -0.092459232 0.75139993
-0.012873716 -0.091980763 0.75100005
-0.036428574 -0.089285724 0.75000006
-0.020714287 -0.089285724 0.75000006
-0.017857146 -0.089285724 0.75000012
-0.012380953 -0.088809535 0.75000012
-0.098900959 -0.10612001 0.75800002
-0.097531863 -0.10266201 0.75733334
-0.093020417 -0.10105634 0.75714284
-0.085906669 -0.10034477 0.75800002
-0.052605085 -0.1008889 0.75666666
-0.048270002 -0.1005062 0.75650001
-0.032429844 -0.10016826 0.75666666
-0.096592069 -0.099468261 0.75500005
-0.092757151 -0.098509535 0.75500005
-0.087810248 -0.098607384 0.75575006
-0.082577392 -0.098443575 0.75725007
-0.078107029 -0.09682513 0.75587505
-0.072623812 -0.097071432 0.75500005
-0.068353817 -0.097135723 0.75550008
-0.052433204 -0.09776029 0.75714284
-0.04720724 -0.097868398 0.75560004
-0.042685993 -0.096789673 0.7560001
-0.037162293 -0.096938491 0.75620002
-0.032371432 -0.097114936 0.75533336
-0.029026985 -0.098117158 0.75566673
