# .PCD v0.7 - Point Cloud Data file format
VERSION 0.7
FIELDS x y z
SIZE 4 4 4
TYPE F F F
COUNT 1 1 1
WIDTH 1322
HEIGHT 1
VIEWPOINT 0 0 0 1 0 0 0
POINTS 1322
DATA ascii
-0.097049534 0.073234297 0.66100001
-0.093100242 0.071324527 0.66275007
-0.10604025 0.075743102 0.66275007
-0.10215025 0.077244066 0.66208351
-0.097089529 0.077100076 0.66230774
-0.094082862 0.075140007 0.66300005
-0.10102858 0.080191433 0.66300005
-0.099134289 0.080191433 0.66300005
-0.14718001 -0.03504286 0.66900003
-0.14463145 -0.03504286 0.66900003
-0.15138572 -0.031597149 0.66619998
-0.14748493 -0.032422066 0.66750002
-0.14259927 -0.031996086 0.66744453
-0.13741715 -0.031810477 0.6680001
-0.13232762 -0.031810477 0.66799998
-0.12732629 -0.031418856 0.66780007
-0.12233144 -0.031220002 0.66900003
-0.11723429 -0.031220002 0.66900003
-0.11022572 -0.031220002 0.66900003
-0.10512858 -0.031220002 0.66900003
-0.10215525 -0.031220002 0.66900003
-0.09748286 -0.031220002 0.66900003
-0.09174858 -0.031220002 0.66900003
-0.087925717 -0.031220002 0.66900003
-0.082765244 -0.031196669 0.66850007
-0.077731431 -0.031220002 0.66900003
-0.073908575 -0.031220002 0.66900003
-0.15116334 -0.029472385 0.66550004
-0.14715478 -0.029177859 0.66600001
-0.14250001 -0.029766669 0.66500008
-0.13729018 -0.029570479 0.66533339
-0.13254061 -0.029172026 0.66587502
-0.12749018 -0.028966567 0.66600007
-0.12248109 -0.028175926 0.66585714
-0.11792373 -0.028531143 0.66569996
-0.11300775 -0.029205836 0.66662496
-0.10780799 -0.029172502 0.66587496
-0.10275619 -0.029242998 0.66542858
-0.097396582 -0.028788764 0.66579998
-0.092733577 -0.028583577 0.66691673
-0.087406807 -0.028199866 0.66642869
-0.082446598 -0.028540399 0.66591668
-0.0774232 -0.028197218 0.66635716
-0.072536394 -0.02782312 0.66693336
-0.067589335 -0.027571622 0.667
-0.061999474 -0.027440319 0.66655558
-0.057175238 -0.026862014 0.66622227
-0.051659435 -0.026276192 0.66640002
-0.046816479 -0.027098954 0.66790009
-0.042214967 -0.027750075 0.66871434
-0.046279691 -0.024724763 0.6656667
-0.04179626 -0.022911431 0.667
-0.045433976 -0.016694285 0.6656667
-0.042792227 -0.01821762 0.66733336
-0.046211429 -0.012518616 0.66636366
-0.043962859 -0.013380001 0.66900003
-0.050368816 -0.0066521433 0.66525
-0.047559053 -0.0079438109 0.66733336
-0.1675282 -0.0016478095 0.66580003
-0.051265825 -0.0024730163 0.66822225
-0.048067622 -0.0041380958 0.66850001
-0.16689704 0.0020498415 0.66744447
-0.16335303 0.0035930162 0.6656667
-0.055224288 0.0038090479 0.66650003
-0.053501721 0.0026681907 0.66720003
-0.16502002 0.0070085726 0.66900003
-0.16226469 0.0078795245 0.66710007
-0.15896668 0.0095000006 0.66500002
-0.056710564 0.0080418251 0.66658342
-0.054076195 0.0063628578 0.66800004
-0.16119716 0.01083143 0.66900003
-0.15784012 0.012913336 0.66677785
-0.15347779 0.014144446 0.66500008
-0.060890958 0.013954762 0.66600001
-0.057319432 0.012584064 0.66726667
-0.15636922 0.016337462 0.66833341
-0.15294771 0.018174374 0.66636366
-0.065331429 0.019662859 0.66600001
-0.061913062 0.017949661 0.66628575
-0.058489718 0.016693143 0.66900009
-0.15132275 0.022632111 0.6680001
-0.14836451 0.023474423 0.66614288
-0.065903135 0.023116464 0.66628575
-0.062671676 0.02237675 0.66808343
-0.1469219 0.027579915 0.66781825
-0.14330326 0.028761907 0.6652
-0.066076316 0.027956551 0.66712505
-0.14546953 0.031126669 0.66700006
-0.14241707 0.03322389 0.6665833
-0.13919176 0.033584129 0.66533339
-0.070828579 0.034463495 0.66600007
-0.067467384 0.03286048 0.66675007
-0.14216857 0.03729238 0.66820014
-0.13752265 0.037852596 0.66611117
-0.071604766 0.037497781 0.66733348
-0.068174288 0.03504286 0.66900003
-0.13708739 0.041739292 0.66741675
-0.075366668 0.044966668 0.66500002
-0.073188819 0.042005002 0.66825008
-0.13600096 0.045616832 0.66833341
-0.13259953 0.047371905 0.66616666
-0.12920001 0.048766669 0.66500002
-0.074046671 0.045616828 0.66833341
-0.13084991 0.051247627 0.6676001
-0.12769602 0.052425146 0.66640002
-0.12476668 0.053200003 0.66500002
-0.07845477 0.052410003 0.667
-0.12644263 0.056781672 0.66800004
-0.1233456 0.057234887 0.66587502
-0.085500002 0.058900002 0.66500002
-0.081922524 0.057561476 0.66681826
-0.079642862 0.055431433 0.66900003
-0.12180869 0.062335357 0.66787511
-0.11927779 0.062700003 0.66500008
-0.085779056 0.062465914 0.6652
-0.084307812 0.061928768 0.6676001
-0.12042001 0.06562572 0.66900003
-0.11744191 0.067182675 0.66800004
-0.11392449 0.06788341 0.66614282
-0.090566672 0.06903334 0.66500002
-0.087483667 0.067361474 0.66676933
-0.11659715 0.071678579 0.66900003
-0.11292652 0.072368883 0.667
-0.10973144 0.074211434 0.66600001
-0.091956295 0.072931722 0.66590005
-0.088883176 0.072338 0.66822231
-0.11181366 0.076169215 0.66833341
-0.10798933 0.077519484 0.66655558
-0.1045 0.079166673 0.66500002
-0.095633343 0.079166673 0.66500002
-0.092878975 0.077442199 0.66692311
-0.089837149 0.075820006 0.66900003
-0.097533099 0.082569152 0.66586673
-0.14623192 -0.035760477 0.67050004
-0.14246573 -0.036419138 0.67300004
-0.13741335 -0.035540577 0.67360002
-0.13203429 -0.035252385 0.67300004
-0.12709716 -0.035304762 0.67400002
-0.12196191 -0.035304762 0.67400002
-0.11233334 -0.035304762 0.67400002
-0.085373342 -0.035304762 0.67400002
-0.082163818 -0.035304762 0.67400002
-0.077242553 -0.035304762 0.67400002
-0.14243621 -0.033852704 0.67066669
-0.13798264 -0.033856906 0.67075002
-0.13282287 -0.033844288 0.67050004
-0.12742381 -0.033416189 0.67150003
-0.12239675 -0.033133067 0.67085719
-0.1175844 -0.032848191 0.671
-0.11266166 -0.032713242 0.6710909
-0.10773828 -0.032771695 0.67227268
-0.10233103 -0.03283143 0.67214286
-0.097047389 -0.032937143 0.67150003
-0.092621081 -0.033115834 0.671875
-0.087678097 -0.033281907 0.67199993
-0.082467385 -0.033244051 0.67124999
-0.077380002 -0.033256669 0.67149997
-0.072413757 -0.032762751 0.67155564
-0.067692317 -0.032444838 0.67200005
-0.062903821 -0.031576779 0.67238456
-0.057692625 -0.031411983 0.67308331
-0.0526108 -0.031438418 0.6736666
-0.047402672 -0.031389337 0.67260003
-0.042222857 -0.031989284 0.67175001
-0.038222861 -0.030963175 0.67266673
-0.070828579 -0.029990477 0.67000002
-0.068276197 -0.029990477 0.67000002
-0.064447626 -0.028714288 0.67000002
-0.057215881 -0.02871429 0.67000002
-0.052665312 -0.02820381 0.67085719
-0.047480002 -0.029168256 0.67066669
-0.0408381 -0.029990477 0.67000002
-0.037857242 -0.027754763 0.67150009
-0.038134605 -0.023080425 0.67111117
-0.040746864 -0.01698762 0.67060006
-0.038236193 -0.01815577 0.67288888
-0.041866355 -0.01278397 0.67116678
-0.039156195 -0.014121906 0.67400002
-0.045691434 -0.0067085717 0.671
-0.043244354 -0.0085020419 0.67200011
-0.051685717 -0.00063809525 0.67000002
-0.04815286 -0.0019166669 0.67116678
-0.17088 0.0044800001 0.67200005
-0.16875398 0.0040434925 0.67033339
-0.051378202 0.0027731219 0.67155558
-0.049280003 0.00064000004 0.67200005
-0.17159697 0.0073051429 0.67280006
-0.1679313 0.0078199282 0.67123079
-0.052191701 0.007860953 0.67185718
-0.17010477 0.010912382 0.67400002
-0.167027 0.011762859 0.67366666
-0.16283093 0.013140075 0.67169237
-0.055514291 0.014676192 0.67000002
-0.053286195 0.012426382 0.67250001
-0.16189429 0.016895557 0.67366672
-0.15826139 0.01840635 0.67155558
-0.057112761 0.018272001 0.67080003
-0.054480955 0.016665716 0.67300004
-0.1563354 0.022204218 0.67157149
-0.1535193 0.022980239 0.67025006
-0.061598815 0.024575954 0.67025006
-0.059067622 0.022030953 0.67050004
-0.15268658 0.027262013 0.67266667
-0.1491016 0.028714288 0.67000002
-0.062850304 0.027385544 0.67154551
-0.059697147 0.025034288 0.67400002
-0.15130383 0.030876383 0.67260003
-0.14768343 0.032606401 0.67128581
-0.065772861 0.033206195 0.67050004
-0.06374836 0.031553656 0.67311108
-0.14627747 0.036945399 0.67266673
-0.14484763 0.037009526 0.67000002
-0.070828579 0.038923811 0.67000002
-0.067712083 0.037226234 0.67123079
-0.064640008 0.03712 0.67200005
-0.14265034 0.042221751 0.67166674
-0.139387 0.043625083 0.67033339
-0.07130684 0.042571273 0.67050004
-0.069183454 0.042280126 0.67262495
-0.14152078 0.046061721 0.67360002
-0.13759762 0.047042385 0.67199999
-0.13483906 0.047928575 0.671
-0.075102866 0.048784766 0.67400002
-0.07278382 0.04695905 0.67233342
-0.13304001 0.052958738 0.67266673
-0.077170894 0.05282123 0.67285722
-0.13201728 0.056995247 0.67242855
-0.12885907 0.058091976 0.67028576
-0.078590751 0.057767015 0.67190915
-0.1269089 0.061745718 0.67300004
-0.12443398 0.062540643 0.67233342
-0.081756458 0.062822737 0.67173338
-0.078954294 0.061622862 0.67400002
-0.12205593 0.06766735 0.67300004
-0.11968001 0.069120005 0.67200005
-0.08614286 0.069552384 0.67000002
-0.083747886 0.067359306 0.67127275
-0.1200362 0.07125143 0.67400002
-0.11694635 0.073489845 0.671
-0.086574405 0.072998695 0.67087501
-0.084866673 0.070828579 0.67000002
-0.088869214 0.076509848 0.67133343
-0.14087906 -0.040942863 0.67700005
-0.13753715 -0.041325718 0.67800009
-0.13403906 -0.041232955 0.67860001
-0.12804002 -0.040740002 0.67900002
-0.12416001 -0.040740002 0.67900002
-0.086006671 -0.040740002 0.67900002
-0.084066674 -0.040740002 0.67900002
-0.14175001 -0.038892858 0.67500001
-0.13764261 -0.038081907 0.67563647
-0.13290137 -0.038066119 0.67741674
-0.12774153 -0.038065799 0.67741674
-0.12244351 -0.038024131 0.67666674
-0.11751845 -0.037118848 0.6769287
-0.11229789 -0.037195031 0.67722225
-0.10734008 -0.037287693 0.67664295
-0.10281927 -0.036887832 0.67778575
-0.097383663 -0.036116987 0.6771667
-0.092560194 -0.036484957 0.67680001
-0.087773986 -0.037509341 0.6766668
-0.082478024 -0.038019605 0.67658341
-0.077869415 -0.037243932 0.67712504
-0.072105125 -0.03667048 0.67763644
-0.067273341 -0.036169391 0.67642862
-0.062318869 -0.036258474 0.67740005
-0.057455085 -0.036152225 0.67783332
-0.052928332 -0.036147855 0.67774999
-0.048480522 -0.037080869 0.67872727
-0.042679999 -0.035566669 0.67900002
-0.03750667 -0.035566669 0.67900002
-0.10293286 -0.034096669 0.67550004
-0.097071432 -0.034071431 0.67500001
-0.06235715 -0.034071431 0.67500007
-0.05794286 -0.034121908 0.67600006
-0.052714288 -0.034071431 0.67500001
-0.04799886 -0.033844572 0.67560005
-0.042587146 -0.034197621 0.67750007
-0.036956988 -0.032662064 0.67683339
-0.032482341 -0.031779308 0.67845458
-0.035624769 -0.026621718 0.67519999
-0.033173621 -0.027365809 0.67769998
-0.035902862 -0.02226286 0.67560005
-0.033994477 -0.022360956 0.67860001
-0.035488099 -0.019355714 0.67750001
-0.040560003 -0.010944762 0.67600006
-0.038284287 -0.013117938 0.67750001
-0.041925307 -0.0074643549 0.67728579
-0.039446671 -0.0097000003 0.67900002
-0.046207622 -0.0021473016 0.67700005
-0.044263814 -0.0035538096 0.67850006
-0.047781095 0.0025827212 0.67800009
-0.17228574 0.0096428581 0.67500001
-0.048857145 0.0072561908 0.67724997
-0.17221643 0.011933573 0.67725003
-0.1684227 0.013946509 0.6758334
-0.051555555 0.013534605 0.67666674
-0.049756669 0.012278572 0.67850006
-0.17007335 0.017460002 0.67900002
-0.1673266 0.017288668 0.67730004
-0.16299677 0.018911431 0.67540002
-0.056011431 0.019958096 0.67600006
-0.053593911 0.01743505 0.67800009
-0.17007335 0.020046668 0.67900002
-0.16671763 0.020031907 0.67850006
-0.16204095 0.021858094 0.67785716
-0.15925619 0.023212383 0.67700005
-0.057916578 0.022833144 0.67720002
-0.05496667 0.020046668 0.67900002
-0.15742905 0.026819145 0.67690003
-0.15492858 0.027642859 0.67500001
-0.060511433 0.028640954 0.6783334
-0.058758099 0.02582762 0.67799997
-0.15639277 0.031124193 0.67800009
-0.1531456 0.033061501 0.67685723
-0.14978573 0.034071431 0.67500001
-0.061858293 0.032413717 0.67800009
-0.15136057 0.036321338 0.67860001
-0.14851019 0.037827939 0.67700005
-0.065619528 0.039243333 0.67550004
-0.063373342 0.03750667 0.67899996
-0.14674895 0.042206861 0.67760003
-0.066625454 0.042442605 0.67800003
-0.064020008 0.040740002 0.67900002
-0.14679334 0.045913335 0.67900002
-0.14219747 0.048906989 0.67866671
-0.13816191 0.048801526 0.67600006
-0.071479529 0.047653817 0.67616671
-0.069091432 0.045845717 0.67800003
-0.14084402 0.052121341 0.67900002
-0.13736969 0.052884445 0.6771667
-0.13435715 0.05464286 0.67500001
-0.075750865 0.053373337 0.67519999
-0.073661909 0.051789049 0.67550004
-0.1372416 0.057094604 0.67866671
-0.1342597 0.058215242 0.67666674
-0.076142482 0.057333339 0.67640007
-0.13515334 0.060140003 0.67900002
-0.13213252 0.061870217 0.67771429
-0.12770973 0.063661717 0.67520005
-0.077207856 0.062057383 0.67700005
-0.12752753 0.066882625 0.67741674
-0.12416334 0.068193808 0.67550004
-0.082065716 0.068172865 0.67850006
-0.078717627 0.065169051 0.67750001
-0.1261 0.070486672 0.67900002
-0.12244573 0.07153365 0.67666668
-0.083830327 0.071977943 0.67883337
-0.12823716 -0.046543334 0.68350005
-0.13138358 -0.042985003 0.6812501
-0.12743178 -0.043620177 0.68172741
-0.12257312 -0.042825866 0.68207693
-0.11748939 -0.042272225 0.68283337
-0.1125465 -0.042169359 0.68309098
-0.10814019 -0.041252576 0.68320006
-0.10357715 -0.041040003 0.68400002
-0.097323433 -0.041300576 0.68400002
-0.092166774 -0.04185503 0.68311113
-0.087555028 -0.042516511 0.68211114
-0.082143985 -0.042462599 0.68209094
-0.077542946 -0.042623099 0.68325007
-0.073044986 -0.042505939 0.68338472
-0.06769906 -0.041661434 0.68350005
-0.062274765 -0.041444287 0.68350005
-0.056850009 -0.041444287 0.68349999
-0.051604446 -0.04141397 0.68300003
-0.047876056 -0.042113885 0.68328577
-0.042813715 -0.041252576 0.68320006
-0.039085716 -0.041040003 0.68400002
-0.11657143 -0.039504763 0.68000001
-0.11277001 -0.039533813 0.68050003
-0.10944763 -0.039504763 0.68000001
-0.10110795 -0.038756195 0.68200004
-0.097358346 -0.038943812 0.68150008
-0.093070485 -0.039239049 0.68100005
-0.076897524 -0.039033145 0.68080008
-0.073008001 -0.039292194 0.68080008
-0.067525722 -0.03895786 0.68175
-0.062196873 -0.039024353 0.6812858
-0.057074293 -0.038915243 0.68099999
-0.052534293 -0.038915239 0.68100011
-0.0465261 -0.038491812 0.68040001
-0.042773496 -0.038238257 0.68049997
-0.037712626 -0.038364686 0.68275011
-0.032468922 -0.036965031 0.68309098
-0.027379051 -0.037290998 0.68323088
-0.02344262 -0.037769526 0.68375003
-0.032030478 -0.03358705 0.68080008
-0.027295776 -0.032496847 0.68243748
-0.02383524 -0.032952193 0.68380004
-0.030884763 -0.026780635 0.68033338
-0.028539458 -0.027981635 0.68328583
-0.031702429 -0.021903986 0.6819092
-0.029314287 -0.022800002 0.68400002
-0.035671432 -0.016861906 0.68099999
-0.033348095 -0.017731905 0.68325001
-0.036514886 -0.01249512 0.68162501
-0.034487858 -0.01301262 0.68325007
-0.04153762 -0.0058414293 0.68150002
-0.037914451 -0.0080161905 0.68250006
-0.034525715 -0.009771429 0.68400002
-0.042487275 -0.0024228573 0.68254548
-0.039737146 -0.0045600003 0.68400002
-0.045980956 0.0045333337 0.68000001
-0.043949421 0.0023822226 0.68200004
-0.046919648 0.0082827378 0.68187499
-0.04488286 0.0065047625 0.68300003
-0.17321691 0.014326429 0.68375003
-0.048318837 0.013217461 0.68255562
-0.17601685 0.016711431 0.68366671
-0.17293228 0.017715834 0.68262506
-0.051427305 0.017719366 0.68066669
-0.048735559 0.016246034 0.68233341
-0.16703747 0.02274921 0.68244451
-0.16357651 0.023553653 0.68066669
-0.055858418 0.022734288 0.6820001
-0.053176958 0.020934287 0.68260008
-0.16719635 0.026331024 0.6838572
-0.16274637 0.027288733 0.6821667
-0.15931429 0.028495241 0.68000001
-0.057135157 0.027475413 0.68245459
-0.16165385 0.031679526 0.68350005
-0.15810683 0.033291839 0.68157142
-0.060612388 0.032839429 0.6814
-0.058199685 0.032028895 0.68322229
-0.15637001 0.037302703 0.68316674
-0.15317574 0.038132619 0.68150002
-0.061143812 0.037076194 0.68300003
-0.15569144 0.04169143 0.68400002
-0.1522284 0.0429364 0.68307149
-0.14873764 0.042775717 0.68050003
-0.065409526 0.044685718 0.68000001
-0.063327625 0.043195002 0.68200004
-0.15095717 0.047280192 0.68380004
-0.14752392 0.04760512 0.68237507
-0.14484382 0.048714288 0.68200004
-0.070590481 0.04857143 0.68000001
-0.067381568 0.047541045 0.68209094
-0.064025722 0.046663176 0.68366671
-0.14613929 0.052076191 0.68350005
-0.14329296 0.052259054 0.68080008
-0.071836762 0.052222099 0.6820001
-0.068700247 0.051444285 0.68375003
-0.14563207 0.056213021 0.68366671
-0.14210987 0.056974631 0.68190914
-0.13921462 0.058673657 0.68200004
-0.076105721 0.059193335 0.68300003
-0.07296706 0.057167687 0.68366671
-0.14060524 0.061190002 0.68350005
-0.1373603 0.062178012 0.68290007
-0.13414922 0.063932709 0.68266672
-0.076539367 0.063963503 0.68300003
-0.074045248 0.062328577 0.68350005
-0.13216589 0.066952541 0.68250006
-0.12887619 0.069295242 0.68000001
-0.081071436 0.068749532 0.68099999
-0.078163661 0.067757785 0.68300003
-0.074480005 0.066228583 0.68400002
-0.12687449 -0.048054289 0.68740004
-0.12256702 -0.046849784 0.68754554
-0.11754344 -0.046207622 0.68720007
-0.11288048 -0.046227716 0.68750012
-0.1080527 -0.045714609 0.68900007
-0.10192826 -0.045714609 0.68900007
-0.097397417 -0.046027079 0.68900007
-0.093147628 -0.045460764 0.68780005
-0.087801911 -0.045211431 0.68800008
-0.081802182 -0.045904495 0.68714297
-0.077485941 -0.046929948 0.68755561
-0.072188891 -0.046019156 0.6870001
-0.067489535 -0.045867622 0.68800008
-0.062994294 -0.045933336 0.68900007
-0.057548005 -0.045487054 0.68820012
-0.052713972 -0.045277145 0.68900001
-0.047026988 -0.045277145 0.68900001
-0.041996196 -0.045277145 0.68900001
-0.037402861 -0.045277145 0.68900001
-0.028872382 -0.045277145 0.68900001
-0.11041334 -0.043773334 0.68600005
-0.10704354 -0.043285992 0.68714297
-0.10228894 -0.043043695 0.68737507
-0.098023973 -0.043130636 0.68616676
-0.093426675 -0.043773334 0.68600005
-0.067970723 -0.04378929 0.68625009
-0.062998742 -0.04338032 0.68666673
-0.057999846 -0.04339096 0.68683338
-0.052728258 -0.043359052 0.68633336
-0.045800481 -0.043183811 0.68700004
-0.042091113 -0.043401591 0.68700004
-0.037481483 -0.042723604 0.68777782
-0.032778099 -0.042612068 0.68833345
-0.027976509 -0.042218201 0.68666673
-0.032815624 -0.03961524 0.68640012
-0.027222227 -0.039853334 0.68600005
-0.020921908 -0.036612861 0.68650007
-0.0221649 -0.032453883 0.68742865
-0.026533866 -0.026970267 0.68699998
-0.023812225 -0.027962383 0.68816674
-0.027482767 -0.022248857 0.68710011
-0.031653337 -0.01659143 0.68766677
-0.029062543 -0.018573653 0.68833339
-0.033028334 -0.012755001 0.68675005
-0.036404446 -0.00632127 0.68666673
-0.03351298 -0.0078465482 0.686625
-0.041160002 -0.00065333338 0.68600005
-0.037970889 -0.0026179594 0.68742871
-0.034778096 -0.0039371429 0.68900001
-0.041148227 0.0027991345 0.68781823
-0.038387146 0.0016404763 0.68900001
-0.045145717 0.0091600008 0.68700004
-0.042576957 0.0073379055 0.68779999
-0.17574668 0.013720001 0.68600005
-0.045969911 0.012180191 0.68760002
-0.042652383 0.011155238 0.68900001
-0.17640001 0.015026668 0.68600005
-0.050380003 0.018974287 0.68700004
-0.047674697 0.017516056 0.6884287
-0.052173439 0.022630583 0.68766671
-0.049214289 0.020341907 0.68900001
-0.16758096 0.029172955 0.68680006
-0.055533338 0.028746668 0.68600005
-0.053574409 0.027033692 0.68812501
-0.16760917 0.032313041 0.68807709
-0.16339353 0.033596348 0.68716669
-0.056398291 0.032844763 0.68700004
-0.054463815 0.031497143 0.68900001
-0.16152492 0.037376672 0.68850011
-0.15822192 0.038575239 0.68650007
-0.060848575 0.038602859 0.68700004
-0.059067816 0.037066292 0.68760008
-0.16076668 0.040027622 0.68900001
-0.15842636 0.041300002 0.68833339
-0.061592069 0.041496824 0.68800008
-0.059713338 0.040027622 0.68900001
-0.15529144 0.047178097 0.68800002
-0.15384553 0.047531623 0.6874001
-0.062646434 0.047435243 0.68700004
-0.15092382 0.052495241 0.68900001
-0.14903271 0.052292071 0.68633336
-0.067162454 0.052778237 0.68657154
-0.063978583 0.051315404 0.68783343
-0.14765334 0.055533338 0.68600005
-0.072520003 0.059453338 0.68600005
-0.068764769 0.056323498 0.68766677
-0.072520003 0.061413337 0.68600005
-0.1255143 -0.050600003 0.69000006
-0.12224736 -0.05129116 0.69171435
-0.11756476 -0.051517617 0.69349998
-0.11255267 -0.051606532 0.69342864
-0.10782273 -0.051323406 0.6921429
-0.10312191 -0.051099051 0.69320005
-0.097368002 -0.051128384 0.69360006
-0.092533343 -0.051333975 0.69400001
-0.08764229 -0.05115772 0.69400001
-0.082619056 -0.050893337 0.69400001
-0.077331431 -0.050893337 0.69400001
-0.072374292 -0.051223814 0.69400001
-0.068078101 -0.050893337 0.69400001
-0.036987148 -0.050856672 0.69350004
-0.034980003 -0.051480003 0.69300002
-0.1255143 -0.049285717 0.69000006
-0.12227215 -0.049303576 0.69025004
-0.11750134 -0.049080003 0.69080001
-0.1122063 -0.04880286 0.69060004
-0.10755517 -0.048255716 0.69030005
-0.10283659 -0.048262861 0.69040006
-0.097432621 -0.04871786 0.69125009
-0.092037939 -0.048206933 0.69163638
-0.087326013 -0.048209429 0.69150001
-0.083248578 -0.04820691 0.69099998
-0.077712864 -0.04939286 0.69150001
-0.072154567 -0.048824493 0.6914286
-0.067174293 -0.048735715 0.69150001
-0.062257692 -0.048885718 0.69228584
-0.05802191 -0.047927517 0.69144446
-0.052590795 -0.047180004 0.69122225
-0.047510482 -0.047217995 0.69177788
-0.042091351 -0.047961302 0.69154549
-0.037516367 -0.047570914 0.69109088
-0.03302991 -0.047244135 0.69086677
-0.029571431 -0.047314286 0.69000006
-0.017845716 -0.046266671 0.69400001
-0.017845716 -0.042080637 0.69400001
-0.019167621 -0.038335241 0.69400001
-0.020386193 -0.032881908 0.69050002
-0.019057143 -0.030885717 0.69000006
-0.021882452 -0.027517553 0.6902858
-0.025628572 -0.021685716 0.69000006
-0.023331959 -0.0224545 0.69122225
-0.030930478 -0.015136192 0.69100004
-0.027759578 -0.017215028 0.6922223
-0.03148305 -0.012250668 0.69160002
-0.029614288 -0.013820001 0.69100004
-0.032259684 -0.0085619055 0.69133341
-0.03614286 -0.0006571429 0.69000006
-0.033532266 -0.0023008334 0.69037503
-0.036977384 0.0031228573 0.69025004
-0.034332763 0.0017106669 0.6906001
-0.041445002 0.0085521434 0.69075006
-0.038406353 0.0063644452 0.69133341
-0.045342859 0.013800001 0.69000006
-0.042468257 0.012646032 0.69077784
-0.045632001 0.017489905 0.69040006
-0.043769054 0.016716667 0.69283336
-0.050600003 0.023657145 0.69000006
-0.047705002 0.022373734 0.69091672
-0.044283811 0.020489525 0.69400001
-0.051467508 0.028119408 0.69062501
-0.048556056 0.026872249 0.69300002
-0.16822858 0.034828573 0.69000006
-0.056635719 0.034904286 0.69150007
-0.053149685 0.032286827 0.69183338
-0.16730078 0.037545912 0.69160002
-0.16362858 0.037128575 0.69000006
-0.05702994 0.037801366 0.69285715
-0.05485905 0.035030477 0.69400001
-0.16266616 0.042113125 0.69211113
-0.15894344 0.043252762 0.69020003
-0.061114289 0.04271429 0.69000006
-0.058809418 0.042259578 0.69211113
-0.16127239 0.045605719 0.69400001
-0.15765588 0.046991434 0.69166672
-0.060780764 0.047861528 0.69220006
-0.059090242 0.04654786 0.69325
-0.15576446 0.052215241 0.69400001
-0.15297988 0.052639171 0.69087499
-0.065902859 0.054700956 0.69200003
-0.06272953 0.052164447 0.69333333
-0.15201905 0.056180958 0.69400001
-0.070314288 0.058485717 0.69000006
-0.067354292 0.05786553 0.69200003
-0.12081334 -0.055760004 0.69700003
-0.1163 -0.056488957 0.69779998
-0.11301296 -0.055377912 0.6972
-0.10894239 -0.055135719 0.69749999
-0.095725723 -0.055175241 0.69800001
-0.092269532 -0.055096194 0.69700003
-0.088286683 -0.055096194 0.69700003
-0.12179048 -0.053614289 0.69500005
-0.11810274 -0.054181643 0.69500011
-0.11252381 -0.053614289 0.69500005
-0.106892 -0.053380381 0.69540006
-0.10217716 -0.053301588 0.69666672
-0.097885542 -0.052850861 0.69540006
-0.092666671 -0.053173017 0.69500011
-0.087122865 -0.053068984 0.69528586
-0.082306817 -0.052187897 0.69614291
-0.076868765 -0.052972764 0.69700003
-0.07281851 -0.052745856 0.69600004
-0.067580529 -0.052253332 0.69644451
-0.062388219 -0.051768694 0.69687504
-0.057086907 -0.051777624 0.69700003
-0.053768575 -0.051113337 0.69700003
-0.047198098 -0.051186673 0.69800007
-0.04247072 -0.051095001 0.69675004
-0.03818167 -0.05212881 0.69725001
-0.033213809 -0.051150002 0.69749999
-0.056261908 -0.049642861 0.69500005
-0.053026669 -0.04971429 0.69600004
-0.047779288 -0.049767863 0.69675004
-0.043023814 -0.049642861 0.69500005
-0.031199049 -0.049785718 0.69700003
-0.01526762 -0.045802861 0.69700003
-0.016255952 -0.041805241 0.69675004
-0.013940001 -0.044475242 0.69700003
-0.017322514 -0.037364073 0.69718188
-0.018779684 -0.033364445 0.6960001
-0.020548573 -0.02783905 0.69600004
-0.019278096 -0.028584763 0.69800001
-0.023266668 -0.021937145 0.69800001
-0.026533812 -0.015919523 0.69650006
-0.024302095 -0.017660953 0.6972
-0.028092545 -0.012830319 0.69683337
-0.032573335 -0.0059828577 0.69800001
-0.029249527 -0.0093066674 0.69800001
-0.032130163 -0.0019942857 0.69800007
-0.032573335 0.00066476193 0.69800001
-0.040376194 0.0092666671 0.69500005
-0.038157336 0.0081100957 0.69800001
-0.040434286 0.012596192 0.69600004
-0.039220955 0.011965714 0.69800001
-0.042513814 0.016606191 0.69749999
-0.045780957 0.023224128 0.69666672
-0.043874286 0.021937145 0.69800001
-0.047350165 0.028100638 0.69700003
-0.051370956 0.03281191 0.6960001
-0.049857147 0.031908572 0.69800001
-0.055096194 0.038500953 0.69700003
-0.053578109 0.036700547 0.69700009
-0.16749465 0.042282686 0.69663644
-0.16481429 0.043023814 0.69500005
-0.056554291 0.042345311 0.69628584
-0.16540715 0.046500482 0.69749999
-0.16262302 0.047452386 0.69614297
-0.15923081 0.049249213 0.69566673
-0.06040667 0.049785718 0.69700003
-0.05715334 0.046810478 0.69620007
-0.15811335 0.05208515 0.69580001
-0.062263429 0.053236004 0.69700003
-0.06559144 0.057640962 0.69566673
-0.063931622 0.057020385 0.69779998
-0.11201315 -0.061159816 0.70260006
-0.10861715 -0.061683811 0.70400006
-0.11541572 -0.058709051 0.70050001
-0.11189084 -0.058159575 0.70045453
-0.10710126 -0.057846747 0.70184612
-0.10275593 -0.057355382 0.70257163
-0.09782315 -0.057797831 0.70214295
-0.09251637 -0.058334894 0.70254546
-0.087217055 -0.056987908 0.70230007
-0.082338415 -0.056902017 0.70288897
-0.077619925 -0.056877539 0.70258343
-0.072462194 -0.056554962 0.70190012
-0.067131966 -0.056875665 0.7025556
-0.062771037 -0.056975804 0.70241678
-0.057829216 -0.056490798 0.70333338
-0.052297145 -0.055649526 0.70400006
-0.047603816 -0.05564953 0.70400012
-0.042667616 -0.056789014 0.70300007
-0.037645824 -0.056506563 0.70166677
-0.032078311 -0.056490377 0.70333338
-0.027473146 -0.056422096 0.70360011
-0.023466669 -0.056185909 0.70400006
-0.017875398 -0.056083336 0.70383346
-0.014080001 -0.055649526 0.70400006
-0.099333338 -0.054000005 0.70000005
-0.082000002 -0.054000005 0.70000005
-0.078666672 -0.054000005 0.70000005
-0.070000008 -0.054000005 0.70000005
-0.066000007 -0.054000005 0.70000005
-0.062666677 -0.054000005 0.70000005
-0.057374287 -0.054038577 0.70050001
-0.051892385 -0.052864857 0.70099998
-0.047389686 -0.053397626 0.70083344
-0.042682387 -0.05335262 0.70025003
-0.037333336 -0.054000005 0.70000005
-0.03195598 -0.05316212 0.70066673
-0.027968002 -0.052462667 0.7026
-0.022994602 -0.053355876 0.70322227
-0.017367501 -0.053438697 0.70137507
-0.012720954 -0.054231431 0.70300001
-0.013272518 -0.042492934 0.70185721
-0.01577778 -0.035777781 0.70000005
-0.012983619 -0.037750293 0.70280004
-0.016947361 -0.031891603 0.70163649
-0.01362635 -0.033731114 0.70366669
-0.020666668 -0.026000002 0.70000005
-0.017878693 -0.027239883 0.70187503
-0.021165241 -0.022723971 0.70183343
-0.018669661 -0.023265308 0.70371431
-0.023049524 -0.017368097 0.7015
-0.027148167 -0.011525852 0.70014292
-0.024440764 -0.012153906 0.70120007
-0.030487938 -0.0064536515 0.70100009
-0.02758857 -0.0075228577 0.70225006
-0.024790002 -0.0080395248 0.70350003
-0.030716985 -0.0033376194 0.70116675
-0.028269907 -0.003616953 0.70340008
-0.035383813 0.0046733338 0.70100003
-0.032562263 0.0030046431 0.70137501
-0.035886861 0.0076045725 0.70040005
-0.033580575 0.0070914291 0.70240003
-0.03708183 0.0120277 0.70158339
-0.034194287 0.010057144 0.70400006
-0.041321363 0.017656054 0.70142865
-0.038988385 0.016480193 0.70340002
-0.042295318 0.023151828 0.70125002
-0.046065718 0.028707622 0.70100003
-0.043569408 0.027211312 0.70112503
-0.050000004 0.034000002 0.70000005
-0.047332473 0.032265976 0.70181829
-0.044921912 0.031512383 0.70400012
-0.051153149 0.037665717 0.70120013
-0.048574768 0.03651524 0.70350003
-0.17091048 0.044730481 0.70100003
-0.16890763 0.044730481 0.70100003
-0.055372864 0.042697623 0.70050001
-0.053180743 0.042323601 0.70288897
-0.17091048 0.046065718 0.70100003
-0.16752458 0.047388576 0.70080006
-0.05599048 0.048406988 0.7026667
-0.054308575 0.046933338 0.70400006
-0.060710005 0.053371906 0.70050001
-0.058364388 0.051807623 0.7028001
-0.10623619 -0.062533341 0.70600003
-0.1024425 -0.062246293 0.70580006
-0.09744858 -0.061830483 0.70566666
-0.092788577 -0.061860006 0.70599997
-0.087439768 -0.061881673 0.70624995
-0.082241558 -0.062229648 0.706375
-0.07770776 -0.061764091 0.70600009
-0.072977781 -0.062201064 0.70733339
-0.067333333 -0.061946671 0.70700002
-0.062171433 -0.061981235 0.70628577
-0.057652794 -0.061888441 0.70742857
-0.052983433 -0.061612386 0.70780003
-0.047200002 -0.061360005 0.708
-0.042128339 -0.061675481 0.70775002
-0.037745956 -0.061001193 0.70775002
-0.032365717 -0.060348574 0.708
-0.027196191 -0.060910486 0.70800006
-0.023330288 -0.060820576 0.708
-0.086882867 -0.059488576 0.70500004
-0.082585722 -0.059757151 0.7050001
-0.077885717 -0.059757147 0.70500004
-0.072133973 -0.059366032 0.70566672
-0.067545719 -0.059488576 0.70500004
-0.06177143 -0.059757147 0.70500004
-0.05747769 -0.059205852 0.70528579
-0.052457623 -0.058512222 0.70616663
-0.047483623 -0.058649529 0.70619994
-0.043032385 -0.059506193 0.70600003
-0.037671115 -0.058974288 0.70633334
-0.032633334 -0.05887524 0.70649999
-0.027554605 -0.058470797 0.70566672
-0.022469947 -0.058153551 0.7054444
-0.017664406 -0.058717024 0.70662498
-0.012806905 -0.056957386 0.70774996
-0.027528573 -0.053042859 0.70500004
-0.0074171433 -0.050908573 0.708
-0.0047200001 -0.05057143 0.708
-0.010669934 -0.047393747 0.70657146
-0.0074140485 -0.047183581 0.70775008
-0.0047200001 -0.046525717 0.70800006
-0.010851022 -0.042735111 0.70585716
-0.0078646038 -0.042919211 0.70783341
-0.01064762 -0.037603434 0.70760006
-0.0087657152 -0.039782859 0.708
-0.015442858 -0.030214287 0.70500004
-0.012605953 -0.031938575 0.70599997
-0.015472065 -0.027579367 0.70633334
-0.0134727 -0.027620003 0.70733333
-0.017044922 -0.022652542 0.70650005
-0.014160001 -0.024948573 0.708
-0.021520793 -0.017484922 0.70616668
-0.019499049 -0.018825715 0.70600003
-0.023204524 -0.012444524 0.70625001
-0.026185716 -0.0060428577 0.70500004
-0.023895001 -0.0070659532 0.70675004
-0.030214287 -0.00067142863 0.70500004
-0.027150955 -0.001794762 0.70683336
-0.024948573 -0.0040457146 0.708
-0.03054286 0.0030956194 0.70640004
-0.028320003 0.00067428575 0.708
-0.031451434 0.0074136513 0.70766675
-0.035585716 0.014100001 0.70500004
-0.033657622 0.012116669 0.70683336
-0.037394285 0.017399728 0.70657146
-0.03945696 0.022490097 0.70699996
-0.041404769 0.027976193 0.7050001
-0.039726671 0.026260002 0.70700002
-0.042592824 0.032449964 0.70646155
-0.047013018 0.038045611 0.70633328
-0.044985719 0.035585716 0.70500004
-0.051191431 0.043130483 0.70540011
-0.048726987 0.041541591 0.70733333
-0.052518811 0.047132384 0.7069999
-0.1011781 -0.071300007 0.71300006
-0.098190002 -0.071009532 0.71350002
-0.10698858 -0.065682858 0.71100003
-0.10259414 -0.067343019 0.71183336
-0.097878508 -0.067547493 0.71228588
-0.092647433 -0.066973709 0.71320003
-0.087918296 -0.066448577 0.71340007
-0.08284381 -0.065867625 0.71300006
-0.077493578 -0.065936908 0.71375
-0.072054528 -0.065936908 0.71375006
-0.067320004 -0.065960005 0.71400011
-0.062194292 -0.066463679 0.71314299
-0.057080001 -0.066593811 0.71350002
-0.052347463 -0.066624604 0.71383345
-0.048250478 -0.066697285 0.71357149
-0.042840004 -0.065960005 0.71400011
-0.10142858 -0.064238101 0.71000004
-0.097371437 -0.064238101 0.71000004
-0.092059284 -0.064305954 0.71075004
-0.087228581 -0.064238101 0.71000004
-0.082720637 -0.064238101 0.71000004
-0.07783556 -0.064298421 0.71066666
-0.072419688 -0.064298421 0.71066666
-0.067714289 -0.064328574 0.71100003
-0.062232144 -0.064260721 0.71025002
-0.057529531 -0.064298421 0.71066666
-0.052547351 -0.063774556 0.71128583
-0.047413334 -0.063264757 0.71120018
-0.042492703 -0.063968256 0.71200007
-0.037637554 -0.063182041 0.7111429
-0.032588895 -0.062845394 0.71122229
-0.026998231 -0.063194968 0.71128577
-0.022353146 -0.062993526 0.7112
-0.017934693 -0.062144767 0.7125715
-0.01207943 -0.060673337 0.71260005
-0.0081600007 -0.060520004 0.71400005
-0.0047600004 -0.060520004 0.71400005
-0.015552382 -0.058828574 0.71000004
-0.01151524 -0.058261275 0.71133339
-0.0074646566 -0.057684768 0.71255571
-0.0025584619 -0.05751114 0.71300012
0.00067976199 -0.057100717 0.71375006
-0.0072511574 -0.053849258 0.71057147
-0.0027080276 -0.052837964 0.71128583
0.00067968265 -0.05233556 0.71366668
-0.0023684921 -0.04775548 0.71125007
0.00068000006 -0.049640004 0.71400005
-0.0065422226 -0.04173778 0.71066666
-0.0038978576 -0.042549767 0.71200001
-0.010142858 -0.035838097 0.71000004
-0.0074598095 -0.037983056 0.71220005
-0.0047600004 -0.038760003 0.71400005
-0.010436191 -0.032123048 0.71160001
-0.0084969047 -0.033307858 0.71375
-0.011313493 -0.027608734 0.7128334
-0.015552382 -0.022314288 0.71000004
-0.014253333 -0.022396192 0.71266669
-0.020961907 -0.015552382 0.71000004
-0.01762381 -0.018031811 0.71180004
-0.021562587 -0.011892653 0.7107144
-0.019683175 -0.01289397 0.71266669
-0.021820953 -0.0077260956 0.71160001
-0.025036668 -0.0013528573 0.7105
-0.022383258 -0.0027124609 0.71225011
-0.019720001 -0.0020400002 0.71400005
-0.026880547 0.0029983681 0.71071428
-0.022685293 0.0021860318 0.71222228
-0.030471431 0.0088028582 0.71100003
-0.0271377 0.0074643656 0.71241665
-0.031570863 0.011516764 0.71140003
-0.028539525 0.010192858 0.71350002
-0.036526911 0.01894024 0.71025002
-0.033874407 0.017616309 0.711375
-0.036921907 0.022387486 0.71228582
-0.034327857 0.02277262 0.71375006
-0.040120002 0.027880002 0.71400005
-0.038053811 0.026502382 0.71350002
-0.045304764 0.039219052 0.71000004
-0.042881552 0.037120599 0.71187508
-0.047320683 0.04287035 0.71128577
-0.043726038 0.040554609 0.71366668
-0.096830487 -0.071600005 0.71600002
-0.093427211 -0.07141874 0.71722227
-0.089247309 -0.070986986 0.71900004
-0.077378109 -0.070530489 0.71900004
-0.073611915 -0.070872858 0.71900004
-0.062313341 -0.070530489 0.71900004
-0.056677148 -0.0703343 0.71700001
-0.052726671 -0.070530489 0.71900004
-0.049461596 -0.070888899 0.71800005
-0.09150286 -0.068968579 0.71700001
-0.086990491 -0.068546042 0.71733344
-0.082316741 -0.068452805 0.71771437
-0.07749103 -0.0681343 0.71642864
-0.072369173 -0.068274416 0.71687502
-0.067697152 -0.068381913 0.71800005
-0.063179813 -0.068638101 0.71640009
-0.057300717 -0.068896435 0.71625006
-0.052556194 -0.068936519 0.7166667
-0.046818104 -0.06838458 0.71660006
-0.042477559 -0.067866676 0.71771437
-0.037549052 -0.066905245 0.71683335
-0.032540578 -0.067405902 0.71780002
-0.027345877 -0.067682698 0.7178334
-0.023020953 -0.067241915 0.71800011
-0.018488571 -0.065052383 0.71900004
-0.03619143 -0.06487143 0.71700001
-0.032049526 -0.064780958 0.71600002
-0.028640002 -0.064780958 0.71600002
-0.021835715 -0.06482619 0.71650004
-0.015716668 -0.062868103 0.71750003
-0.01240109 -0.062984496 0.71771437
-0.0073165996 -0.062531576 0.71700013
-0.0025453682 -0.062281471 0.71718186
0.001881905 -0.0620781 0.71825004
0.0031436195 -0.057376202 0.71720004
0.0027300003 -0.052543338 0.71650004
-0.00068285718 -0.04575143 0.71700001
0.0017780954 -0.048809718 0.71780008
-0.0018212702 -0.042149529 0.71766675
-0.0061371434 -0.036140956 0.71600002
-0.004101905 -0.038294286 0.71800005
-0.0075110481 -0.032640193 0.71700007
-0.010702223 -0.025732702 0.71733344
-0.0083048986 -0.027649391 0.71814287
-0.012076984 -0.023015399 0.7178334
-0.016728573 -0.016047144 0.71700007
-0.013808953 -0.018730095 0.71780008
-0.017417382 -0.011954049 0.71725005
-0.02113905 -0.0061371434 0.71600002
-0.018626668 -0.0076895244 0.71775001
-0.019347621 -0.0043247622 0.71700001
-0.022502858 0.0047733337 0.71600002
-0.022897281 0.0075024497 0.71614289
-0.031411432 0.013657144 0.71700001
-0.027132995 0.012590954 0.71735722
-0.023300683 0.011991838 0.71657151
-0.031455241 0.017780952 0.71800005
-0.028349144 0.016297335 0.71900004
-0.033065718 0.021664446 0.71833342
-0.040232383 0.029321907 0.71600002
-0.037037976 0.027822502 0.71687502
-0.034825716 0.025265716 0.71700001
-0.040307306 0.032107942 0.71733344
-0.038028575 0.031653654 0.71733344
-0.041654289 0.038922861 0.71700001
-0.092268571 -0.076431431 0.72300005
-0.087448582 -0.075054288 0.72300005
-0.08056286 -0.075054288 0.72300005
-0.078497142 -0.075054288 0.72300005
-0.05095429 -0.075054288 0.72300005
-0.046822861 -0.075054288 0.72300005
-0.044068575 -0.075054288 0.72300005
-0.091896333 -0.074048176 0.72085726
-0.087372072 -0.072417155 0.72111118
-0.082448334 -0.072143421 0.72141671
-0.077593341 -0.072787628 0.72100008
-0.072359405 -0.072704412 0.72187507
-0.067370638 -0.07218492 0.72183341
-0.062515244 -0.072821595 0.72133338
-0.057759527 -0.072544999 0.72200006
-0.05257497 -0.073014967 0.72228587
-0.047257617 -0.072348334 0.72175008
-0.042868141 -0.072156973 0.72281826
-0.037163455 -0.071574643 0.72262508
-0.032311272 -0.071496993 0.72183341
-0.027213907 -0.071886472 0.72160006
-0.022674765 -0.071463659 0.7215001
-0.018935716 -0.071267143 0.72300005
-0.041142859 -0.069257148 0.72000003
-0.037714288 -0.069257155 0.72000003
-0.034285717 -0.069257148 0.72000003
-0.021733969 -0.068864137 0.72066677
-0.017917292 -0.067496933 0.72146171
-0.012377144 -0.067389056 0.72200012
-0.0075585716 -0.066929817 0.7215001
-0.0027500005 -0.066685244 0.72183347
0.0028508848 -0.065939873 0.72228587
0.0066561913 -0.06587334 0.72300005
0.0044571431 -0.062742859 0.72000003
0.0075617996 -0.062544867 0.72166669
0.0048000002 -0.057600003 0.72000003
0.0074415589 -0.057962772 0.72218192
0.0048033334 -0.052150004 0.72050005
0.006653334 -0.05276572 0.72266674
0.0027514291 -0.047446039 0.72200006
-0.0006857143 -0.041142859 0.72000003
0.00068857148 -0.044068575 0.72300005
-0.0032077781 -0.03712175 0.72183341
-0.0061771437 -0.032257147 0.72066677
-0.0043553971 -0.03301191 0.72216672
-0.0064594294 -0.027078098 0.72160012
-0.0044757146 -0.027887147 0.72300005
-0.010742858 -0.021714289 0.72000003
-0.0077360719 -0.022866787 0.72212505
-0.012369527 -0.017871749 0.72166675
-0.01577143 -0.014400001 0.72000003
-0.014400001 -0.012342857 0.72000003
-0.016228573 -0.0075428579 0.72000003
-0.014460001 -0.0089514293 0.72300005
-0.018074289 -0.0034304764 0.72066677
-0.019968573 0.0034428574 0.72300005
-0.029028572 0.01897143 0.72000003
-0.031587623 0.021974288 0.72100008
-0.029608574 0.021345716 0.72300005
-0.035068575 0.029567622 0.72200006
-0.033391222 0.027126458 0.72211117
-0.040457144 0.034971431 0.72000003
-0.036962099 0.033665337 0.72140008
-0.034560956 0.031357147 0.72100008
-0.040532067 0.0377854 0.72133344
-0.037863683 0.03648708 0.72285724
-0.086508006 -0.081786864 0.72900003
-0.084008574 -0.081231438 0.72900003
-0.0909127 -0.077563494 0.72500008
-0.087374039 -0.07831794 0.72654545
-0.082898475 -0.077472106 0.72676927
-0.077627227 -0.077628978 0.72775
-0.072372682 -0.076941811 0.72649997
-0.06758789 -0.076643817 0.72618186
-0.062327784 -0.076873511 0.72716665
-0.057477251 -0.076868154 0.72711116
-0.052846767 -0.07705839 0.7263
-0.047962449 -0.077237025 0.72685724
-0.042425402 -0.076322868 0.72633332
-0.037681907 -0.076521911 0.72822231
-0.03257921 -0.07625033 0.72783339
-0.028452067 -0.075642549 0.72866672
-0.020828573 -0.076371431 0.72900003
-0.017820003 -0.076140009 0.72900003
-0.0069428575 -0.075677149 0.72900003
-0.060071431 -0.073880956 0.72500002
-0.040738098 -0.073880956 0.72500002
-0.037298337 -0.073906437 0.72525001
-0.032452382 -0.073880956 0.72500008
-0.029000003 -0.073880956 0.72500002
-0.022152144 -0.074059293 0.72675002
-0.01708422 -0.072981641 0.7258572
-0.01244992 -0.072626919 0.72625011
-0.0076092076 -0.072635256 0.72633338
-0.0030463815 -0.072454199 0.72730011
0.0027727387 -0.072119646 0.72812504
0.0076319054 -0.072156668 0.72850007
0.010754286 -0.071115717 0.72850001
-0.015880954 -0.069738097 0.72500002
-0.0075952387 -0.069738097 0.72500002
-0.0027619051 -0.069738097 0.72500002
0.0026868787 -0.068860218 0.72544444
0.0079081487 -0.068256721 0.72555554
0.011782754 -0.067223385 0.72766668
0.011293016 -0.062450483 0.72588891
0.0089761913 -0.055928577 0.72500002
0.010945715 -0.05777505 0.72740006
0.0085258745 -0.052074131 0.72583336
0.010683429 -0.053138293 0.72840005
0.0042954287 -0.046136577 0.7274
0.0071097622 -0.047682144 0.72825009
0.002251548 -0.042732269 0.72662503
-0.0011509525 -0.036833812 0.72516674
0.0013857144 -0.037388574 0.727
-0.0016780955 -0.032298781 0.72600001
0.00069428579 -0.034020003 0.72900003
-0.0032287303 -0.027919844 0.72683334
-0.007261191 -0.020404048 0.72625005
-0.0042946674 -0.023137335 0.7274
-0.010912381 -0.016990097 0.7252
-0.007791549 -0.017491788 0.72737503
-0.01188892 -0.01264407 0.72663641
-0.0090195248 -0.013875715 0.72850001
-0.015880954 -0.0062142862 0.72500002
-0.013419429 -0.0078876195 0.72640008
-0.017328573 -0.0023552384 0.72780007
-0.020051429 0.0048400005 0.72600001
-0.018051431 0.0027771431 0.72900003
-0.020051429 0.0062228576 0.72600001
-0.018051431 0.0062485719 0.72900003
-0.026017621 0.017692382 0.72850001
-0.03158889 0.023750795 0.72633332
-0.028439684 0.021735875 0.72833341
-0.031761907 0.027964287 0.72500002
-0.029690478 0.027619049 0.72500002
-0.033256192 0.032911431 0.72750008
-0.078293338 -0.085982859 0.73400003
-0.081991009 -0.083004683 0.7312727
-0.077217326 -0.082413338 0.7316364
-0.072376266 -0.082140334 0.73213345
-0.067613013 -0.081554398 0.73188889
-0.063021146 -0.081287257 0.73200005
-0.057193931 -0.08126013 0.73237503
-0.052773654 -0.081294514 0.73233336
-0.047936197 -0.080746993 0.73300004
-0.041942861 -0.080390483 0.73400003
-0.038447626 -0.080390483 0.73400009
-0.032156192 -0.080390483 0.73400003
-0.026563812 -0.080390483 0.73400003
-0.020272382 -0.080390483 0.73400003
-0.018874288 -0.080390483 0.73400003
-0.045252383 -0.078669526 0.73100001
-0.042467624 -0.078669533 0.73100007
-0.036898099 -0.078669533 0.73100007
-0.03273524 -0.0787054 0.73133337
-0.027632488 -0.077789105 0.73144448
-0.022569334 -0.077459238 0.73140001
-0.017191589 -0.077830642 0.7318334
-0.012552144 -0.0767131 0.73225003
-0.0080140484 -0.077008337 0.73175007
-0.0030897963 -0.07664708 0.73257148
0.0024922451 -0.076676749 0.73285717
0.0076647624 -0.076651119 0.73166668
0.012824573 -0.077083051 0.73180002
0.016963813 -0.076918095 0.73200005
-0.0013928573 -0.074543342 0.73150003
0.0027847621 -0.074492387 0.73100001
0.0076580956 -0.074492387 0.73100007
0.013114763 -0.072768889 0.73116672
0.017416352 -0.072453968 0.73150003
0.02053762 -0.07135953 0.73100001
0.014620001 -0.067530483 0.73100007
0.01740762 -0.067540534 0.73111111
0.021255955 -0.067249767 0.73174995
0.014296428 -0.063460238 0.73225003
0.016986351 -0.063990802 0.73300004
0.020217145 -0.064834289 0.73200005
0.01280508 -0.056105401 0.73333335
0.012561271 -0.052333336 0.73266667
0.0087054763 -0.046312146 0.73124999
0.011589143 -0.047748767 0.7330001
0.0041788099 -0.041785479 0.73124999
0.007671006 -0.04253133 0.73211122
0.010485715 -0.044040002 0.73400003
0.0041804765 -0.037620004 0.73149997
0.0072846268 -0.038216878 0.73342866
0.0016292066 -0.032096826 0.73266667
-0.0011607937 -0.027402066 0.73150003
0.00069714291 -0.027885716 0.73200005
-0.0024407143 -0.022324048 0.73250002
0.00069904764 -0.023068573 0.73400003
-0.0062657148 -0.016012382 0.73100001
-0.0045338096 -0.017790001 0.73250008
-0.010442858 -0.010442858 0.73100001
-0.0076760552 -0.012858369 0.73271435
-0.0048933337 -0.014680001 0.73400003
-0.011385716 -0.0072034928 0.73200005
-0.0090876194 -0.0090876194 0.73400003
-0.016012382 -0.0020885717 0.73100007
-0.013248811 -0.0027888098 0.73225009
-0.016034286 0.0027885716 0.73200005
-0.014187302 0.0023250794 0.73266673
-0.020189526 0.0076580956 0.73100001
-0.017412066 0.0071968259 0.73133337
-0.014640001 0.0062742862 0.73200005
-0.02715143 0.017404763 0.73100001
-0.023723176 0.017444763 0.73266667
-0.026812145 0.022982381 0.73124999
-0.024450002 0.022355715 0.73350006
-0.031328574 0.029936193 0.73100001
-0.028593201 0.027200276 0.73228574
-0.076715246 -0.090791434 0.73900002
-0.076134838 -0.087772936 0.73728579
-0.072552793 -0.087405585 0.73757148
-0.069677144 -0.086568579 0.73900002
-0.052081905 -0.086568579 0.73900002
-0.047859054 -0.085864767 0.73900002
-0.042932384 -0.085160956 0.73900002
-0.031671431 -0.085160956 0.73900002
-0.026040955 -0.085160956 0.73900002
-0.016891429 -0.085160956 0.73900002
-0.0049266671 -0.085864767 0.73900002
-0.07500191 -0.084815241 0.73600006
-0.067359291 -0.084901668 0.73675007
-0.062441275 -0.08395683 0.73666668
-0.057516672 -0.084171914 0.73650014
-0.052274529 -0.084551193 0.73675007
-0.047697145 -0.083470479 0.73650002
-0.04232223 -0.082541496 0.73655558
-0.037036739 -0.082605451 0.73771435
-0.032265719 -0.082769051 0.73650002
-0.027558913 -0.082476467 0.73657149
-0.022645803 -0.082231447 0.73681825
-0.017365716 -0.082271434 0.73675001
-0.013090858 -0.081219628 0.73900002
-0.007038096 -0.080938101 0.73900002
-0.0023927621 -0.082183056 0.73879999
0.0010538097 -0.081884295 0.73800004
-0.012617144 -0.079207622 0.73600006
-0.0077104769 -0.079207622 0.73600006
-0.0023849527 -0.078991823 0.73660004
0.0014019049 -0.079207622 0.73600006
0.013785399 -0.061450165 0.73600006
0.018012224 -0.061986834 0.73683345
0.021065 -0.063192144 0.73725003
0.0142527 -0.0579454 0.73600006
0.017562939 -0.057601988 0.7375834
0.020410478 -0.055600956 0.73900002
0.014720002 -0.052571431 0.73600006
0.017570054 -0.052705929 0.73788887
0.020410478 -0.054193337 0.73900002
0.014043572 -0.047746435 0.73725003
0.016187619 -0.049970478 0.73900002
0.01206052 -0.041923035 0.73700005
0.0082737142 -0.037160955 0.73620003
0.011016826 -0.037738733 0.7383334
0.0042079766 -0.032259408 0.73637503
0.0072669848 -0.033517785 0.7383334
0.0035166671 -0.028120479 0.73816675
-0.0011685715 -0.02080413 0.73633337
0.00070190476 -0.022224447 0.73700011
-0.0019308337 -0.017386071 0.737625
0.00070380955 -0.019002859 0.73900002
-0.0067879371 -0.011000636 0.73733342
-0.0039811116 -0.013116668 0.73783338
-0.0084302388 -0.0077297627 0.73775005
-0.010525 -0.0028059527 0.73675001
-0.0091495244 -0.002580635 0.73900002
-0.012639286 0.0028107145 0.73725003
-0.014740001 0.0077209529 0.73700005
-0.02123262 0.013160715 0.73700005
-0.018507939 0.012652381 0.73800009
-0.021042382 0.017535716 0.73650002
-0.018625239 0.017219525 0.73800004
-0.022287976 0.021938216 0.73712504
-0.075409532 -0.090914294 0.74000001
-0.072279766 -0.092075005 0.74225003
-0.067223817 -0.091282859 0.74300003
-0.050240956 -0.091282859 0.74300003
-0.047410481 -0.091282867 0.74300003
-0.043164767 -0.091282867 0.74300003
-0.071981907 -0.089625716 0.74100006
-0.067605473 -0.088409275 0.7415455
-0.062210619 -0.087965176 0.74228579
-0.057507049 -0.08802896 0.74180001
-0.052521378 -0.088792272 0.74188888
-0.04713786 -0.0884519 0.74150008
-0.042223521 -0.088090479 0.74176931
-0.037584763 -0.087181345 0.74180007
-0.032473102 -0.087187074 0.74124998
-0.027957961 -0.086904906 0.74185723
-0.022911157 -0.086096741 0.74185717
-0.01767762 -0.086271912 0.74250007
-0.012698215 -0.086053692 0.74062502
-0.0077593653 -0.086058423 0.74066675
-0.0028190478 -0.085980952 0.74000001
-0.012383674 -0.083262593 0.74000007
-0.0079537425 -0.082859874 0.74000007
-0.0049333335 -0.083161905 0.74000001
0.021417147 -0.060953654 0.74133337
0.020438097 -0.059200004 0.74000001
0.017619049 -0.050038099 0.74000001
0.014800001 -0.046514288 0.74000001
0.017499169 -0.04719298 0.74237502
0.014840001 -0.044520002 0.74200004
0.017690478 -0.044580005 0.74300003
0.0070476197 -0.031009525 0.74000001
0.0035238098 -0.026076194 0.74000001
0.0063685719 -0.028304763 0.74300003
0.0028304765 -0.024766669 0.74300003
0.00070761907 -0.017690478 0.74300003
-0.0021201589 -0.012715398 0.74183339
-0.0067059528 -0.0074116676 0.74125004
-0.0045928573 -0.008125715 0.74200004
-0.008472858 -0.004238572 0.74150002
-0.011071747 0.0021219049 0.74200004
-0.016679365 0.0086920634 0.74000001
-0.014125239 0.0084757153 0.74150002
-0.016716508 0.012713335 0.74166673
