# .PCD v0.7 - Point Cloud Data file format
VERSION 0.7
FIELDS x y z
SIZE 4 4 4
TYPE F F F
COUNT 1 1 1
WIDTH 1325
HEIGHT 1
VIEWPOINT 0 0 0 1 0 0 0
POINTS 1325
DATA ascii
-0.032346126 0.0036506131 0.62400001
-0.02693413 0.0037626987 0.62383336
-0.022559881 0.003561548 0.62337506
-0.018654667 0.0036832381 0.62380004
-0.014857144 0.0041600005 0.62400001
-0.080891669 0.0071126199 0.62224996
-0.078738786 0.0068351021 0.62028575
-0.072038099 0.0053142859 0.62
-0.06731429 0.0053142859 0.62
-0.0620654 0.0053200005 0.62066674
-0.05766172 0.0055641909 0.62160003
-0.054323815 0.0053142859 0.62
-0.048419051 0.0053142859 0.62
-0.042514291 0.0053142859 0.62
-0.037317719 0.0053314287 0.62199998
-0.031654861 0.0055710482 0.62239999
-0.02663446 0.0067231171 0.6214546
-0.02280014 0.006951428 0.62300009
-0.017814288 0.0059380955 0.62350005
-0.014460954 0.0057447623 0.62400001
-0.080228575 0.010102858 0.62400001
-0.031059051 0.014289525 0.62
-0.027006106 0.012720952 0.62205881
-0.023560321 0.010889525 0.6236667
-0.036609527 0.019485716 0.62
-0.03220534 0.017902354 0.62240005
-0.02777143 0.016782144 0.62375003
-0.045466669 0.022438096 0.62
-0.042667944 0.022576511 0.62053335
-0.037676927 0.022414509 0.62217647
-0.034233019 0.021173969 0.62333339
-0.046027053 0.027807241 0.62120003
-0.043017361 0.02696198 0.62269241
-0.039222859 0.025554288 0.62400001
-0.056166865 0.033937525 0.62080002
-0.05223082 0.032424558 0.62221432
-0.048007943 0.030821905 0.62233335
-0.043977149 0.030308573 0.62400001
-0.060819052 0.039561909 0.62
-0.056976829 0.037964765 0.62177777
-0.053782858 0.035954289 0.62400001
-0.070983976 0.042313814 0.62283337
-0.067322806 0.042882793 0.62164295
-0.062717855 0.042580482 0.62199998
-0.058109887 0.041509166 0.62262499
-0.07049334 0.045613337 0.62200004
-0.068069175 0.046418935 0.62287503
-0.064182863 0.045760002 0.62400001
-0.082026675 -0.00059873023 0.62866664
-0.077457264 -0.0013948149 0.62722224
-0.072559118 -0.0023920834 0.62706256
-0.067413695 -0.0019428574 0.62712508
-0.062159769 -0.001794524 0.62758332
-0.057555612 -0.0019799271 0.62800008
-0.052813053 -0.0015549527 0.62729996
-0.047827385 -0.0011964287 0.6277501
-0.042288151 -0.0021955555 0.62833339
-0.037261363 -0.0021380957 0.62814295
-0.032496087 -0.0013964024 0.62800002
-0.027593337 -0.0013969314 0.62833339
-0.022763811 -0.00059904763 0.62900001
-0.01797143 -0.00059904763 0.62900001
-0.014377143 -0.0011980953 0.62900001
-0.0083866678 -0.00059904763 0.62900001
-0.085663818 0.0041933334 0.62900001
-0.082521915 0.0022273597 0.62745458
-0.077380955 0.00059523812 0.625
-0.072619058 0.00059523812 0.625
-0.067115411 0.00079412706 0.62550002
-0.061672602 0.0015225398 0.62599999
-0.057280958 0.0011059864 0.62557149
-0.052755434 0.00083352387 0.62519997
-0.047457628 0.0009925398 0.62550008
-0.042615984 0.0011256085 0.62633336
-0.03725503 0.0012569312 0.62533337
-0.031978101 0.0013897355 0.62566668
-0.027650386 0.0015486667 0.62570006
-0.022677738 0.001192262 0.62662506
-0.017514894 0.001787446 0.62627274
-0.012417293 0.0022945867 0.62731588
-0.0071876789 0.002395774 0.62893748
-0.0041933334 0.0023961908 0.62900001
-0.085527621 0.0053828573 0.62800002
-0.082738101 0.005357143 0.625
-0.020833334 0.0083333338 0.625
-0.017860359 0.0083351191 0.62512499
-0.012537281 0.0071657151 0.62700009
-0.0075855567 0.0057893652 0.62883335
-0.022225646 0.013200885 0.62592864
-0.018014286 0.012421204 0.62721056
-0.014138731 0.010953652 0.62733334
-0.030357145 0.019642858 0.625
-0.026977144 0.018930001 0.62600005
-0.022811685 0.017798606 0.62706679
-0.018803811 0.016648382 0.62879997
-0.035714287 0.024404764 0.625
-0.031952251 0.022837419 0.62628573
-0.027847622 0.022417583 0.62830776
-0.023652621 0.021257859 0.62874997
-0.041468255 0.028769843 0.625
-0.037376035 0.027636776 0.62627786
-0.032571092 0.027357489 0.62835723
-0.029353335 0.026358098 0.62900001
-0.047284096 0.032873239 0.62529999
-0.04230101 0.032544822 0.62664711
-0.037689053 0.031609051 0.62816662
-0.032929529 0.030535242 0.62866664
-0.052136634 0.037464548 0.62592304
-0.047794107 0.037043277 0.6273126
-0.043124638 0.03682318 0.62833333
-0.072817467 0.043055557 0.625
-0.060762383 0.044678576 0.62550002
-0.056902766 0.043663718 0.62630004
-0.052740067 0.042058297 0.62786657
-0.048323181 0.040535558 0.62900001
-0.044928573 0.040136192 0.62900001
-0.06722445 0.048813444 0.62588894
-0.062317763 0.04785569 0.62670588
-0.057711702 0.047709521 0.62842858
-0.054513335 0.04672572 0.62900001
-0.066990562 0.052003749 0.62761545
-0.062380381 0.051844765 0.62860006
-0.058107626 0.051518105 0.62900001
-0.080306672 -0.0054342858 0.634
-0.077287622 -0.0054342858 0.634
-0.072314054 -0.0054235714 0.63275003
-0.067247085 -0.0059414967 0.63285714
-0.062647626 -0.0060242862 0.63249999
-0.058119185 -0.0059417691 0.63285714
-0.052188996 -0.0059633865 0.63311106
-0.046986431 -0.0060245246 0.63249999
-0.042109169 -0.0060158335 0.631625
-0.037608981 -0.0059390482 0.63257146
-0.032579049 -0.0054299999 0.63350004
-0.027775241 -0.0054342858 0.634
-0.022340953 -0.0054342858 0.634
-0.016989524 -0.0057780957 0.63385719
-0.01328381 -0.0054342858 0.634
-0.086765043 -0.0016374153 0.63328576
-0.082511 -0.0028276192 0.6323846
-0.077404134 -0.0038104763 0.63166672
-0.067543499 -0.0042088889 0.63133335
-0.062499054 -0.0042066667 0.63100004
-0.057090484 -0.0042066667 0.63100004
-0.052496992 -0.0038071428 0.6311667
-0.047742326 -0.0036724864 0.63100004
-0.043869525 -0.0042066667 0.63100004
-0.03611429 -0.0042133336 0.63200003
-0.032245174 -0.0036982321 0.63199997
-0.027650343 -0.0037042182 0.63314283
-0.022908416 -0.0030157142 0.63299996
-0.017638845 -0.0030980273 0.63235724
-0.011784014 -0.0025818374 0.63221437
-0.0071823443 -0.0025504031 0.6325385
-0.0024115876 -0.0018104762 0.63333333
0.0024701301 -0.0017016453 0.63399994
0.0054342858 -0.0018114287 0.634
-0.087401822 0.0020492382 0.6329
-0.084734291 0.0012019048 0.63100004
-0.0021495242 0.002408708 0.63242859
0.00209011 0.00209011 0.634
0.0054342858 0.0012076191 0.634
-0.010622224 0.0086184135 0.63133335
-0.0069857142 0.0080718091 0.63240004
-0.0026517145 0.0063920952 0.63309997
0.0012076191 0.0054342858 0.634
-0.015023811 0.013821905 0.63100004
-0.01188788 0.012108833 0.63281822
-0.008088192 0.010744572 0.63380003
-0.021033335 0.01983143 0.63100004
-0.016830644 0.018108964 0.63252944
-0.013876667 0.016894288 0.63349998
-0.026255241 0.024251431 0.63133335
-0.022581909 0.023386827 0.63233328
-0.019188954 0.021844571 0.6336
-0.030648574 0.028845716 0.63100004
-0.027431637 0.027863335 0.63207144
-0.023428731 0.027452227 0.63349998
-0.036428954 0.033784386 0.63120002
-0.032544605 0.032847781 0.6328333
-0.02811924 0.031016383 0.63359994
-0.024152383 0.030794287 0.634
-0.040770099 0.038124766 0.63140005
-0.037548572 0.037120141 0.63300008
-0.03351143 0.03592667 0.634
-0.051080957 0.043869525 0.63100004
-0.047271945 0.042921182 0.63199997
-0.042198576 0.042201314 0.63299996
-0.039247621 0.040455241 0.634
-0.055932861 0.049317621 0.63150001
-0.052832041 0.047029782 0.63236362
-0.046895877 0.045285717 0.634
-0.071239464 0.053322181 0.63314283
-0.067935005 0.054407861 0.63125002
-0.062314771 0.05430048 0.6311667
-0.057712026 0.053493932 0.63287497
-0.054047212 0.051634151 0.63357139
-0.071207747 0.057931785 0.63362503
-0.067480244 0.057840839 0.63262504
-0.063300006 0.05727258 0.63299996
-0.059777148 0.056154288 0.634
-0.07104826 0.061387308 0.634
-0.067747436 0.061950862 0.634
-0.06460762 0.060984764 0.634
-0.072420001 -0.010650001 0.63900006
-0.09128572 -0.0060857148 0.63900006
-0.087358393 -0.0068722353 0.63800001
-0.082766518 -0.0069758743 0.63666677
-0.077374697 -0.0071934699 0.63685721
-0.072858416 -0.0078946054 0.63750005
-0.067674905 -0.0083432905 0.63809097
-0.061960481 -0.0085055567 0.63783348
-0.057053056 -0.00801362 0.63730007
-0.051904768 -0.008313017 0.63866675
-0.047329884 -0.0084963106 0.63712502
-0.042870484 -0.0082920641 0.63700002
-0.037644763 -0.0075904764 0.63750005
-0.032669287 -0.0066550002 0.63525009
-0.027658369 -0.0071979598 0.63728571
-0.022847224 -0.0068772226 0.6369167
-0.017771838 -0.0073718373 0.63728571
-0.011698096 -0.0062526986 0.63533342
-0.0072717862 -0.0060617863 0.63637507
-0.0024248811 -0.0060655954 0.63687503
0.0026667621 -0.0064250487 0.63630015
0.0062871426 -0.0062871436 0.6388334
-0.091167152 -0.0022306351 0.63816679
-0.087730214 -0.0035440822 0.63528574
-0.0054428573 -0.0042333337 0.63500005
-0.0024190478 -0.0042333337 0.63500005
0.0022986669 -0.0039927624 0.63520002
0.0075648418 -0.0024207146 0.63541675
0.010291747 -0.0018155556 0.63566673
-0.090109527 0.0018142859 0.63500005
0.0038301591 0.0038301591 0.63500011
0.0075231986 0.0025942184 0.63550013
0.010297144 0.00060571433 0.63600004
-0.0020160319 0.0086706355 0.6351667
0.0024724547 0.0074189748 0.63669246
0.0072859521 0.006679127 0.63741672
0.010345715 0.0091285724 0.63900006
-0.010885715 0.013909524 0.63500005
-0.0068774903 0.012711775 0.63554555
-0.0025492702 0.012026859 0.63766676
0.0012171429 0.010345715 0.63900006
-0.011692234 0.017191578 0.63592321
-0.0077074002 0.016866669 0.63769233
-0.003651429 0.015214287 0.63900006
-0.017007051 0.023393719 0.63633341
-0.012645525 0.021644956 0.63840002
-0.021477383 0.028737858 0.63525003
-0.018128332 0.027690358 0.63724995
-0.030842859 0.03447143 0.63500005
-0.027707795 0.033439398 0.63627279
-0.022736633 0.032543957 0.63730776
-0.018242382 0.031012859 0.63850003
-0.036285713 0.039309528 0.63500005
-0.032430161 0.038090639 0.63650006
-0.027968002 0.036845338 0.63840002
-0.02495143 0.035905715 0.63900006
-0.037526116 0.042283263 0.63725007
-0.033859368 0.04156445 0.63866675
-0.050919212 0.047890004 0.63650006
-0.047383446 0.047759268 0.63723081
-0.043613099 0.046957862 0.63824999
-0.076031759 0.052917466 0.63866675
-0.074052706 0.052806996 0.63733339
-0.051672623 0.052483734 0.63708341
-0.048069432 0.051720668 0.63889998
-0.076011911 0.05594524 0.63850003
-0.073941551 0.056972023 0.63637507
-0.061548579 0.058780145 0.63628578
-0.056848511 0.057111643 0.63792866
-0.052782435 0.056297567 0.63866669
-0.072336473 0.06262926 0.63671434
-0.067566983 0.064340323 0.63533342
-0.062805526 0.062078863 0.63780004
-0.056597147 0.060248576 0.63900006
-0.071783572 0.066308342 0.63875008
-0.067459054 0.067217655 0.63813341
-0.063900001 0.065117151 0.63900006
-0.07168445 -0.015317461 0.64333338
-0.062560007 -0.015333334 0.64400005
-0.038640004 -0.015333334 0.64400005
-0.091244772 -0.01102381 0.64300001
-0.087826356 -0.011208571 0.64188892
-0.082566492 -0.011010096 0.64220005
-0.077050246 -0.011926113 0.64208335
-0.072116859 -0.012546595 0.64130777
-0.067186356 -0.01160651 0.64133334
-0.062356565 -0.011814288 0.64238471
-0.057827111 -0.011633854 0.64281821
-0.052615121 -0.011013215 0.64237505
-0.047617149 -0.010989525 0.64100009
-0.042854615 -0.011633809 0.64283341
-0.037974648 -0.012251787 0.64312512
-0.03266032 -0.01163651 0.64300013
-0.027540075 -0.011441027 0.6426155
-0.021834182 -0.011224234 0.64277786
-0.017347515 -0.011226033 0.6428889
-0.012661589 -0.010824762 0.64333338
-0.0073600002 -0.010426668 0.64400005
-0.0018380954 -0.010415873 0.64333338
0.001832762 -0.011128001 0.64200008
-0.092181593 -0.0077346037 0.64100003
-0.088380955 -0.0091428589 0.64000005
-0.082285725 -0.0091428589 0.64000005
-0.078409724 -0.0089019062 0.64020008
-0.064000003 -0.009142858 0.64000005
-0.057904765 -0.009142858 0.64000005
-0.053638101 -0.009142858 0.64000005
-0.041512385 -0.0091571435 0.64100003
-0.037517335 -0.0089219054 0.64160007
-0.033011075 -0.0085598817 0.64187503
-0.027863178 -0.0089492071 0.64066672
-0.02195905 -0.0091500003 0.64050007
-0.017085953 -0.0091535719 0.64075005
-0.012213811 -0.0085507147 0.64125001
-0.0073272618 -0.0085491668 0.64112502
-0.0024408337 -0.0085422629 0.640625
0.0015855239 -0.0086609526 0.64040011
-0.091428578 -0.0030476192 0.64000005
-0.090960957 0.00061047624 0.64100003
0.0042666672 0.009142858 0.64000005
0.0073142862 0.009142858 0.64000005
-0.00060952385 0.014019049 0.64000005
0.0026188442 0.012476395 0.64121437
0.0072268578 0.012372382 0.64300007
0.010415874 0.012865398 0.64333338
-0.0054885722 0.017686035 0.64033341
-0.0022684359 0.017379595 0.64185715
0.0018397282 0.016027484 0.64371437
0.01104 0.015333334 0.64400005
-0.011585851 0.023433743 0.64028579
-0.0073285718 0.021991432 0.64137501
-0.0027566671 0.021552224 0.64350009
-0.015560716 0.028985955 0.64075005
-0.012357208 0.027450163 0.64240015
-0.0077688894 0.025555557 0.64400005
-0.0042933337 0.025146669 0.64400005
-0.02111505 0.03429829 0.64080006
-0.017090479 0.033195682 0.64269239
-0.013224219 0.032142319 0.64371437
-0.027080741 0.039030161 0.64144444
-0.022801498 0.037132114 0.64214295
-0.018400002 0.036186669 0.64400005
-0.036571432 0.04449524 0.64000005
-0.032329243 0.043310381 0.64050007
-0.027817568 0.042852808 0.64277786
-0.041616194 0.04801929 0.64025003
-0.037899639 0.047683209 0.64187509
-0.033195402 0.047088422 0.64350009
-0.046551116 0.053463176 0.64033341
-0.042915873 0.052456196 0.64193338
-0.03888534 0.051397335 0.64400005
-0.077672228 0.058711909 0.64216667
-0.059123814 0.059123814 0.64000005
-0.051889941 0.058519058 0.64100009
-0.048047848 0.057180587 0.64238471
-0.044160001 0.05642667 0.64400005
-0.077423267 0.062639058 0.64300007
-0.074603498 0.062001593 0.64033341
-0.060906291 0.063104384 0.64080006
-0.057419818 0.062385771 0.64093345
-0.052980293 0.06211964 0.64284623
-0.049680002 0.061333336 0.64400005
-0.073285446 0.067867495 0.64200008
-0.065219052 0.068876192 0.64000005
-0.062208962 0.067345843 0.64166677
-0.058043633 0.066853344 0.64400005
-0.071661048 0.071660288 0.64310008
-0.067505859 0.071968034 0.64271432
-0.064400002 0.071146667 0.64400005
-0.095657147 -0.015428573 0.648
-0.092536196 -0.016039763 0.64775002
-0.087566674 -0.01603381 0.64749998
-0.082633339 -0.01603381 0.64749998
-0.07790491 -0.015933743 0.64700007
-0.07450144 -0.016010001 0.64649999
-0.067676201 -0.015792383 0.64600003
-0.062754288 -0.016201906 0.64600003
-0.057854291 -0.016003098 0.64625001
-0.052849948 -0.016246138 0.6477778
-0.048081048 -0.016438445 0.64799994
-0.042133339 -0.016387051 0.64680004
-0.036862656 -0.016981836 0.64664298
-0.03218592 -0.016974352 0.64635724
-0.027101193 -0.016015239 0.64675003
-0.022191193 -0.015410716 0.64725006
-0.017280001 -0.015428573 0.648
-0.012960001 -0.015428573 0.648
-0.096200481 -0.012333334 0.64749998
-0.092708014 -0.01271754 0.6460833
-0.087432258 -0.013620818 0.64585721
-0.082426079 -0.013532739 0.64587498
-0.078055248 -0.014135874 0.64533341
-0.067571431 -0.014128572 0.64500004
-0.062861912 -0.014128572 0.6450001
-0.057128575 -0.013637143 0.64500004
-0.052868817 -0.013525239 0.6455
-0.048017506 -0.013543453 0.646375
-0.043000001 -0.014128572 0.64500004
-0.035014287 -0.013514286 0.64500004
-0.031942859 -0.014128572 0.64500004
-0.026660001 -0.013882858 0.64500004
-0.02238735 -0.013608301 0.64528579
-0.016962996 -0.013623947 0.64600009
-0.012061334 -0.013171049 0.64620006
-0.0075591351 -0.012823723 0.64672726
-0.0026681484 -0.012109207 0.64644444
0.00061476196 -0.012295716 0.64550006
-0.096588574 -0.0083648991 0.64714289
-0.094058573 -0.0086071435 0.64550006
0.0029369311 0.018096933 0.64533335
0.0073762513 0.017212559 0.6454376
0.010934287 0.018060001 0.64500004
-0.0015357144 0.023650002 0.64500004
0.0021337732 0.021843957 0.64676923
0.0070325718 0.020606287 0.64780003
0.010475239 0.020334287 0.64700001
-0.010442858 0.02887143 0.64500004
-0.0071326676 0.027919525 0.64570004
-0.002667381 0.02688437 0.64641666
0.00061714288 0.025302859 0.648
-0.010979186 0.032235514 0.64557147
-0.0080144778 0.031445529 0.64740002
-0.0043200003 0.030240001 0.648
-0.021518311 0.038733978 0.64555556
-0.017076483 0.037890997 0.64569235
-0.01264337 0.036609676 0.64646161
-0.02520524 0.043034762 0.64550006
-0.022358097 0.042870067 0.64700001
-0.017263453 0.041309174 0.64737499
-0.014194286 0.040114287 0.648
-0.031500362 0.049018219 0.64537501
-0.027363131 0.047866948 0.64671439
-0.022834286 0.04587429 0.648
-0.041157145 0.054671433 0.64500004
-0.037017722 0.053335048 0.64566672
-0.032373261 0.052661765 0.64699996
-0.028579367 0.051607944 0.64766669
-0.046504766 0.059206989 0.64533341
-0.042317219 0.058243334 0.64664286
-0.037474666 0.056830861 0.64720005
-0.051395245 0.064090483 0.6450001
-0.047699317 0.062838651 0.64685708
-0.043309525 0.061325144 0.64780003
-0.077149056 0.067300953 0.64633334
-0.056935247 0.068987429 0.64560002
-0.053225927 0.067569189 0.64664286
-0.049988575 0.066034287 0.648
-0.07187143 0.074328579 0.64500004
-0.06634286 0.074328579 0.64500004
-0.062504083 0.072791159 0.6461429
-0.058370743 0.07216572 0.64763635
-0.054925717 0.070971437 0.648
-0.071478099 0.077025086 0.64700007
-0.06777411 0.07763423 0.64693755
-0.063332215 0.077132225 0.64790899
-0.05986286 0.075908579 0.648
-0.067268573 0.080845721 0.648
-0.087066673 -0.020522859 0.65300006
-0.080847621 -0.020522859 0.65300006
-0.076494291 -0.020522859 0.65300006
-0.074006669 -0.020522859 0.65300006
-0.062812388 -0.020522859 0.65300006
-0.049130481 -0.020522859 0.65300006
-0.030473335 -0.020522859 0.65300006
-0.027363811 -0.020522859 0.65300006
-0.023632381 -0.020522859 0.65300006
-0.10054129 -0.015962224 0.65300006
-0.09697631 -0.017301166 0.65133339
-0.092673205 -0.018499866 0.65057147
-0.087972388 -0.018586192 0.65050006
-0.083127029 -0.018610835 0.651375
-0.077397585 -0.018434117 0.65109092
-0.072169274 -0.018113855 0.65172732
-0.067248963 -0.018240383 0.65140003
-0.061999772 -0.018600715 0.65100002
-0.056996197 -0.018586192 0.65050006
-0.052466035 -0.018797463 0.65066671
-0.04684354 -0.018684899 0.65085721
-0.042605244 -0.01882175 0.65149999
-0.03852905 -0.019264288 0.65250003
-0.031000953 -0.019220002 0.65100002
-0.027273929 -0.018597025 0.65087503
-0.022330955 -0.017990477 0.65133339
-0.017856073 -0.016925834 0.65212506
-0.012115001 -0.01646262 0.65225005
-0.0071982867 -0.016508764 0.6516
-0.0028179486 -0.017047985 0.65176928
-0.10012668 -0.014303811 0.65300006
-0.098706864 -0.012508762 0.65020007
-0.0055714292 -0.014238096 0.65000004
-0.0024761904 -0.014238096 0.65000004
-0.098428577 -0.0080476198 0.65000004
0.0039266674 0.023767304 0.65100002
0.0074338107 0.022923145 0.65050006
-0.0010323811 0.028712384 0.65066671
0.0024164023 0.02656794 0.65211111
0.0074571432 0.026100479 0.65250003
-0.0064028576 0.033256829 0.65066671
-0.0026267404 0.032246813 0.65207696
-0.010952699 0.038646672 0.65100002
-0.0082235727 0.036467858 0.65175003
-0.016940795 0.043595403 0.65083337
-0.013175135 0.042149741 0.65188891
-0.025380954 0.048904765 0.65000004
-0.021945978 0.047787536 0.65163636
-0.018173216 0.046443932 0.65237504
-0.014303811 0.045399051 0.65300006
-0.030333335 0.053857148 0.65000004
-0.026675431 0.052733716 0.65140009
-0.022784922 0.050750002 0.65250003
-0.036541909 0.05883969 0.6503334
-0.032090075 0.057357416 0.65157145
-0.028907385 0.056261193 0.65275007
-0.04519048 0.063761912 0.65000004
-0.041539583 0.062758632 0.65100002
-0.037373085 0.061959505 0.65186667
-0.033790164 0.060739368 0.65300006
-0.050555557 0.068301596 0.65000004
-0.046941776 0.067226402 0.65100002
-0.042518102 0.066930071 0.65242863
-0.037936192 0.065300003 0.65300006
-0.056760162 0.073891908 0.65016675
-0.051993348 0.072313346 0.65214288
-0.047837466 0.070825413 0.65233338
-0.043533336 0.07027524 0.65300006
-0.07180953 0.079857148 0.65000004
-0.061463814 0.079114057 0.65025002
-0.05729482 0.07673905 0.65155554
-0.053483814 0.075250484 0.65300006
-0.071300007 0.082638241 0.65100002
-0.067122623 0.082407698 0.65058339
-0.062094606 0.082587309 0.65200007
-0.058747385 0.08112786 0.65275007
-0.070653975 0.085572064 0.65266675
-0.067528412 0.085550331 0.65250003
-0.064056195 0.085200958 0.65300006
-0.10138668 -0.022282179 0.65771431
-0.097648494 -0.021909129 0.65725005
-0.092594296 -0.021162722 0.6562857
-0.086840004 -0.021034922 0.65600008
-0.082235657 -0.021877553 0.65628576
-0.077665932 -0.022280317 0.65588892
-0.072369471 -0.022625716 0.65619999
-0.067525722 -0.022510955 0.65650004
-0.062441368 -0.022781225 0.65657151
-0.05769429 -0.022240276 0.65642858
-0.052526262 -0.022245172 0.65657151
-0.047250144 -0.022510685 0.6565001
-0.042998254 -0.021082064 0.65750003
-0.037334926 -0.021066351 0.65700006
-0.03270524 -0.021596428 0.65725005
-0.027372003 -0.022124002 0.65620005
-0.021874759 -0.021876428 0.65625006
-0.017724235 -0.021479787 0.6568889
-0.013995557 -0.021097779 0.65800011
-0.007356667 -0.021439284 0.65725005
-0.004366667 -0.020585716 0.65500003
-0.102218 -0.017998943 0.65666664
-0.098820329 -0.018932065 0.6553334
-0.016846826 -0.018719211 0.65516669
-0.012415345 -0.018519472 0.65544444
-0.007907779 -0.018936986 0.65550011
-0.10224751 -0.012508453 0.65662503
0.0029134925 0.028925559 0.65550005
0.0074914289 0.028717622 0.65550005
-0.00062380958 0.033685714 0.65500003
0.0025010719 0.032500714 0.65625
0.0072368719 0.032345857 0.65671432
-0.0067104762 0.038238097 0.65550011
-0.002499524 0.037508573 0.65637499
0.0021679855 0.037223227 0.65730774
-0.011031747 0.042879693 0.65566671
-0.0076880283 0.042290755 0.65714288
-0.0028191668 0.041508932 0.657875
0.0012526191 0.041344527 0.65775001
-0.016708216 0.048253931 0.65587503
-0.01314 0.047086194 0.65700001
-0.0094000008 0.045746669 0.65800005
-0.022234287 0.053339239 0.6558001
-0.018038176 0.052241355 0.65691674
-0.014413334 0.050760005 0.65800005
-0.026971988 0.057799451 0.65608346
-0.023031536 0.056710262 0.65755558
-0.019426668 0.055773336 0.65800005
-0.035557143 0.064252384 0.65500003
-0.032150626 0.062814072 0.65600008
-0.028360138 0.061642043 0.65757149
-0.040547621 0.068619058 0.65500003
-0.03768589 0.067815244 0.65654546
-0.033813812 0.065750003 0.65750003
-0.047098763 0.073211536 0.65590006
-0.042917244 0.072572857 0.65690005
-0.038823336 0.070759527 0.65750003
-0.05655105 0.078523241 0.65540004
-0.052330278 0.07778158 0.65635723
-0.047858167 0.077469461 0.65750009
-0.043866668 0.076453343 0.65800005
-0.057327833 0.082483612 0.6566667
-0.053030483 0.081216827 0.65766668
-0.049506672 0.080840006 0.65800005
-0.062956199 0.086513981 0.6566667
-0.10581653 -0.026296511 0.66266674
-0.10201641 -0.026677566 0.66166669
-0.09707465 -0.026475836 0.66187501
-0.092511438 -0.026125524 0.66260004
-0.087104291 -0.026510242 0.66275007
-0.082164839 -0.027324397 0.6624617
-0.077180125 -0.026989209 0.66244453
-0.072363608 -0.026691008 0.66200006
-0.06760022 -0.026691006 0.662
-0.062763408 -0.026385175 0.66185725
-0.057572391 -0.026078669 0.66140002
-0.052937146 -0.027460683 0.66171438
-0.048161242 -0.026855335 0.6619001
-0.042504922 -0.026303019 0.66283339
-0.037649844 -0.026713124 0.66255563
-0.033047054 -0.026867047 0.66220009
-0.027900193 -0.026133334 0.66280001
-0.022592193 -0.026125526 0.6626001
-0.017666668 -0.025869049 0.66250002
-0.012408415 -0.026290005 0.66250008
-0.10612206 -0.023492657 0.6615715
-0.10349429 -0.023013143 0.66020006
-0.098057143 -0.024514288 0.66000003
-0.092488408 -0.023737578 0.66063643
-0.087615721 -0.023415715 0.66090006
-0.083453819 -0.023694446 0.66050005
-0.078001916 -0.024532858 0.66050005
-0.056571431 -0.024514288 0.66000003
-0.052800003 -0.024514288 0.66000003
-0.049657147 -0.024514288 0.66000003
-0.04254229 -0.023537906 0.6608001
-0.03787991 -0.023534192 0.66070002
-0.032818507 -0.024006806 0.6608572
-0.027830206 -0.024048438 0.66200012
-0.023100793 -0.024150003 0.6615001
-0.017345851 -0.023996737 0.66057146
-0.012245788 -0.022992019 0.66069239
-0.0086742854 -0.023508573 0.66000003
-0.10497144 -0.018857144 0.66000003
-0.10402858 -0.012885715 0.66000003
0.0094357152 0.033969052 0.66050005
0.010685715 0.033314288 0.66000003
0.0039831749 0.039200958 0.6603334
0.0075550005 0.037773218 0.66100001
0.010734286 0.039148573 0.66300005
-0.0062857149 0.044628575 0.66000003
-0.0022000002 0.04384286 0.66000003
0.0025911115 0.042898629 0.66133338
0.0073038107 0.041566398 0.66271436
0.010734286 0.041042861 0.66300005
-0.011600682 0.048653744 0.66100007
-0.007563198 0.047902517 0.66178578
-0.003011429 0.046991117 0.66177779
0.00062952383 0.045955241 0.66100001
-0.016034525 0.053763572 0.66025007
-0.012477906 0.053070802 0.66180009
-0.0086271446 0.051974766 0.66283339
-0.022033338 0.059086129 0.66100001
-0.01764109 0.05796776 0.66157144
-0.013884446 0.05743175 0.66266674
-0.027215954 0.06355834 0.66075009
-0.022705002 0.06244136 0.66225016
-0.019069145 0.062258858 0.66300005
-0.035828575 0.069142863 0.66000003
-0.032551225 0.068251915 0.66092867
-0.02760374 0.067290485 0.66223091
-0.023678575 0.065352857 0.66300005
-0.041218333 0.07394167 0.66075003
-0.037743986 0.072913341 0.66154557
-0.032988485 0.072460353 0.66263646
-0.028666859 0.070593722 0.66300005
-0.045885716 0.0792 0.66000003
-0.042484343 0.078042857 0.66144449
-0.037732322 0.077106804 0.6625334
-0.033886671 0.075981915 0.66300011
-0.052755918 0.083493069 0.66057152
-0.047937356 0.082370378 0.66133338
-0.043288957 0.080900006 0.66260004
-0.098120004 -0.03504286 0.66900003
-0.10608477 -0.031126669 0.66700006
-0.10200001 -0.031810477 0.6680001
-0.09764915 -0.032338858 0.66840005
-0.092840195 -0.031456195 0.66860002
-0.087662868 -0.031126669 0.66700006
-0.082175724 -0.031559207 0.66716671
-0.077615246 -0.031810481 0.6680001
-0.072525725 -0.031810477 0.6680001
-0.067486197 -0.031833813 0.66850007
-0.063395716 -0.031538572 0.66900003
-0.053520001 -0.031220002 0.66900003
-0.04646508 -0.03118889 0.66833341
-0.042226128 -0.031873744 0.66742861
-0.038183574 -0.031185003 0.66825008
-0.028034287 -0.031220002 0.66900003
-0.022937145 -0.031220002 0.66900003
-0.017810287 -0.032181714 0.66780007
-0.014588572 -0.031714287 0.66600001
-0.1073796 -0.028592655 0.66714293
-0.10277865 -0.029249392 0.66557145
-0.097642861 -0.029166428 0.66574997
-0.092445813 -0.028663116 0.66609091
-0.087433577 -0.029144287 0.66525
-0.081700012 -0.029766669 0.66500008
-0.077285565 -0.029351909 0.66516674
-0.072352253 -0.029249392 0.66557145
-0.066962183 -0.029268302 0.66600001
-0.062030688 -0.029005714 0.66688895
-0.057693336 -0.028884871 0.66733342
-0.050666671 -0.029766669 0.66500002
-0.046695385 -0.029287213 0.66642857
-0.042948455 -0.028686309 0.66562498
-0.038304087 -0.029249391 0.66557145
-0.032559052 -0.029388893 0.66600001
-0.027877145 -0.02868719 0.66663641
-0.022926325 -0.028703295 0.667
-0.017776113 -0.028569287 0.66658336
-0.013729526 -0.028514605 0.66533333
0.0038000001 0.044333335 0.66500002
0.0063333339 0.043700002 0.66500002
-0.0010558732 0.048368894 0.66533339
0.0026694287 0.047270004 0.66710007
0.0064798105 0.046119813 0.667
-0.0064238105 0.05256667 0.66500008
-0.0025373809 0.052061904 0.66662496
0.00063714292 0.05033429 0.66900003
-0.011408414 0.057677306 0.66550004
-0.0078901369 0.056961708 0.6666429
-0.0040307939 0.055800956 0.66833341
-0.016634166 0.062577501 0.66537499
-0.013766668 0.062063176 0.66722232
-0.022499528 0.067712709 0.66550004
-0.018228255 0.066980958 0.66766667
-0.031033335 0.074100003 0.66500002
-0.027504072 0.072944246 0.66600001
-0.023101697 0.071430378 0.66766673
-0.03271769 0.077671699 0.66614288
-0.029066352 0.076167941 0.66833341
-0.0935781 -0.035252385 0.67300004
-0.081481598 -0.03592921 0.67366666
-0.078526363 -0.035732701 0.67400002
-0.060980957 -0.035304762 0.67400002
-0.056487624 -0.035304762 0.67400002
-0.052187052 -0.035519622 0.67320007
-0.048142862 -0.035304762 0.67400002
-0.021182859 -0.035304762 0.67400002
-0.01989905 -0.035304762 0.67400002
-0.11107563 -0.032158669 0.67260003
-0.1078243 -0.032912482 0.67230004
-0.10297944 -0.033133339 0.67160004
-0.095147148 -0.033206195 0.67050004
-0.092279062 -0.033460639 0.67133331
-0.087727025 -0.03330012 0.67237502
-0.083277337 -0.033389334 0.67160004
-0.077482678 -0.033940196 0.6724
-0.073819056 -0.034020953 0.67400002
-0.067169212 -0.033903178 0.67166674
-0.062195718 -0.033097144 0.67150003
-0.057549443 -0.032613575 0.6714167
-0.052200485 -0.032881431 0.6717
-0.047510479 -0.033023916 0.67111117
-0.042240001 -0.033920001 0.67200005
-0.036925398 -0.033084977 0.67233336
-0.032782741 -0.032463931 0.67162502
-0.028076192 -0.032542858 0.67000002
-0.022736602 -0.033147484 0.67114288
-0.019780954 -0.03381905 0.67000002
-0.10911429 -0.029990477 0.67000002
0.0038285716 0.049133338 0.67000002
0.0067000003 0.048814293 0.67000002
0.0026848258 0.052525468 0.67093343
0.0065558339 0.051972743 0.67162496
-0.0057428577 0.058704764 0.67000002
-0.0022115021 0.057859413 0.671
0.0019238963 0.057294808 0.67318177
0.0057771434 0.055845719 0.67400002
-0.011409252 0.062888719 0.67085719
-0.0080270339 0.0624118 0.67238456
-0.0040653972 0.061408892 0.67400002
-0.016614763 0.069017619 0.671
-0.01333405 0.067530409 0.67208332
-0.0096285725 0.066116191 0.67400002
-0.085120007 0.072320007 0.67200005
-0.023159048 0.074089721 0.67180008
-0.018330319 0.071413189 0.67150009
-0.088593341 -0.040740002 0.67900002
-0.11599097 -0.036510479 0.6785
-0.1123931 -0.037107859 0.6775834
-0.10733745 -0.03667517 0.67738467
-0.10238559 -0.03628327 0.67857146
-0.097188197 -0.036268957 0.67760003
-0.092344247 -0.036896832 0.67700011
-0.087663881 -0.037389114 0.67681259
-0.082928106 -0.038178198 0.67710006
-0.077068262 -0.037622705 0.6771667
-0.072332621 -0.03745988 0.67812508
-0.067141786 -0.037447024 0.6778751
-0.06222295 -0.037242688 0.67736363
-0.057845004 -0.036901433 0.67675006
-0.053168308 -0.037505992 0.67728579
-0.047567409 -0.037237462 0.67799997
-0.042770401 -0.036670476 0.67763638
-0.037428338 -0.036785163 0.6775834
-0.032231312 -0.036101311 0.67687511
-0.027130716 -0.036174051 0.67825001
-0.02285086 -0.036279812 0.6778
-0.11601335 -0.033792384 0.67800009
-0.11335715 -0.033642858 0.67500007
-0.10350001 -0.034071431 0.67500001
-0.071427628 -0.034105085 0.67566675
-0.030857144 -0.034071431 0.67500001
-0.027020954 -0.034096669 0.67550004
0.0039857146 0.058757152 0.67500001
0.0063017146 0.058260571 0.67519999
-0.0062142862 0.064500004 0.67500007
-0.0020721697 0.062695034 0.67555559
0.0020821164 0.062368471 0.67822224
0.0064614294 0.060742386 0.67850006
-0.010928572 0.068142861 0.67500001
-0.0075493511 0.067727014 0.67609096
-0.0031198419 0.066832863 0.67799997
-0.11530287 -0.04234286 0.68400002
-0.11253144 -0.041631434 0.68300003
-0.10785977 -0.040935002 0.68225002
-0.10277525 -0.040980004 0.68300003
-0.096147627 -0.041454293 0.68366671
-0.092177227 -0.042463668 0.68269229
-0.087264635 -0.04305964 0.6826154
-0.082446672 -0.042142078 0.68263644
-0.077525407 -0.041979361 0.68277788
-0.072774053 -0.042236745 0.68225002
-0.067722186 -0.042584356 0.68185723
-0.062376194 -0.041585956 0.68224996
-0.056835558 -0.041434295 0.6833334
-0.052489337 -0.041288577 0.68380004
-0.047519527 -0.041661434 0.68349999
-0.042866882 -0.041854821 0.68311119
-0.038013887 -0.041546673 0.68314296
-0.032555558 -0.041454293 0.68366671
-0.027076 -0.042045724 0.68340003
-0.022962043 -0.041927215 0.68328583
-0.11734834 -0.037604049 0.68075001
-0.1129016 -0.039504763 0.68000001
-0.10750477 -0.039504763 0.68000001
-0.10256703 -0.0389506 0.68162507
-0.097466439 -0.038986672 0.68225008
-0.092701599 -0.039543495 0.68066669
-0.077066675 -0.039504763 0.68000001
-0.061955556 -0.039504763 0.68000001
-0.057114765 -0.039591905 0.68150008
-0.051980242 -0.039635479 0.68225002
-0.047343813 -0.039562862 0.68099999
-0.042354289 -0.039245717 0.68000001
-0.037589051 -0.039533813 0.68050003
-0.032457262 -0.038951073 0.68162495
-0.027286071 -0.038979169 0.68212503
-0.022700002 -0.038915243 0.68099999
-0.11592381 -0.027847622 0.68000001
0.0041060322 0.063745402 0.68066669
0.0071409526 0.062757783 0.68166673
-0.00097190484 0.068374768 0.68050003
0.0021501833 0.067386672 0.6818462
0.0058628577 0.065794289 0.68400002
-0.11614572 -0.045277145 0.68900001
-0.11352096 -0.045277145 0.68900001
-0.10892762 -0.045277145 0.68900001
-0.10105334 -0.045277145 0.68900001
-0.096975245 -0.045539528 0.68800002
-0.0928635 -0.045778103 0.68666673
-0.087306671 -0.046206482 0.68720001
-0.082514882 -0.045842979 0.68762499
-0.077247977 -0.045826074 0.68737507
-0.072267488 -0.045903947 0.68714297
-0.0674254 -0.045605086 0.68733335
-0.063590169 -0.045233335 0.68833339
-0.057088576 -0.045277145 0.68900001
-0.052342862 -0.045145717 0.68700004
-0.047141433 -0.045178574 0.6875
-0.042612385 -0.045233335 0.68833339
-0.038122859 -0.045460764 0.68780005
-0.032809526 -0.045277145 0.68900001
-0.028177146 -0.045211431 0.68800008
-0.12008287 -0.041340005 0.68900001
-0.1176139 -0.042761091 0.68771434
-0.11249548 -0.043821193 0.68675005
-0.10738024 -0.043215245 0.68750006
-0.10243497 -0.043312792 0.68757159
-0.098344646 -0.042637978 0.68612498
-0.081666671 -0.043773334 0.68600005
-0.079053335 -0.043773334 0.68600005
-0.062765718 -0.043805242 0.68650007
-0.058041912 -0.043422863 0.68733335
-0.052030202 -0.043249797 0.68657154
-0.047040004 -0.043773334 0.68600005
-0.04246667 -0.043773334 0.68600005
-0.037511811 -0.043524768 0.68620008
-0.032682545 -0.043359052 0.68633342
-0.028746668 -0.043773334 0.68600005
-0.12008286 -0.038059048 0.68900001
-0.11825334 -0.039853334 0.68600005
0.0071866671 0.064680003 0.68600005
-0.11170097 -0.050893337 0.69400001
-0.10905715 -0.050893337 0.69400001
-0.088567629 -0.050893337 0.69400001
-0.12624191 -0.046266671 0.69400001
-0.12262898 -0.04681056 0.69224995
-0.11745048 -0.047717012 0.69171435
-0.11235195 -0.047999401 0.69209093
-0.10746212 -0.047711913 0.69164294
-0.10293498 -0.047192473 0.69081819
-0.097396672 -0.047713336 0.69099998
-0.092266679 -0.04877143 0.69200003
-0.087275378 -0.048865311 0.69200009
-0.082740009 -0.048667077 0.69185722
-0.077767625 -0.04877143 0.69200003
-0.072534643 -0.048797499 0.69237506
-0.066828191 -0.048112761 0.69200009
-0.062125124 -0.047297027 0.69212502
-0.057978868 -0.047572192 0.69180006
-0.052648578 -0.047383815 0.69099998
-0.047434527 -0.04743572 0.69174999
-0.041952062 -0.047665294 0.69188893
-0.0375815 -0.048132248 0.69228584
-0.032755673 -0.047967624 0.69163644
-0.029175561 -0.047163498 0.6910001
-0.12624191 -0.044283811 0.69400001
-0.12281009 -0.04247088 0.69141668
-0.1222762 -0.038335241 0.69400001
-0.1260232 -0.0516054 0.69766665
-0.12222858 -0.052146908 0.69749999
-0.11767478 -0.052272674 0.69650006
-0.11318357 -0.052698102 0.6960001
-0.10738286 -0.051371906 0.69600004
-0.10233596 -0.051168334 0.69774997
-0.096861377 -0.052083682 0.69728577
-0.092495345 -0.05228734 0.69670004
-0.087907635 -0.052441768 0.69700009
-0.082341194 -0.051796433 0.69725001
-0.076915778 -0.052286353 0.69688892
-0.072595358 -0.051879406 0.69612503
-0.067732386 -0.051795959 0.69725001
-0.062151574 -0.051714562 0.69742858
-0.057086673 -0.0517781 0.69700009
-0.052516192 -0.051186673 0.69800007
-0.047862858 -0.05118667 0.69800001
-0.042453337 -0.051741429 0.6965
-0.036908574 -0.052176576 0.69700003
-0.032511115 -0.052417774 0.69666672
-0.029785717 -0.050966669 0.69500005
-0.12656169 -0.049365479 0.69575012
-0.12245239 -0.049642861 0.69500005
-0.10193335 -0.049642861 0.69500005
-0.098623827 -0.049642861 0.69500005
-0.069500007 -0.049642861 0.69500005
-0.06221905 -0.049642861 0.69500005
-0.056261908 -0.049642861 0.69500005
-0.053026669 -0.04971429 0.69600004
-0.04779429 -0.049785718 0.69700003
-0.04302381 -0.049642861 0.69500005
-0.03574286 -0.049642861 0.69500005
-0.12603191 -0.041787148 0.69650006
-0.12564 -0.039220955 0.69800001
-0.12374859 -0.037411433 0.69733334
-0.12572128 -0.032923177 0.69600004
-0.12364572 -0.033902861 0.69800001
-0.12714839 -0.056138098 0.70340008
-0.12236941 -0.056171313 0.70212507
-0.11742912 -0.056088716 0.70228583
-0.11243786 -0.055550717 0.70275003
-0.10656811 -0.056635477 0.70375001
-0.10253429 -0.056964125 0.70366675
-0.097921059 -0.056586768 0.70230007
-0.092530482 -0.056054566 0.70185721
-0.087221146 -0.055870291 0.70340008
-0.082177423 -0.056539327 0.70314288
-0.077600405 -0.056864373 0.70241678
-0.072243221 -0.056190837 0.70237499
-0.067293748 -0.056381911 0.7035715
-0.062741593 -0.056043815 0.70333338
-0.057599768 -0.055590242 0.70325005
-0.051765244 -0.056004293 0.70283341
-0.047334425 -0.056516193 0.7028572
-0.04283921 -0.056897625 0.70283335
-0.037764162 -0.056860097 0.70236373
-0.033587303 -0.055831116 0.70066667
-0.13074286 -0.054308575 0.70400006
-0.12793064 -0.053175088 0.70083332
-0.12333333 -0.054000005 0.70000005
-0.11074524 -0.054038577 0.70050001
-0.10741001 -0.053371906 0.70050001
-0.10274 -0.05337191 0.70050007
-0.098000005 -0.05366667 0.70000005
-0.086444452 -0.053555559 0.70000005
-0.082666673 -0.054000005 0.70000005
-0.078666672 -0.054000005 0.70000005
-0.071777791 -0.054000005 0.70000005
-0.067396834 -0.054051429 0.70066679
-0.063138291 -0.053795051 0.70080006
-0.057415243 -0.054077145 0.70100003
-0.052019052 -0.053352624 0.70025003
-0.047355562 -0.053359054 0.70033336
-0.04266667 -0.054000005 0.70000005
-0.038666669 -0.054000005 0.70000005
-0.12787905 -0.040840954 0.70300001
-0.12600002 -0.036666669 0.70000005
-0.12422224 -0.036222227 0.70000005
-0.12733334 -0.034000002 0.70000005
-0.12744001 -0.060011432 0.708
-0.12272 -0.061022863 0.708
-0.11746057 -0.060550865 0.708
-0.11283048 -0.061135244 0.70800006
-0.10771608 -0.061936319 0.70687509
-0.10306793 -0.061302226 0.70733333
-0.095074289 -0.060011432 0.708
-0.092040002 -0.060348574 0.708
-0.088106677 -0.061809532 0.70800006
-0.082262859 -0.061022859 0.708
-0.078217149 -0.060011432 0.708
-0.07239715 -0.061612386 0.70780003
-0.067277834 -0.061888445 0.70742863
-0.062285315 -0.062093478 0.70757145
-0.057735875 -0.061331116 0.70766664
-0.052819055 -0.060011432 0.70800006
-0.046509765 -0.061338335 0.70774996
-0.042743102 -0.061588816 0.70674998
-0.13155541 -0.057248097 0.70716667
-0.1278505 -0.057943434 0.7058
-0.12206002 -0.059062451 0.70585716
-0.11742991 -0.058783051 0.70620006
-0.11245501 -0.057994053 0.70599997
-0.10813881 -0.058771193 0.70525002
-0.10205715 -0.059757147 0.70500004
-0.096685722 -0.058414288 0.70500004
-0.092464581 -0.058278292 0.70660001
-0.087337755 -0.058613084 0.70590907
-0.082994871 -0.05932172 0.70620006
-0.07608667 -0.05992667 0.70700002
-0.072590724 -0.059149284 0.70574999
-0.0672381 -0.059170477 0.70599997
-0.062492937 -0.058846395 0.70557147
-0.058030743 -0.058398705 0.70627266
-0.052918103 -0.058077149 0.70633334
-0.047738098 -0.059170477 0.70599997
-0.042971432 -0.059757147 0.70500004
-0.03961429 -0.059757147 0.70500004
-0.13264668 -0.054540005 0.70700002
-0.11696 -0.065960005 0.71400005
-0.11325382 -0.066367149 0.71350002
-0.10948001 -0.065960005 0.71400005
-0.098600008 -0.065960005 0.71400005
-0.083640009 -0.065960005 0.71400005
-0.066910237 -0.066230237 0.71325004
-0.062879816 -0.066139244 0.71300006
-0.056696575 -0.066213533 0.71380007
-0.052727353 -0.067099325 0.71371436
-0.048271313 -0.066968456 0.71387511
-0.13654384 -0.061817829 0.71328574
-0.13221629 -0.061768491 0.71127278
-0.12769297 -0.062719129 0.7119168
-0.12205621 -0.063742541 0.71200007
-0.117296 -0.063126452 0.71100003
-0.11257842 -0.063847624 0.71066666
-0.10721382 -0.064464286 0.71250004
-0.10250703 -0.063370354 0.71162504
-0.097671509 -0.062452447 0.71120012
-0.092732601 -0.063356929 0.71188897
-0.087277152 -0.063932002 0.71260005
-0.082463183 -0.063486874 0.71166676
-0.077655725 -0.063020855 0.71150011
-0.072554767 -0.063742384 0.71200001
-0.06788934 -0.064094283 0.71140003
-0.062297147 -0.064328574 0.71100003
-0.056932386 -0.063938104 0.71166676
-0.052603342 -0.062652215 0.71116674
-0.047955878 -0.063316718 0.71144456
-0.042661905 -0.063426986 0.71100008
-0.13648859 -0.059077147 0.71300006
-0.13398048 -0.058870003 0.7105
-0.10120477 -0.070432387 0.71800005
-0.097007945 -0.070530489 0.71900004
-0.093812384 -0.070530482 0.71900004
-0.1372 -0.066375718 0.71850002
-0.13245134 -0.067252807 0.7181111
-0.12794819 -0.067347355 0.71842867
-0.12274368 -0.066890076 0.71771437
-0.11783662 -0.068048857 0.7175715
-0.11210548 -0.068015963 0.71775001
-0.10724548 -0.066602618 0.71725005
-0.1021243 -0.067455485 0.71724999
-0.097344227 -0.067907199 0.71700001
-0.092880487 -0.067340098 0.71710002
-0.087390125 -0.066908933 0.71687502
-0.0820181 -0.067211114 0.71766675
-0.07784541 -0.066693023 0.71700001
-0.072396323 -0.066932499 0.71712506
-0.068285719 -0.067602858 0.71700001
-0.0623261 -0.068054102 0.71600002
-0.057514668 -0.068168394 0.71720004
-0.051178575 -0.068238579 0.71650004
-0.04636953 -0.068190485 0.71600002
-0.1403762 -0.063682862 0.71900004
-0.13826993 -0.063197531 0.71660006
-0.13365334 -0.064780958 0.71600002
-0.1261524 -0.064780958 0.71600002
-0.12478858 -0.064780958 0.71600002
-0.075797148 -0.06487143 0.71700001
-0.074327625 -0.064780958 0.71600002
-0.1377143 -0.070922859 0.72300005
-0.13232121 -0.071144529 0.72175008
-0.12751944 -0.071119808 0.7222001
-0.12287658 -0.071139432 0.72240007
-0.11774572 -0.070922866 0.72300005
-0.11219881 -0.071242616 0.72275007
-0.10736108 -0.071574643 0.72262508
-0.10276501 -0.071831197 0.72175008
-0.097542152 -0.071782149 0.72125006
-0.092655882 -0.071151122 0.72066677
-0.08056286 -0.070922859 0.72300005
-0.077550888 -0.071849398 0.72242868
-0.074313812 -0.07156191 0.72250009
-0.14194466 -0.067342758 0.72233343
-0.13812914 -0.068624094 0.72157156
-0.13302857 -0.069257148 0.72000003
-0.12685715 -0.068914294 0.72000003
-0.12274286 -0.069257155 0.72000003
-0.12 -0.069257148 0.72000003
-0.11197969 -0.069385402 0.72133338
-0.1070849 -0.068806276 0.72142869
-0.10354286 -0.069257148 0.72000003
-0.091200009 -0.069257148 0.72000003
-0.087891437 -0.069353342 0.72100008
-0.081865087 -0.069481596 0.72233343
-0.077195719 -0.068962388 0.72050005
-0.073539376 -0.069417462 0.72166675
-0.061282862 -0.069545716 0.72300005
-0.059905719 -0.069545716 0.72300005
-0.14214002 -0.063174292 0.72100008
-0.14094001 -0.075677149 0.72900003
-0.13955143 -0.075677149 0.72900003
-0.13260858 -0.075677149 0.72900003
-0.12627381 -0.075625241 0.72850001
-0.12219429 -0.075677149 0.72900003
-0.11872286 -0.075677149 0.72900003
-0.11243597 -0.075998336 0.72874999
-0.10762334 -0.075983971 0.72750008
-0.10261191 -0.076267384 0.7280001
-0.097901635 -0.076520137 0.72757143
-0.092906669 -0.07557334 0.72800004
-0.089562863 -0.075677149 0.72900003
-0.077554487 -0.07562115 0.72580004
-0.074288577 -0.075677149 0.72900003
-0.066651434 -0.075677149 0.72900003
-0.064105719 -0.076140009 0.72900003
-0.14639334 -0.072503813 0.72850001
-0.14253324 -0.072651528 0.72649997
-0.13730559 -0.073448986 0.7265715
-0.13243224 -0.073241435 0.72550005
-0.12808515 -0.073369347 0.72540009
-0.12277634 -0.07339076 0.72600007
-0.11770382 -0.073393814 0.727
-0.11313859 -0.073044926 0.72583336
-0.10782501 -0.073957384 0.72575003
-0.10243405 -0.074059293 0.72675002
-0.097838104 -0.073637627 0.72599995
-0.092197627 -0.073170245 0.72650003
-0.087358579 -0.072801277 0.72800004
-0.082552984 -0.072862267 0.72687501
-0.077598102 -0.07391493 0.72533339
-0.071475074 -0.072611012 0.72736371
-0.06739258 -0.072524004 0.72800004
-0.063218236 -0.072518378 0.72714293
-0.14645655 -0.067702025 0.72537494
-0.14430955 -0.067896828 0.72500008
-0.08492858 -0.069738097 0.72500002
-0.071119055 -0.069738097 0.72500002
-0.066331908 -0.069786191 0.72549999
-0.14668733 -0.063987628 0.72766674
-0.14470762 -0.063698098 0.727
-0.10206096 -0.080390483 0.73400003
-0.097866669 -0.080390483 0.73400003
-0.14686653 -0.077041745 0.73316669
-0.14254382 -0.077199869 0.73214287
-0.13736843 -0.076704293 0.73216671
-0.13257036 -0.077101551 0.73262507
-0.12728351 -0.077024452 0.73300004
-0.12225738 -0.077611908 0.73250002
-0.11738837 -0.077717461 0.7322222
-0.11303875 -0.078152388 0.73266673
-0.10771964 -0.07845562 0.73160005
-0.10234001 -0.078669533 0.73100007
-0.096455008 -0.078348339 0.73124999
-0.092656672 -0.078027144 0.73150009
-0.087649189 -0.077510826 0.73200011
-0.082545996 -0.076771021 0.73185712
-0.071644172 -0.077222981 0.73212498
-0.067756064 -0.077705726 0.73128575
-0.064049527 -0.077973336 0.73100001
-0.15169334 -0.073400006 0.73400003
-0.14839049 -0.073846675 0.73150003
-0.090791434 -0.085160956 0.73900002
-0.089383818 -0.085160956 0.73900002
-0.1559041 -0.08262001 0.73785722
-0.15249468 -0.082426295 0.73720002
-0.1477455 -0.081803501 0.73833334
-0.14207192 -0.080883339 0.7385
-0.13681355 -0.08141353 0.73820001
-0.13256589 -0.081711158 0.73871434
-0.12762764 -0.081261277 0.73766673
-0.1221221 -0.08136972 0.73780006
-0.11737324 -0.081812598 0.73700005
-0.11255179 -0.082037151 0.73736364
-0.10757172 -0.081707224 0.73685724
-0.10356453 -0.081800245 0.73725003
-0.0974181 -0.081964456 0.73766673
-0.092482343 -0.08201725 0.73718184
-0.08763355 -0.081860855 0.73744446
-0.15568249 -0.078192197 0.73700005
-0.15241818 -0.076991796 0.73646158
-0.14790097 -0.078857146 0.73600006
-0.14229333 -0.079207622 0.73600006
-0.13738668 -0.079207622 0.73600006
-0.13177906 -0.079207622 0.73600006
-0.12780701 -0.078740329 0.73600006
-0.083562545 -0.07935112 0.73733342
-0.076129764 -0.078236908 0.73675007
-0.073700003 -0.079315245 0.73700005
-0.15120344 -0.086262487 0.74120009
-0.14744972 -0.087085918 0.74220008
-0.14261746 -0.086513974 0.74255562
-0.13754156 -0.087922238 0.74278575
-0.13258904 -0.086448818 0.74250007
-0.12687129 -0.086074442 0.74283338
-0.12241811 -0.085621916 0.74300003
-0.1173862 -0.085564286 0.74250007
-0.11346667 -0.085276194 0.74000001
-0.096171916 -0.085564286 0.74250007
-0.092856012 -0.08635544 0.74200004
-0.088412702 -0.086055242 0.74266672
-0.077417284 -0.087319128 0.74261552
-0.073434979 -0.08697103 0.74242866
-0.1501143 -0.083866671 0.74000001
-0.14678763 -0.083980009 0.74100006
-0.1425543 -0.083275244 0.74100006
-0.13787477 -0.083570965 0.74050003
-0.13258334 -0.08392334 0.74050003
-0.12720421 -0.083720773 0.74120003
-0.12283619 -0.083348192 0.74040002
-0.11910477 -0.083866671 0.74000001
-0.11064763 -0.083866671 0.74000001
-0.1065162 -0.083942235 0.74066675
-0.10078096 -0.082457148 0.74000001
-0.098228574 -0.084093332 0.74200004
-0.086096197 -0.083273336 0.74100006
-0.082541503 -0.082340144 0.74257153
-0.077734292 -0.082680479 0.74200004
-0.072404958 -0.082711048 0.741
-0.069519691 -0.082246035 0.74233341
-0.081047624 -0.079638101 0.74000001
-0.078300327 -0.07970985 0.74066675
-0.12023143 -0.096042864 0.74700004
-0.11817572 -0.096107148 0.74750006
-0.13227931 -0.090321191 0.74675
-0.12745938 -0.09185683 0.74766672
-0.12251911 -0.092601977 0.74793762
-0.11896763 -0.092609532 0.74800003
-0.080499053 -0.090472385 0.74800003
-0.078757145 -0.090109527 0.74500006
-0.073080957 -0.090109527 0.74500006
-0.14332381 -0.088690482 0.74500006
-0.13551906 -0.087271437 0.74500006
-0.13185112 -0.088769853 0.74566674
-0.12799335 -0.088218108 0.74580008
-0.12236453 -0.088217624 0.7470001
-0.11751636 -0.088315725 0.74783343
-0.11238049 -0.087013185 0.74683344
-0.10783118 -0.086693205 0.7470001
-0.10244763 -0.086794533 0.74699998
-0.097559527 -0.08691667 0.74500006
-0.092547633 -0.088988096 0.74750006
-0.087031752 -0.087744139 0.7470001
-0.082864769 -0.087555431 0.74620008
-0.071454294 -0.087649725 0.74580008
-0.068626039 -0.086673021 0.74800003
-0.10306635 -0.08458446 0.74633336
-0.085852385 -0.08443334 0.74500006
-0.083723813 -0.08443334 0.74500006
-0.068342388 -0.084716678 0.74750006
-0.1165308 -0.095084451 0.75066674
-0.11227467 -0.095928393 0.75280005
-0.10972287 -0.095380008 0.75300002
-0.067411438 -0.095380008 0.75300002
-0.11646266 -0.092170589 0.75022227
-0.11245789 -0.092403077 0.75211114
-0.10771508 -0.092337072 0.75263631
-0.10250571 -0.091753982 0.75266671
-0.097075813 -0.091339819 0.75280005
-0.092838816 -0.091405481 0.75275004
-0.087086126 -0.091587894 0.75214297
-0.082784295 -0.092090003 0.75150007
-0.07960286 -0.092511438 0.75300002
-0.071714289 -0.091077149 0.75300002
-0.06787084 -0.092225842 0.75212502
-0.11500001 -0.089285724 0.75000006
-0.11224128 -0.089365087 0.75066674
-0.10795429 -0.089365087 0.75066674
-0.10285715 -0.089285724 0.75000006
-0.097857147 -0.089285724 0.75000012
-0.089285724 -0.089285724 0.75000006
-0.070714287 -0.089285724 0.75000006
-0.067857146 -0.08892858 0.75000006
-0.11001429 -0.097071432 0.75500005
-0.10720842 -0.096416354 0.75550008
-0.10228941 -0.096528456 0.75637501
-0.0974143 -0.096693024 0.75766671
-0.092713207 -0.096838377 0.75800002
-0.087956198 -0.095886663 0.75700003
-0.082871757 -0.095844448 0.75666666
-0.076521903 -0.096013337 0.75800002
-0.072637148 -0.097148582 0.75699997
-0.069411203 -0.097104058 0.7552501
-0.10570001 -0.094195247 0.75500005
