# .PCD v0.7 - Point Cloud Data file format
VERSION 0.7
FIELDS x y z
SIZE 4 4 4
TYPE F F F
COUNT 1 1 1
WIDTH 1327
HEIGHT 1
VIEWPOINT 0 0 0 1 0 0 0
POINTS 1327
DATA ascii
-0.01773121 -0.0031953854 0.63192314
-0.011657404 -0.0030113426 0.63209093
-0.0072275004 -0.0024105955 0.63250005
-0.0032576192 -0.0021720952 0.63349998
-0.077306204 0.0024103178 0.63250005
-0.010216191 0.0024038097 0.63100004
-0.007224822 0.0024087499 0.63231254
-0.0036205952 0.0024144049 0.63362503
-0.076298863 0.0069918097 0.63280004
-0.011455049 0.0078390483 0.63299996
-0.0074089803 0.0069801365 0.6332857
-0.0036228574 0.0054342858 0.634
-0.075446434 0.012072144 0.63375002
-0.073217861 0.012354286 0.63274997
-0.015624763 0.013821905 0.63100004
-0.012675134 0.011870265 0.63377774
-0.0090571437 0.010264763 0.634
-0.072545722 0.018284131 0.63300008
-0.021033335 0.01983143 0.63100004
-0.017080061 0.017834228 0.63206244
-0.01388762 0.015699048 0.634
-0.071488298 0.022663334 0.63289994
-0.069219053 0.023474287 0.63200009
-0.022308288 0.023515526 0.63309997
-0.019321907 0.021133335 0.634
-0.07104826 0.026366351 0.634
-0.068762228 0.02774667 0.63333338
-0.026182858 0.02859143 0.63200003
-0.023912702 0.026726354 0.63300002
-0.066013336 0.032553811 0.63300002
-0.06332995 0.032739189 0.63157147
-0.030680954 0.033087939 0.63166666
-0.028050877 0.032576751 0.63341665
-0.065711431 0.035568573 0.63300002
-0.064505719 0.035568573 0.63300002
-0.035894927 0.038702544 0.63166672
-0.032418735 0.037483241 0.6327334
-0.028781591 0.036429845 0.63400006
-0.040327623 0.04393905 0.63200003
-0.03724356 0.042308453 0.63279998
-0.033374291 0.041308712 0.63385719
-0.061467387 0.047607385 0.63274997
-0.059156515 0.049530476 0.63166672
-0.046061903 0.049429905 0.63140005
-0.041953813 0.04717508 0.63233328
-0.039247621 0.045285717 0.634
-0.057515319 0.052695975 0.63261539
-0.052485909 0.054051813 0.63200003
-0.047611378 0.052837513 0.63283336
-0.043205585 0.051140003 0.63385719
-0.056154288 0.056154288 0.634
-0.052753758 0.056641806 0.63344443
-0.048266195 0.056110002 0.63349998
-0.072420008 -0.010345715 0.63900006
-0.067551434 -0.010345715 0.63900006
-0.06329143 -0.010345715 0.63900006
-0.081816092 -0.0068245512 0.63844448
-0.076992929 -0.0073640817 0.63657153
-0.072604768 -0.0084153749 0.63757151
-0.067444764 -0.0085074287 0.63800001
-0.062293064 -0.0086016329 0.6385715
-0.057794292 -0.008232655 0.63685727
-0.051956195 -0.0081523815 0.63880008
-0.047499478 -0.007781039 0.63718188
-0.042581774 -0.007720273 0.63742864
-0.037700955 -0.0079052383 0.63850003
-0.032862861 -0.0079114288 0.63900006
-0.027963573 -0.0079021435 0.63825005
-0.02202893 -0.0083570238 0.63812506
-0.017463334 -0.007399905 0.63670009
-0.012567263 -0.0063601192 0.63587505
-0.0072751595 -0.0066715088 0.63658339
-0.0024208336 -0.0060563101 0.63587511
0.0024338099 -0.0060835723 0.63875002
0.0066942861 -0.0060857143 0.63900006
-0.085808575 -0.0030428574 0.63900006
-0.082458913 -0.0028495239 0.63769239
-0.0010080953 -0.0028233337 0.63516676
0.0024305361 -0.0024287505 0.63731253
0.0059987763 -0.0026951025 0.63900006
-0.080897793 0.0018253969 0.63866675
-0.079348579 0.002425238 0.63600004
-0.0012100001 0.002422143 0.63550001
0.0018245889 0.0020451949 0.63818187
-0.079051912 0.0066900002 0.63850003
-0.0060476195 0.0090714293 0.63500005
-0.0026239154 0.0069360849 0.63644451
-0.076865241 0.012105715 0.63550007
-0.010888414 0.012703652 0.63516676
-0.0072698649 0.012120067 0.63621444
-0.0042600003 0.010345715 0.63900006
-0.076158732 0.017170796 0.63633335
-0.015735716 0.019972857 0.63550007
-0.012184762 0.016819049 0.63690919
-0.0082121436 0.015512621 0.63875008
-0.017515687 0.023156809 0.63688242
-0.013469526 0.021638779 0.63871431
-0.071202859 0.028602859 0.63900006
-0.022226842 0.028296283 0.63709098
-0.018257145 0.026168574 0.63900006
-0.067868009 0.032661147 0.63740009
-0.026032066 0.033297464 0.63566673
-0.02340938 0.032477513 0.63784623
-0.066890955 0.03648524 0.63850003
-0.027403919 0.038179368 0.63633347
-0.02495143 0.035905715 0.63900006
-0.0320854 0.04311863 0.63566673
-0.028543333 0.041907337 0.63770002
-0.062584765 0.049217146 0.63800001
-0.040519051 0.048985716 0.63500005
-0.037594426 0.047299869 0.6367144
-0.033762146 0.04592929 0.63875008
-0.061821911 0.051937286 0.63728571
-0.059871431 0.053823814 0.63500005
-0.041665506 0.052706566 0.6361112
-0.039100163 0.051865242 0.63816667
-0.061671048 0.056075245 0.63860005
-0.057450999 0.057729971 0.63600016
-0.051825512 0.05908582 0.63522232
-0.047073893 0.057783894 0.63641679
-0.042848647 0.056776561 0.63784617
-0.039557144 0.055380005 0.63900006
-0.056967802 0.061939746 0.63818187
-0.052200641 0.062520638 0.63733339
-0.04768943 0.061558958 0.63870001
-0.044425718 0.060248576 0.63900006
-0.055380005 0.065117151 0.63900006
-0.05217512 0.065865129 0.63887501
-0.074213341 -0.015333334 0.64400005
-0.085866675 -0.010426668 0.64400005
-0.082128443 -0.010933879 0.64285719
-0.076899871 -0.011973742 0.64228582
-0.072283 -0.012501634 0.64242864
-0.067499436 -0.011840763 0.64080012
-0.062085479 -0.011623334 0.64225006
-0.057797465 -0.011233652 0.64333332
-0.05295112 -0.010426668 0.64400005
-0.047460005 -0.010926941 0.64242864
-0.042549368 -0.011735715 0.64283341
-0.037963863 -0.012248512 0.6429376
-0.032857463 -0.012124635 0.64286673
-0.027427018 -0.012152431 0.64300007
-0.02216623 -0.011814578 0.64238471
-0.017146667 -0.01102381 0.64300001
-0.012234406 -0.011012739 0.64237499
-0.0082137147 -0.010910857 0.64360005
-0.0024533335 -0.010426668 0.64400005
0.0023245716 -0.010646096 0.64239997
0.0073547624 -0.010418572 0.64350003
0.010426668 -0.010426668 0.64400005
-0.086509719 -0.0072217146 0.64240003
-0.084140144 -0.007935239 0.64085716
-0.078897342 -0.0086580953 0.64020008
-0.07497143 -0.009142858 0.64000005
-0.056076195 -0.009142858 0.64000005
-0.053084444 -0.0091523817 0.64066672
-0.045714289 -0.009142858 0.64000005
-0.042463493 -0.0091428589 0.64000005
-0.037804529 -0.0091464296 0.64025003
-0.032965716 -0.0091571435 0.64100003
-0.027471432 -0.0091571435 0.64100003
-0.023808572 -0.0091571435 0.64100003
-0.016465083 -0.0091476198 0.64033341
-0.011945035 -0.0086326543 0.64085716
-0.0073204767 -0.0091500003 0.64050007
-0.0024460717 -0.0085553583 0.64162505
0.0024407145 -0.0085438099 0.64075005
0.0074135382 -0.0075006122 0.64092863
0.011830552 -0.0073055681 0.64330781
-0.086480007 -0.0042933337 0.64400005
-0.083722875 -0.00061111117 0.64166671
0.0083378851 -0.0022367197 0.64055556
0.011515759 -0.0026144593 0.64245462
-0.083168104 0.0024469525 0.64210004
0.0037790479 0.0032914288 0.64000005
0.0073325597 0.0024450596 0.64143753
0.010824762 0.0010215874 0.64333338
-0.081890836 0.0070417859 0.64287502
-0.07952445 0.007931429 0.64066672
-0.0015859049 0.0086662872 0.64080006
0.0021179491 0.0070120152 0.64215398
0.0059231753 0.0059231753 0.64333338
-0.080221906 0.012249525 0.64300001
-0.078751437 0.012209524 0.64100003
-0.0054857144 0.014019049 0.64000005
-0.0023245716 0.012364446 0.64266676
0.0012266667 0.010426668 0.64400005
-0.08028429 0.017158573 0.64350003
-0.07834509 0.016890796 0.64100003
-0.010768255 0.01848889 0.64000005
-0.0070178579 0.017600238 0.64091671
-0.0035221432 0.016694525 0.64325005
-0.015238096 0.024990479 0.64000005
-0.011599136 0.022701645 0.64109105
-0.0083661908 0.021020478 0.64283335
-0.071947947 0.029551115 0.64200008
-0.020114288 0.028647622 0.64000005
-0.017041247 0.028216634 0.64084619
-0.01272106 0.026873227 0.6428889
-0.071360573 0.032558482 0.64260006
-0.068876192 0.034133337 0.64000005
-0.020985875 0.033416353 0.64183342
-0.017529525 0.031260576 0.64360005
-0.014106668 0.030053336 0.64400005
-0.070785239 0.037078574 0.64350003
-0.068328336 0.03836786 0.64200008
-0.025029525 0.038460001 0.64100003
-0.022825496 0.037984032 0.64246166
-0.06694179 0.042739645 0.64337504
-0.02626962 0.043378003 0.6415
-0.023576193 0.041948572 0.64300001
-0.065626673 0.047840003 0.64400005
-0.064300001 0.047765717 0.64300001
-0.035961907 0.049371433 0.64000005
-0.032451432 0.048234735 0.64107692
-0.029117692 0.046957962 0.64271432
-0.036982287 0.052728958 0.6408
-0.033025846 0.052297845 0.64300007
-0.061096668 0.058651909 0.64150006
-0.041265719 0.058748256 0.64033341
-0.038084675 0.057102513 0.64218187
-0.034960002 0.055813339 0.64400005
-0.061097011 0.062146265 0.64242864
-0.058748256 0.06362699 0.64033341
-0.046732765 0.063572384 0.64060009
-0.043275345 0.061892066 0.64200002
-0.057610929 0.067394421 0.64213336
-0.052622262 0.068181314 0.640625
-0.048236825 0.06700477 0.6425001
-0.055813339 0.070533335 0.64400005
-0.053127304 0.070905715 0.64366674
-0.085782863 -0.015428573 0.648
-0.082276583 -0.015665906 0.64760005
-0.07755167 -0.016002858 0.64625001
-0.072164051 -0.016311429 0.64625001
-0.067954153 -0.015912248 0.64614284
-0.062699139 -0.016384477 0.64670002
-0.057914369 -0.016636431 0.64691663
-0.053288382 -0.016406476 0.64759994
-0.047777779 -0.016108997 0.6477778
-0.042365823 -0.016221697 0.64677775
-0.037177142 -0.016530553 0.64646149
-0.031877145 -0.016816776 0.64653844
-0.027224196 -0.017125271 0.6467334
-0.022450887 -0.015937146 0.64714283
-0.0018514286 -0.015428573 0.648
0.0035794289 -0.016169144 0.648
0.0076631983 -0.017090002 0.64749992
0.010459049 -0.017841905 0.64600003
-0.091173187 -0.01170524 0.64683342
-0.087588385 -0.012577348 0.64635718
-0.082402758 -0.013335451 0.64622217
-0.078628577 -0.014128572 0.64500004
-0.06742572 -0.013625989 0.6461429
-0.062690482 -0.013726033 0.64533341
-0.05750436 -0.013608028 0.64528579
-0.052869238 -0.012732822 0.64607698
-0.048202652 -0.013333017 0.64611107
-0.043938808 -0.013826905 0.64525002
-0.03317143 -0.014128572 0.64500004
-0.021500003 -0.014128572 0.6450001
-0.017239524 -0.013546905 0.64649999
-0.01231381 -0.013546668 0.64649999
-0.0069922954 -0.012923552 0.64609092
-0.0024623813 -0.012928413 0.64633334
0.0025181822 -0.013042685 0.64645457
0.0073813498 -0.012919445 0.64591664
0.012240001 -0.012145496 0.64507699
0.017200001 -0.01167143 0.64500004
0.02027143 -0.011671429 0.64500004
-0.091101728 -0.0082594296 0.64720005
-0.088564642 -0.0074604088 0.64514291
0.014128572 -0.0075761913 0.6450001
0.017214287 -0.0073764278 0.64550006
0.02030286 -0.0079968264 0.64600009
0.013887239 -0.0020887621 0.64520001
0.01726613 -0.0024656549 0.64743739
-0.08558429 0.003694762 0.64649999
0.012520952 0.00266873 0.64649999
0.017448315 0.0017392207 0.64799994
-0.08558429 0.0061576199 0.64649999
-0.083822288 0.0082474295 0.6462
0.0038904767 0.0088047627 0.6450001
0.007712455 0.007712455 0.64576924
0.011303177 0.0063711121 0.64733338
-0.082409941 0.012401498 0.64642859
0.0026357144 0.012558983 0.64550006
0.0065046567 0.011845608 0.64700001
-0.082818419 0.016234605 0.64733338
-0.0013834524 0.017685834 0.64587504
0.0016727892 0.016278505 0.64671433
-0.0067607625 0.022743242 0.64539999
-0.0031911691 0.022012299 0.64690912
-0.076467149 0.028366668 0.64750004
-0.073547944 0.028066671 0.64533341
-0.010940762 0.027906099 0.64540005
-0.0075179059 0.026995752 0.64713329
-0.0040114289 0.026228573 0.648
-0.076280966 0.030635875 0.64766669
-0.074015081 0.0323954 0.64583337
-0.016751429 0.033043813 0.6455
-0.012314831 0.032022316 0.64657146
-0.0088409539 0.030635877 0.64766669
-0.072374642 0.037953932 0.64537501
-0.020284001 0.037495811 0.64539999
-0.01742422 0.036700141 0.64685714
-0.013577144 0.035794288 0.648
-0.072185054 0.042251717 0.64669997
-0.068906993 0.043682858 0.64600003
-0.022156192 0.043083332 0.64625001
-0.018499525 0.040083334 0.64750004
-0.071897149 0.045360006 0.648
-0.067751333 0.047424864 0.64670002
-0.026549686 0.048283815 0.64583337
-0.023297146 0.047520004 0.648
-0.067258611 0.053258449 0.64681816
-0.064334296 0.05326267 0.64580005
-0.03085581 0.053968191 0.64540005
-0.027722755 0.052231118 0.64688885
-0.066034287 0.056160003 0.648
-0.064339206 0.058377944 0.64750004
-0.036274154 0.058936197 0.64557147
-0.032344844 0.057402298 0.64691663
-0.063516989 0.062900163 0.64750004
-0.041356407 0.063642964 0.64600003
-0.037425909 0.062571436 0.64706665
-0.061264288 0.066805243 0.64649999
-0.046414293 0.068546191 0.64550006
-0.042631734 0.067662813 0.64678943
-0.038468577 0.066445723 0.648
-0.057539042 0.072551869 0.64709091
-0.052639525 0.073425628 0.64569998
-0.048488434 0.072569154 0.64699996
-0.056160003 0.076525718 0.648
-0.052923378 0.077597529 0.64766657
-0.048874497 0.077253975 0.6477778
-0.062190481 -0.020522859 0.65300006
-0.057215244 -0.020522859 0.65300006
-0.052240003 -0.020522859 0.65300006
-0.048508577 -0.020522859 0.65300006
-0.036381431 -0.020833811 0.65300006
-0.032530479 -0.020926986 0.65266675
-0.028607622 -0.020522859 0.65300006
-0.095773339 -0.016791429 0.65300012
-0.092334643 -0.017112816 0.65227276
-0.087515935 -0.016986236 0.65172732
-0.082672291 -0.01812467 0.65170002
-0.077329643 -0.018556723 0.65188891
-0.07132268 -0.018729527 0.6512
-0.066879794 -0.018390689 0.65088892
-0.062086292 -0.018960573 0.65060008
-0.05695238 -0.019190477 0.65000004
-0.051768579 -0.01867252 0.65042859
-0.047101196 -0.018593334 0.65075004
-0.042257693 -0.018693609 0.6511429
-0.037186433 -0.01921262 0.65075004
-0.032809526 -0.019190479 0.65000004
-0.025420001 -0.019220002 0.65100002
-0.022122966 -0.018402964 0.65133333
-0.017377779 -0.016759049 0.6516667
-0.012208255 -0.016347514 0.6517778
-0.007267552 -0.017105512 0.65135717
-0.0025200003 -0.01747264 0.65053338
0.0019704762 -0.017847881 0.65027285
0.0055714292 -0.018571429 0.65000004
-0.095736474 -0.01251007 0.65214288
-0.093163826 -0.012828845 0.65028572
-0.095151432 -0.0087066675 0.65300006
-0.092816994 -0.0070271436 0.65116674
-0.09054476 -0.0029003178 0.65266675
-0.088427305 -0.002070159 0.65233338
-0.088014081 0.002415979 0.65233332
0.014238096 0.0043333336 0.65000004
0.016404763 0.0040238099 0.65000004
-0.087415531 0.0075439462 0.65228581
0.012891113 0.0079289954 0.65144449
0.016903916 0.0066935453 0.65200001
-0.086444765 0.011816191 0.65300006
-0.08463981 0.01226762 0.65060008
0.0085881641 0.013015103 0.65071434
0.010875239 0.011496667 0.65250003
-0.08328604 0.018807303 0.65100002
0.0030990478 0.01810942 0.65066671
0.0071429382 0.016872302 0.6520834
-0.00086704775 0.022671623 0.6504001
0.0013984526 0.021901788 0.65237504
-0.079031758 0.028269842 0.65000004
-0.0055714292 0.02909524 0.65000004
-0.0020841558 0.02745299 0.65109098
-0.080225721 0.030473335 0.65300006
-0.077789843 0.032728679 0.65111113
-0.01052381 0.034047622 0.65000004
-0.0074338103 0.032215528 0.65050006
-0.0034142861 0.030737145 0.65200001
-0.076787032 0.037292473 0.65163636
-0.07490477 0.035904765 0.65000004
-0.01609524 0.039000001 0.65000004
-0.012112209 0.037466839 0.65072733
-0.008381906 0.035704765 0.65200001
-0.075727388 0.040967382 0.65175003
-0.020428572 0.043333337 0.65000004
-0.017317219 0.04231913 0.65123075
-0.013874604 0.040797144 0.65233344
-0.07180953 0.047666669 0.65000004
-0.069952384 0.048904765 0.65000004
-0.020986123 0.047374975 0.65085721
-0.019024381 0.046877719 0.65280002
-0.070509851 0.050659053 0.65133333
-0.068095244 0.050761908 0.65000004
-0.026339287 0.053609766 0.65075004
-0.022348847 0.052150209 0.6518572
-0.066856518 0.05816254 0.65200007
-0.030380001 0.058900002 0.65100002
-0.027680477 0.056729246 0.65170008
-0.065480009 0.062173974 0.65066671
-0.035285715 0.063761912 0.65000004
-0.03244929 0.061801195 0.65108335
-0.029229525 0.060324766 0.65300006
-0.065619051 0.065000005 0.65000004
-0.063422866 0.067891434 0.65160006
-0.040238097 0.069952384 0.65000004
-0.036710694 0.067431122 0.65088892
-0.033755243 0.065647945 0.65233338
-0.061452147 0.071070723 0.65175003
-0.058809526 0.07490477 0.65000004
-0.045832705 0.073085085 0.6503334
-0.042596005 0.072528012 0.65200001
-0.0385281 0.070221432 0.65250003
-0.060324766 0.075250484 0.65300006
-0.057510573 0.078331731 0.65070003
-0.050142862 0.079857148 0.65000004
-0.04605167 0.077374287 0.65125
-0.043644197 0.076222487 0.65280008
-0.056935679 0.082327008 0.65172726
-0.052053493 0.082418576 0.65066671
-0.047100637 0.082148775 0.65246677
-0.057215244 0.085200958 0.65300006
-0.052240003 0.085200958 0.65300006
-0.06705334 -0.025693335 0.65800011
-0.063920006 -0.025693335 0.65800005
-0.034466669 -0.025693335 0.65800005
-0.097125612 -0.021622753 0.65700001
-0.092918098 -0.021431429 0.65700006
-0.087451324 -0.021497885 0.65744448
-0.082281053 -0.021634571 0.65650004
-0.077578828 -0.021898493 0.65691674
-0.072537079 -0.021887859 0.65658337
-0.067564644 -0.022523811 0.65687501
-0.062515795 -0.023132302 0.65641671
-0.057499997 -0.022500476 0.65625006
-0.052346762 -0.023019657 0.65645456
-0.047527548 -0.02268154 0.65730774
-0.042750958 -0.022270681 0.65735716
-0.037915498 -0.022909785 0.65654546
-0.032611296 -0.022963403 0.65671432
-0.027527502 -0.021897024 0.65687507
-0.022296906 -0.021986907 0.65641677
-0.017945714 -0.021076508 0.65733337
-0.012154097 -0.020924382 0.65780002
-0.0075142859 -0.021290952 0.65750003
-0.0025028572 -0.021066351 0.65700006
0.0010409525 -0.021045398 0.65633339
-0.098214097 -0.017868191 0.65600008
-0.092115879 -0.019338097 0.65500009
-0.088303097 -0.019033574 0.65525001
-0.074233338 -0.018714286 0.65500003
-0.017466668 -0.019338097 0.65500003
-0.01275211 -0.018816058 0.65542865
-0.008733334 -0.019338097 0.65500003
-0.098475248 -0.01344143 0.65649998
-0.096426867 -0.0073780953 0.65660006
-0.094195247 -0.0056142863 0.65500003
-0.095880017 -0.0031333338 0.65800011
-0.093382955 -0.0022492383 0.65630007
-0.092109822 0.0023569965 0.65653855
-0.091229528 0.0066337148 0.65700001
-0.089250162 0.0081142858 0.6553334
0.01434762 0.0093571432 0.65500003
0.017596954 0.0088609532 0.65520006
-0.08827021 0.012406805 0.65600008
0.013016192 0.012808733 0.65600014
0.016868893 0.012496509 0.65600008
-0.086612977 0.017510358 0.65662503
0.0084250001 0.019033574 0.65525001
0.012316193 0.017011907 0.65750003
0.017278098 0.016203811 0.65800011
-0.085853338 0.020680001 0.65800005
-0.08359734 0.022184003 0.65800005
0.0035900003 0.022942858 0.65550005
0.0066056089 0.022039894 0.65700006
-0.082093343 0.028200001 0.65800011
-0.00062380958 0.02931905 0.65500003
0.0021051951 0.026891517 0.65663642
-0.081552707 0.031493653 0.65700006
-0.0056142863 0.033685714 0.65500003
-0.0025725928 0.032746986 0.65700006
0.0006266667 0.030706668 0.65800005
-0.079223812 0.036804765 0.65500003
-0.010604762 0.039300002 0.65500003
-0.0071932538 0.038060084 0.65691674
-0.0043866672 0.036973339 0.65800011
-0.077168897 0.04276032 0.65700006
-0.015595239 0.044290479 0.65500003
-0.01228889 0.042703819 0.65616673
-0.0085620647 0.041558575 0.6578334
-0.075826675 0.046373338 0.65800005
-0.07394667 0.048253335 0.65800005
-0.016760955 0.047673509 0.65627283
-0.013397905 0.046206292 0.65740007
-0.07199429 0.052377146 0.65733337
-0.020585716 0.054271434 0.65500003
-0.018406985 0.052029632 0.65644449
-0.071072385 0.056670956 0.65750003
-0.068849146 0.058102857 0.65600008
-0.026348574 0.058567621 0.65560007
-0.022631811 0.057395753 0.65646672
-0.019426668 0.055773336 0.65800005
-0.06799493 0.061946034 0.65700006
-0.030998096 0.063869208 0.6553334
-0.027524356 0.062558793 0.65685719
-0.023688003 0.061538674 0.65800005
-0.065912388 0.067786671 0.65600002
-0.035557143 0.069242865 0.65500003
-0.032195754 0.067907117 0.65692312
-0.029035559 0.06621778 0.65800011
-0.065750003 0.071386196 0.65750003
-0.06284941 0.073010601 0.65662503
-0.040578574 0.073666193 0.65550005
-0.037342656 0.07281246 0.65664291
-0.033622384 0.071630955 0.65783334
-0.061622031 0.07757394 0.65687507
-0.041892994 0.077933513 0.65654546
-0.03790557 0.077306308 0.65746164
-0.034466669 0.075826675 0.65800005
-0.060987629 0.080969214 0.65566671
-0.059352383 0.083095245 0.65600002
-0.043351706 0.081610762 0.65700001
-0.049280956 0.085461907 0.65500003
-0.054934289 -0.030940002 0.66300005
-0.10162167 -0.026194526 0.66275007
-0.097587161 -0.026290003 0.66250008
-0.09152168 -0.026194526 0.66275007
-0.087071434 -0.025869049 0.66250002
-0.082023814 -0.025869049 0.66250002
-0.076747626 -0.025862541 0.66233337
-0.072191164 -0.026587894 0.66242868
-0.067724533 -0.027721431 0.66150004
-0.062375654 -0.026913609 0.6615715
-0.057642478 -0.026993526 0.66220009
-0.052891754 -0.027602863 0.66166669
-0.047903653 -0.027104922 0.66183347
-0.042754672 -0.027621971 0.6621334
-0.037983011 -0.027312236 0.66215402
-0.032507077 -0.02656531 0.66185725
-0.028029526 -0.026407484 0.66242868
-0.022968711 -0.026390752 0.66200006
-0.017672621 -0.025878813 0.66275007
-0.012628572 -0.025888573 0.66300005
-0.0075657149 -0.025849525 0.66200006
-0.002794286 -0.026954286 0.66257155
-0.10544859 -0.02336286 0.66300005
-0.10237546 -0.022870412 0.66178584
-0.097686991 -0.023898099 0.6603334
-0.092295237 -0.023783812 0.6615001
-0.087644503 -0.024002042 0.66071433
-0.083122484 -0.024018859 0.66020006
-0.07800144 -0.024532858 0.66050005
-0.072914295 -0.024514288 0.66000003
-0.057850718 -0.024523573 0.66025001
-0.054685719 -0.024514288 0.66000003
-0.045885716 -0.024514288 0.66000003
-0.041485716 -0.024514288 0.66000003
-0.037085716 -0.024514288 0.66000003
-0.032089528 -0.02453905 0.6606667
-0.027280636 -0.024132382 0.66100001
-0.023275239 -0.024218574 0.66050005
-0.017369142 -0.02353791 0.6608001
-0.012762165 -0.023408053 0.66100007
-0.0075485725 -0.023904288 0.66050005
-0.0025181908 -0.023548858 0.66110009
0.00062952383 -0.023292383 0.66100001
-0.10262753 -0.018028859 0.66190004
-0.10056143 -0.012610001 0.66200006
-0.098685719 -0.010685715 0.66000003
-0.10067501 -0.0085207149 0.66275007
-0.09858343 -0.0071754293 0.66100001
-0.097724453 -0.0025228574 0.66200006
-0.097026289 0.0018933334 0.66240007
-0.094914302 0.0031428575 0.66000003
-0.096149057 0.006620477 0.66200006
-0.09309987 0.0081863953 0.66114295
-0.091927379 0.012299048 0.66225004
-0.089885719 0.013200001 0.66000003
-0.090226196 0.017667145 0.66250002
-0.088673338 0.018238414 0.6603334
0.013200001 0.01917143 0.66000003
0.017809523 0.01864762 0.66000003
-0.0877278 0.02286303 0.66181833
-0.084857151 0.023257144 0.66000003
0.0087180957 0.023278099 0.66057146
0.012212294 0.022073941 0.66218185
0.017405715 0.021373879 0.66285723
-0.086479627 0.027396191 0.66280007
-0.084068038 0.027783949 0.6608572
0.0033975241 0.029066859 0.66060007
0.007435556 0.027593272 0.66146672
0.010734286 0.026520003 0.66300005
-0.082308337 0.033427861 0.66225004
-0.0010476192 0.034152385 0.66000003
0.0023106351 0.032551114 0.6615001
0.0066897157 0.031426098 0.66260004
-0.081169121 0.038106807 0.66214299
-0.002080733 0.037903741 0.66076928
0.00063071435 0.037843574 0.66225004
-0.080825858 0.043161906 0.6622858
-0.078690484 0.043436512 0.66100001
-0.010685715 0.044628575 0.66000003
-0.0069193332 0.043405242 0.66049999
-0.0029420636 0.042463969 0.66216671
0.00063142861 0.041042861 0.66300005
-0.080612391 0.04862 0.66300005
-0.077789627 0.048161622 0.66190004
-0.074800007 0.049028575 0.66000003
-0.012191775 0.048487194 0.66118193
-0.0081983069 0.047162544 0.66222233
-0.0037885716 0.046094287 0.66300005
-0.077153772 0.052717406 0.66254556
-0.07363838 0.053138506 0.6608572
-0.016449662 0.053486947 0.66071433
-0.012954142 0.052646011 0.66230774
-0.0094714295 0.051145718 0.66300005
-0.075140007 0.056828573 0.66300005
-0.072937027 0.058443699 0.66162509
-0.020742858 0.059714291 0.66000003
-0.018133441 0.057485189 0.66166669
-0.071613342 0.062149052 0.66250008
-0.068907857 0.063871674 0.66075003
-0.02577143 0.064742863 0.66000003
-0.022319047 0.06318339 0.66122228
-0.068197913 0.068194866 0.66180009
-0.027471192 0.068156108 0.66058338
-0.023522316 0.066783816 0.66242868
-0.067184456 0.073271118 0.66133344
-0.064742863 0.074171439 0.66000003
-0.03224498 0.073514394 0.66100007
-0.028076431 0.071770959 0.66250008
-0.067268424 0.076306514 0.66216671
-0.064212069 0.078060962 0.66100007
-0.036247622 0.079409532 0.66000003
-0.032757625 0.07685858 0.6615001
-0.065037146 0.080191433 0.66300005
-0.041233812 0.082783811 0.66100007
-0.038757861 0.081615485 0.66175008
-0.10003144 -0.031220002 0.66900003
-0.09748286 -0.031538572 0.66900003
-0.093660004 -0.031220002 0.66900003
-0.082828574 -0.031220002 0.66900003
-0.077615246 -0.031810477 0.6680001
-0.072949529 -0.031598099 0.6680001
-0.067410722 -0.03116167 0.66775006
-0.062440004 -0.031220002 0.66900003
-0.057258099 -0.031173335 0.66800004
-0.051970959 -0.031056669 0.66549999
-0.047102228 -0.031613018 0.66833341
-0.042879526 -0.031445242 0.66700006
-0.038168572 -0.031173335 0.6680001
-0.032494288 -0.031220002 0.66900003
-0.027821906 -0.031644765 0.66900009
-0.022928335 -0.03184548 0.66875011
-0.017840002 -0.031220002 0.66900003
-0.10715115 -0.027709622 0.66730005
-0.1029266 -0.028427381 0.66575003
-0.097557448 -0.028836286 0.66690004
-0.093083732 -0.028521195 0.66791677
-0.087598108 -0.028566197 0.66650003
-0.082436204 -0.028536983 0.66583335
-0.077404916 -0.028338687 0.66576922
-0.072267503 -0.029161312 0.66562498
-0.06662453 -0.029505476 0.66624999
-0.062224768 -0.029255513 0.66571426
-0.058332622 -0.029166907 0.66575003
-0.051933337 -0.029766669 0.66500002
-0.047523811 -0.029781591 0.66533339
-0.044966668 -0.029766669 0.66500002
-0.03736667 -0.029766669 0.66500008
-0.033007622 -0.029199526 0.66649997
-0.027706668 -0.028976299 0.66622227
-0.022626141 -0.028971324 0.66611111
-0.017807383 -0.028619602 0.66775006
-0.01270619 -0.028587779 0.66700006
-0.0078156618 -0.028092487 0.66533333
-0.0044333334 -0.027866669 0.66500002
-0.10803257 -0.022898355 0.6661818
-0.10678496 -0.018919429 0.66660005
-0.10386667 -0.015833335 0.66500002
-0.10512858 -0.012742858 0.66900003
-0.10331748 -0.012482964 0.66644448
-0.10301789 -0.0076853973 0.66633332
-0.10128801 -0.002921524 0.66720003
-0.099433348 -0.0019000003 0.66500008
-0.10066858 0.0025485717 0.66900003
-0.098738104 0.0027482545 0.66600001
-0.10003144 0.0057342863 0.66900003
-0.096883178 0.0078279376 0.66633332
-0.096537463 0.011245398 0.66833341
-0.094015718 0.013340477 0.66700006
-0.09219867 0.017372383 0.66580003
-0.091183439 0.021940002 0.66580003
0.013553335 0.024193335 0.66500002
0.01796942 0.023887724 0.66588891
-0.088533506 0.029017305 0.66716671
0.0095000006 0.029766669 0.66500002
0.012964762 0.028103268 0.66628575
0.017690031 0.027872514 0.66813332
-0.087446675 0.032745987 0.66671443
-0.083916672 0.033566669 0.66500002
0.0040111113 0.034411114 0.66500008
0.007828149 0.033358734 0.66644442
0.011661429 0.032014444 0.66783333
-0.087237142 0.036295433 0.66860002
-0.083978482 0.037481714 0.667
0.0030445717 0.037665717 0.66580003
0.0068471436 0.037100002 0.66875011
-0.08296667 0.043700002 0.66500002
-0.0012666668 0.044333339 0.66500002
0.0025454287 0.041956101 0.66750008
0.0057342863 0.040140003 0.66900003
-0.082706869 0.047076575 0.66799998
-0.0066521433 0.048468336 0.66525006
-0.0024648677 0.047704447 0.66588891
0.00063428574 0.045034289 0.66600001
-0.010766667 0.053833336 0.66500002
-0.0073382319 0.052193746 0.66600007
-0.003943048 0.051262673 0.66780007
-0.077312604 0.05687556 0.66600001
-0.016263492 0.058507305 0.66533339
-0.012510274 0.057390142 0.66635716
-0.0086838109 0.055716828 0.66733336
-0.076252803 0.062074833 0.66800004
-0.073660195 0.063010678 0.6656
-0.017664572 0.062406674 0.66726673
-0.014229525 0.060953341 0.66900003
-0.075820006 0.066262864 0.66900003
-0.072299436 0.067215882 0.66706681
-0.021637555 0.067810893 0.66542858
-0.018612171 0.067019798 0.66877788
-0.071148001 0.071656957 0.66820014
-0.069137149 0.071674287 0.66600001
-0.027011622 0.0736821 0.66580003
-0.023204766 0.072060741 0.66684616
-0.019326668 0.071147628 0.66900003
-0.066500001 0.079166673 0.66500002
-0.031033335 0.077900007 0.66500002
-0.028321907 0.075825535 0.66680002
-0.081521913 -0.035304762 0.67400002
-0.068041906 -0.035304762 0.67400002
-0.062906668 -0.035304762 0.67400002
-0.057315879 -0.035715245 0.67366672
-0.052528456 -0.035874169 0.67262495
-0.048784766 -0.035946671 0.67400002
-0.036588576 -0.035304762 0.67400002
-0.032045718 -0.035252385 0.67300004
-0.11158159 -0.031422861 0.67333335
-0.1076271 -0.031755771 0.67133331
-0.1024566 -0.032023679 0.67057145
-0.097026914 -0.032874525 0.67025
-0.092554167 -0.032611549 0.67137504
-0.087591544 -0.032325715 0.67133337
-0.082498811 -0.033256192 0.67150003
-0.078195244 -0.033970475 0.67300004
-0.071680009 -0.033281907 0.67200005
-0.067790717 -0.033256192 0.67150003
-0.06268537 -0.033262737 0.67162502
-0.057765618 -0.033040531 0.67144448
-0.052391313 -0.033224646 0.67087501
-0.047347151 -0.033485562 0.6718334
-0.042002454 -0.033401366 0.67257148
-0.036870904 -0.033035133 0.67133337
-0.032225717 -0.033322588 0.67100012
-0.027533336 -0.033429716 0.67240006
-0.022466671 -0.034020953 0.67400002
-0.017895833 -0.033237737 0.67112499
-0.012791827 -0.032622304 0.67158335
-0.11123353 -0.027776763 0.67200005
-0.10911429 -0.028714288 0.67000002
-0.10807763 -0.017584287 0.67149997
-0.1071981 -0.013480002 0.67400002
-0.10688001 -0.0096000005 0.67200005
-0.10416477 -0.0057514291 0.671
-0.10361373 -0.0026880004 0.67240006
-0.10255334 0.0012809525 0.67300004
-0.099495247 0.0089866668 0.67400002
-0.096840017 0.01368724 0.67160004
-0.095929399 0.017651567 0.67214286
-0.093893342 0.018524446 0.67066669
-0.095643818 0.021182859 0.67400002
-0.093396775 0.023188002 0.67260003
-0.091818586 0.027402574 0.67229998
-0.092337027 0.03187415 0.67128575
0.013846985 0.033018418 0.671
0.016899321 0.032432109 0.67142856
-0.088087633 0.037715815 0.6712001
0.0091484133 0.037444606 0.67016667
0.011896287 0.03696562 0.67150003
0.017759366 0.037016511 0.67400002
-0.086763978 0.04167318 0.67316669
-0.084301345 0.041320767 0.67160004
0.0040412704 0.043603178 0.67000002
0.0078032394 0.042331494 0.67140007
0.011329524 0.040827941 0.67333335
-0.00063904765 0.04920667 0.671
0.0022701297 0.047070485 0.67200005
0.0067335721 0.045845482 0.67325002
-0.0019172295 0.052873254 0.67181826
0.00064190483 0.051352385 0.67400002
-0.07848572 0.059342861 0.67000002
-0.0074269595 0.057906672 0.67153847
-0.0036303177 0.056604292 0.67283338
-0.078300774 0.062973537 0.67060006
-0.012428867 0.062935397 0.67061543
-0.0093575241 0.062430289 0.67300004
-0.077093504 0.067508742 0.67083335
-0.07465715 0.069552384 0.67000002
-0.016863948 0.068276197 0.67000002
-0.013145496 0.067511655 0.67215389
-0.076386675 0.07125143 0.67400002
-0.073517382 0.071920723 0.67125005
-0.021493018 0.074268892 0.67033339
-0.017604763 0.072151437 0.67042863
-0.11607017 -0.035962861 0.6783334
-0.11217228 -0.036340952 0.67733335
-0.1072087 -0.036167264 0.67812502
-0.10255399 -0.035980321 0.67866671
-0.097215518 -0.036468029 0.67857146
-0.092744172 -0.036665544 0.67754549
-0.087704174 -0.037406314 0.67712492
-0.082668722 -0.037841029 0.67692322
-0.077451847 -0.037161093 0.67771429
-0.072436072 -0.037574738 0.67786676
-0.067464292 -0.037678335 0.6762501
-0.062447622 -0.037341908 0.67600006
-0.058120199 -0.037504192 0.67659998
-0.052455049 -0.038276002 0.67660004
-0.047367364 -0.037650306 0.67627281
-0.04281611 -0.036709093 0.67836362
-0.037280276 -0.036913745 0.67657149
-0.032237381 -0.037397858 0.67700005
-0.027160743 -0.036334921 0.67722231
-0.022192383 -0.036192656 0.67685717
-0.017422181 -0.036230888 0.67757148
-0.01322151 -0.03686595 0.67708343
-0.11605809 -0.0322381 0.67700005
-0.11317097 -0.032794129 0.67516673
-0.10800001 -0.034071431 0.67500001
-0.10293334 -0.034096669 0.67550004
-0.097693026 -0.034138735 0.67633337
-0.09128572 -0.034071431 0.67500001
-0.088071436 -0.034071431 0.67500001
-0.075913817 -0.034096669 0.67550004
-0.07392858 -0.034071431 0.67500001
-0.027642859 -0.034071431 0.67500001
-0.1156681 -0.027139049 0.67850006
-0.11366493 -0.026641432 0.67683339
-0.11575334 -0.023926668 0.67900002
-0.11328644 -0.022462858 0.67874998
-0.11114525 -0.016800953 0.67850006
-0.10880382 -0.01609524 0.67600006
-0.11108776 -0.013204492 0.67871433
-0.10857886 -0.012493144 0.67620009
-0.10797444 -0.0076530622 0.67771441
-0.10605334 -0.0032333336 0.67900002
-0.10297072 0.003219286 0.67575002
-0.10194905 0.00817254 0.67750001
-0.10114878 0.013306096 0.67820007
-0.099432148 0.012870715 0.67575002
-0.10048287 0.017124286 0.67850006
-0.098072149 0.018006906 0.67524999
-0.10023334 0.020046668 0.67900002
-0.097663499 0.022427302 0.67711109
-0.096744642 0.027204767 0.67785722
-0.094570011 0.027020954 0.67550004
-0.095927626 0.03025905 0.67600006
-0.094640009 0.03025905 0.67600006
-0.090978578 0.037422385 0.67750001
-0.089357145 0.039214287 0.67500001
0.014360795 0.03750905 0.67516673
0.016806124 0.037377555 0.67500007
-0.088202186 0.043135788 0.67600006
0.013113017 0.042876512 0.67699999
0.017015029 0.042431116 0.67844439
-0.087946668 0.04720667 0.67900002
-0.08471334 0.049793337 0.67900002
0.0038600003 0.048893813 0.67550004
0.0079101315 0.04810546 0.67672729
0.01200781 0.046348762 0.67780006
-0.086006671 0.051733337 0.67900002
-0.083463721 0.053359527 0.67830002
0.0028589119 0.053065989 0.67714292
0.0062511116 0.051517785 0.67900008
-0.082418859 0.057871815 0.67819995
-0.0019294288 0.058543529 0.67550009
0.0015677554 0.057224907 0.67728579
-0.08157941 0.061907507 0.67712504
-0.0070827515 0.062899686 0.67622226
-0.0030852915 0.062368471 0.67822218
0.0012930953 0.060764529 0.67875004
-0.081097148 0.066234767 0.67850006
-0.079481438 0.068496674 0.67850006
-0.010928572 0.06878572 0.67500001
-0.0079591544 0.066773757 0.67777777
-0.0045266668 0.065313339 0.67900002
-0.013164763 0.071538374 0.6767143
-0.024102859 -0.046251431 0.68400002
-0.11660573 -0.041040003 0.68400002
-0.11204572 -0.041040003 0.68400002
-0.10743271 -0.041020006 0.68366671
-0.10241573 -0.04144429 0.68350005
-0.097626083 -0.041653693 0.68337506
-0.092117049 -0.041966952 0.68210006
-0.087236024 -0.042350821 0.68218184
-0.082424499 -0.04213082 0.68245465
-0.077621721 -0.04212781 0.68260002
-0.072915986 -0.041760635 0.68155557
-0.067636311 -0.041623935 0.68287504
-0.062219188 -0.04157266 0.68357152
-0.057273693 -0.041653935 0.68337506
-0.05171831 -0.042026673 0.6835556
-0.047691077 -0.042157508 0.68362504
-0.042679187 -0.041564088 0.68342865
-0.03775524 -0.041661438 0.68350005
-0.032482512 -0.042185891 0.68336374
-0.027182098 -0.042790357 0.68280005
-0.022456048 -0.042562861 0.68269241
-0.017875716 -0.04127524 0.6825
-0.12105536 -0.037749406 0.68337506
-0.11747706 -0.03829591 0.68150002
-0.11263461 -0.038915243 0.68099999
-0.10770167 -0.038929287 0.68125004
-0.10230458 -0.038560387 0.68160003
-0.097565584 -0.039007213 0.68099999
-0.09260954 -0.039504763 0.68000001
-0.077714294 -0.039504763 0.68000001
-0.066770166 -0.039543495 0.68066669
-0.062307149 -0.039591905 0.68150008
-0.057074286 -0.039562859 0.68100005
-0.053104766 -0.039504763 0.68000001
-0.046116192 -0.039620955 0.68200004
-0.042452574 -0.039337907 0.68160009
-0.038049847 -0.039131112 0.68100011
-0.032476194 -0.039620955 0.68200004
-0.02711973 -0.038966265 0.68028575
-0.022037501 -0.038892981 0.68062496
-0.017935876 -0.038679369 0.68066669
-0.12092164 -0.032809254 0.68314296
-0.11851429 -0.032380953 0.68000001
-0.1204262 -0.028641431 0.68350005
-0.11817063 -0.027567621 0.68228573
-0.11659048 -0.022083811 0.68200004
-0.11366668 -0.020135239 0.68200004
-0.11562477 -0.017570795 0.6833334
-0.11366668 -0.017537145 0.6820001
-0.11582738 -0.013015 0.68325007
-0.11375757 -0.01307347 0.68142867
-0.11513429 -0.008456191 0.68300003
-0.11244079 -0.0083209546 0.68172735
-0.10880001 -0.005828572 0.68000001
-0.11096001 -0.0028228574 0.68400002
-0.10820659 -0.002419394 0.68181825
-0.10628819 0.0022116194 0.68300003
-0.10426667 0.0045333337 0.68000001
-0.10614406 0.0078150006 0.68375003
-0.10446687 0.0076771439 0.68300003
-0.10370858 0.012558095 0.68200004
-0.10240953 0.017535875 0.68200004
-0.1010108 0.021413334 0.68133342
-0.098799691 0.026159685 0.68099999
-0.096270956 0.033824764 0.68300003
-0.094180956 0.034424763 0.68200004
-0.095620006 0.035776194 0.68300003
-0.093453027 0.037944447 0.68300003
-0.092273101 0.042637624 0.68350005
0.014895239 0.043390479 0.68000001
-0.090938739 0.04709683 0.68366671
-0.087576881 0.048279736 0.68114293
0.0097142868 0.049866669 0.68000001
0.01362626 0.047923137 0.68128574
0.01754106 0.047425084 0.68211114
0.020194286 0.048205718 0.68400002
-0.090548575 0.054068577 0.68400002
-0.088109054 0.052411433 0.68150002
0.0082917465 0.052839901 0.68122226
0.012367967 0.051659048 0.68345457
0.016720003 0.050594293 0.68400002
0.020194286 0.050160002 0.68400002
-0.087296203 0.056970485 0.68233341
-0.08419048 0.057638101 0.68000001
0.0040152385 0.057897147 0.68000001
0.00715362 0.056567144 0.6827001
-0.085337147 0.061885718 0.68400002
-0.083989523 0.06226572 0.68100005
-0.0010800001 0.063745402 0.68066669
0.002316735 0.062555112 0.68114293
0.0058628577 0.060582861 0.68400002
-0.11352096 -0.045277145 0.68900001
-0.10695906 -0.045277145 0.68900001
-0.10236572 -0.045277145 0.68900001
-0.09777239 -0.045277145 0.68900001
-0.092568956 -0.045434479 0.68740004
-0.087704055 -0.045162145 0.68725002
-0.082094289 -0.045434482 0.68740004
-0.077318102 -0.045867622 0.68800008
-0.072062738 -0.045859408 0.68787503
-0.06735 -0.046376195 0.68825006
-0.062926434 -0.04588405 0.68825006
-0.057640482 -0.045851193 0.68775004
-0.05282953 -0.04562699 0.68766665
-0.049214289 -0.045277145 0.68900001
-0.041996192 -0.045605239 0.68900001
-0.037714697 -0.045764495 0.68785727
-0.032463241 -0.046206478 0.68720007
-0.027671855 -0.046845187 0.68633336
-0.12576985 -0.041340005 0.68900001
-0.12203334 -0.042571537 0.68766677
-0.11787751 -0.042896077 0.68762505
-0.11249548 -0.043167859 0.68674999
-0.10722476 -0.043151908 0.68650001
-0.10243086 -0.043563049 0.68680006
-0.097441912 -0.043815877 0.68666673
-0.093426675 -0.043773334 0.68600005
-0.081666671 -0.043773334 0.68600005
-0.072520003 -0.043773334 0.68600005
-0.067995243 -0.043805238 0.68650001
-0.063130856 -0.043524768 0.68620008
-0.057515003 -0.04378929 0.68625009
-0.05335556 -0.043337785 0.68600005
-0.045603812 -0.043422859 0.68733335
-0.042508572 -0.043815877 0.68666673
-0.037893336 -0.043773334 0.68600005
-0.033320002 -0.043773334 0.68600005
-0.12664478 -0.037402861 0.68900001
-0.1242468 -0.037928216 0.686625
-0.12384842 -0.033142067 0.68683338
-0.1216081 -0.028112859 0.68650007
-0.11956001 -0.025480002 0.68600005
-0.12008286 -0.022966668 0.68900001
-0.1183108 -0.021569844 0.68633342
-0.11785858 -0.018333334 0.6875
-0.11352096 -0.0059057148 0.68900001
-0.11180144 -0.0013071429 0.68650007
-0.1108962 0.001312381 0.68900001
-0.10872844 0.0028987757 0.68714297
-0.10849634 0.0075681643 0.68685716
-0.10649334 0.012086667 0.68600005
-0.10526334 0.015691906 0.68650007
-0.10395572 0.018307146 0.68650007
-0.1031341 0.022148574 0.68800002
-0.10090572 0.026866669 0.68800002
-0.10010572 0.033368573 0.68700004
-0.098360956 0.032496192 0.68700004
-0.096760958 0.038363244 0.68740004
-0.10039715 0.041340001 0.68900001
-0.097453542 0.042139687 0.68777788
-0.094343826 0.043359052 0.68633342
-0.095147625 0.045933336 0.68900001
-0.093168102 0.046420954 0.68650001
-0.091628768 0.052041341 0.6882
0.013720001 0.053573336 0.68600005
0.017204447 0.052811116 0.68599999
0.020253334 0.051613338 0.68600005
-0.089898102 0.057088576 0.68900001
0.0089404769 0.05865413 0.68683338
0.012272144 0.05678143 0.68725014
0.017032739 0.056341317 0.68787503
0.0032666668 0.062066671 0.68600005
0.0078585725 0.060892861 0.6875
-0.081297152 -0.050893337 0.69400001
-0.07997524 -0.050893337 0.69400001
-0.060557783 -0.051309526 0.6936667
-0.057502862 -0.050893337 0.69400001
-0.031020002 -0.050820004 0.69300002
-0.13020763 -0.046266671 0.69400001
-0.12742193 -0.046875667 0.69322228
-0.12249477 -0.046760481 0.69150007
-0.11715569 -0.047313653 0.6918667
-0.11236715 -0.047783971 0.69200003
-0.10776844 -0.047883742 0.69161552
-0.10268556 -0.04801802 0.69236368
-0.097528026 -0.048107069 0.6919167
-0.092264771 -0.047695953 0.69075
-0.087142266 -0.047939405 0.6918751
-0.082943439 -0.048056956 0.69120008
-0.077739529 -0.048753574 0.69175005
-0.072443575 -0.048735715 0.69150001
-0.067124769 -0.048919052 0.69099998
-0.062473815 -0.048664287 0.69050002
-0.057953101 -0.048735715 0.69150007
-0.052724048 -0.048112143 0.69200003
-0.047117069 -0.047118496 0.6919167
-0.042353172 -0.048226412 0.69190913
-0.037203539 -0.048885718 0.69228578
-0.03306362 -0.048874289 0.69160002
-0.13020763 -0.042300954 0.69400001
-0.12764619 -0.042657383 0.69174999
-0.12420001 -0.044028573 0.69000006
-0.13020763 -0.036352385 0.69400001
-0.12785715 -0.038226672 0.69200003
-0.12648976 -0.032936908 0.69175005
-0.12474 -0.031020002 0.69300002
-0.12382341 -0.027442452 0.69314295
-0.12220943 -0.022506773 0.69277787
-0.12080039 -0.016993143 0.69160002
-0.11902906 -0.015782382 0.69050002
-0.11831048 -0.011236191 0.69400001
-0.11550001 -0.0059400005 0.69300002
-0.11566667 -0.0046266671 0.69400001
-0.11393286 -0.0026323814 0.69150001
-0.11204192 0.0030707938 0.69066668
-0.11197182 0.0072556199 0.69240004
-0.10974286 0.0098571433 0.69000006
-0.11066976 0.012223096 0.69375002
-0.10830286 0.013401906 0.69200009
-0.11214159 0.016964447 0.69400001
-0.10778344 0.017413337 0.69260001
-0.10702799 0.021934884 0.69262505
-0.10404763 0.023876194 0.69000006
-0.10610668 0.027679048 0.69200003
-0.10319929 0.027967382 0.69091672
-0.10208825 0.032417778 0.69155556
-0.099228576 0.034828573 0.69000006
-0.10054287 0.037457146 0.69000006
-0.098935962 0.037142619 0.69025004
-0.10054287 0.040085718 0.69000006
-0.099300481 0.042089052 0.69050002
-0.097399056 0.046286032 0.69099998
-0.092657149 0.049285721 0.69000006
-0.093382388 0.050636671 0.69050002
-0.090028577 0.059800003 0.69000006
0.012819286 0.059493095 0.69025004
0.016117858 0.05887834 0.69075
-0.086419053 -0.055175241 0.69800001
-0.084424764 -0.055175241 0.69800001
-0.13095811 -0.05118667 0.69800001
-0.12754336 -0.051593181 0.69750011
-0.1223162 -0.05118667 0.69800001
-0.11676401 -0.051674481 0.69740003
-0.1124241 -0.05162001 0.69614297
-0.10737525 -0.051651705 0.69657147
-0.10210307 -0.052270055 0.69666672
-0.097707488 -0.051461231 0.69657153
-0.092999533 -0.051150002 0.69749999
-0.087420873 -0.052307282 0.69681823
-0.082736947 -0.052531011 0.69622225
-0.077190891 -0.051809125 0.69614297
-0.072688714 -0.051651161 0.69657153
-0.067756996 -0.051593181 0.69749999
-0.063308582 -0.051896382 0.69680005
-0.057253655 -0.051949531 0.69633341
-0.052658673 -0.051335242 0.69640011
-0.047777385 -0.051759768 0.69675004
-0.042221908 -0.051950168 0.69633341
-0.036967799 -0.05228797 0.69654554
-0.0327821 -0.051896382 0.69680005
-0.13291006 -0.047480438 0.69681823
-0.12726858 -0.04971429 0.69600004
-0.12245239 -0.049642861 0.69500005
-0.11980477 -0.049642861 0.69500005
-0.092576519 -0.04971429 0.6960001
-0.088823818 -0.04971429 0.69600004
-0.051628575 -0.049642861 0.69500005
-0.048319053 -0.049642861 0.69500005
-0.13287811 -0.042670269 0.69644451
-0.13126478 -0.037293337 0.69680005
-0.12919526 -0.036438417 0.69566673
-0.12896383 -0.032240953 0.69800001
-0.12651573 -0.027821433 0.69550008
-0.12532501 -0.02254262 0.69625008
-0.1237762 -0.02051905 0.69500005
-0.12341017 -0.01769143 0.69666672
-0.12090048 -0.011957143 0.69749999
-0.11882191 -0.012612382 0.69700003
-0.12032191 -0.0099714296 0.69800001
-0.1183516 -0.0075211115 0.69683337
-0.1169264 -0.0023707484 0.69700009
-0.11656592 0.0022600002 0.69780004
-0.11467429 0.0026533334 0.6960001
-0.11500382 0.0059828577 0.69800001
-0.11186191 0.0086047621 0.69500005
-0.11186191 0.013238097 0.69500005
-0.11163227 0.017058691 0.69562507
-0.11160049 0.020592857 0.69749999
-0.10915834 0.02355643 0.69675004
-0.10656668 0.025814287 0.69500005
-0.097276829 0.049413972 0.69800007
-0.095809214 0.051999684 0.69700003
-0.10660572 -0.061013337 0.70400006
-0.13677715 -0.055649526 0.70400006
-0.13261358 -0.055590242 0.70324999
-0.12730001 -0.055610005 0.70350003
-0.12198357 -0.055629767 0.70375001
-0.11800382 -0.055649526 0.70400006
-0.11196953 -0.056320004 0.70400012
-0.10715626 -0.05759804 0.70321441
-0.10323644 -0.056723814 0.70275003
-0.097889528 -0.055649526 0.70400006
-0.091483824 -0.056122672 0.70320004
-0.087115407 -0.056816354 0.70183343
-0.082491174 -0.056493342 0.70257151
-0.077791713 -0.056167759 0.70328581
-0.07196445 -0.056096509 0.70400012
-0.067478575 -0.056306832 0.70383346
-0.064081274 -0.056043815 0.70333338
-0.055649526 -0.055649526 0.70400006
-0.052272391 -0.056070164 0.70366669
-0.047886908 -0.055925481 0.70325005
-0.042454954 -0.056784671 0.70310003
-0.037574127 -0.056805089 0.70033336
-0.03355556 -0.055777784 0.70000005
-0.13650404 -0.052034609 0.70144451
-0.13257097 -0.052495554 0.70066667
-0.12713642 -0.053724527 0.70075005
-0.12275429 -0.053371906 0.70050001
-0.11794445 -0.053632703 0.70100009
-0.11216001 -0.054077145 0.70100003
-0.10774381 -0.053705245 0.70050001
-0.104 -0.054000005 0.70000005
-0.097026043 -0.053632703 0.70100009
-0.092590205 -0.053113475 0.70085722
-0.090000004 -0.054000005 0.70000005
-0.080666669 -0.054000005 0.70000005
-0.077333339 -0.054000005 0.70000005
-0.072076909 -0.054057859 0.70075005
-0.067696951 -0.053543814 0.70100003
-0.062821195 -0.054135002 0.70175004
-0.057620004 -0.054270003 0.70350003
-0.052495878 -0.05360667 0.70066679
-0.047355246 -0.054025721 0.70033336
-0.043354608 -0.054025721 0.70033336
-0.039333336 -0.054000005 0.70000005
-0.032666668 -0.054000005 0.70000005
-0.13724548 -0.047752146 0.70125002
-0.13590881 -0.042073574 0.70125002
-0.13610667 -0.039558098 0.70400006
-0.1338108 -0.03851746 0.7013334
-0.13591334 -0.032806668 0.70300001
-0.13255239 -0.03230381 0.70080006
-0.13203107 -0.027899751 0.70086676
-0.12866667 -0.027333334 0.70000005
-0.13074286 -0.024807621 0.70400006
-0.12845787 -0.022745239 0.7025001
-0.1267722 -0.017803811 0.70279998
-0.12484477 -0.015355239 0.70100003
-0.12654001 -0.012720954 0.70300001
-0.12344563 -0.012192987 0.70063639
-0.12225387 -0.0073482543 0.70144451
-0.12194286 -0.00274963 0.70222223
-0.11933334 -0.0026666669 0.70000005
-0.12083905 0.0013352381 0.70100003
-0.11895675 0.0029578235 0.70114291
-0.11691731 0.0071274615 0.70150006
-0.11400001 0.0086666672 0.70000005
-0.11571779 0.012260636 0.70233339
-0.11400001 0.012000001 0.70000005
-0.11400001 0.019333335 0.70000005
-0.11149239 0.02203143 0.70100003
-0.10866667 0.026000002 0.70000005
-0.10609253 0.037214696 0.70314288
-0.10377619 0.038162861 0.70300001
-0.10088239 0.04810429 0.70150006
-0.099475242 0.048736192 0.70100003
-0.12609144 -0.060011432 0.708
-0.1233943 -0.060011432 0.70800006
-0.11530287 -0.060011432 0.708
-0.11257429 -0.061342668 0.70779997
-0.10908 -0.061946675 0.70700002
-0.10181715 -0.060460955 0.70800006
-0.097097158 -0.060348574 0.708
-0.092377149 -0.061360009 0.70800006
-0.088331431 -0.060910478 0.70800006
-0.082038097 -0.060460955 0.70800006
-0.078217149 -0.061360005 0.708
-0.072772384 -0.061316669 0.70749998
-0.06746801 -0.061542671 0.70700002
-0.056977145 -0.06068572 0.708
-0.052594289 -0.061360005 0.708
-0.045851432 -0.061360005 0.708
-0.042440638 -0.061302226 0.70733333
-0.1408262 -0.056600481 0.70749998
-0.13781571 -0.057719525 0.70675004
-0.13252799 -0.057856798 0.706375
-0.12743798 -0.057717972 0.70585716
-0.12243727 -0.057856314 0.706375
-0.11710414 -0.057692282 0.70711118
-0.1126181 -0.058553018 0.70666665
-0.10944287 -0.059757147 0.70500004
-0.10148096 -0.058245718 0.70566672
-0.097594537 -0.057280719 0.70550001
-0.093228497 -0.058506068 0.70609087
-0.088057719 -0.059019238 0.7058
-0.081318423 -0.058918417 0.70566672
-0.077659532 -0.058834288 0.70599997
-0.072886296 -0.058767237 0.70599997
-0.067131117 -0.058918409 0.70566666
-0.062121492 -0.057787519 0.70644444
-0.057771176 -0.057405625 0.70609087
-0.052446287 -0.05876724 0.70599997
-0.047283072 -0.058788043 0.70588887
-0.043423053 -0.059019238 0.7058
-0.14107601 -0.05295372 0.70740002
-0.13898572 -0.052595243 0.7050001
-0.13914192 -0.046155717 0.70749998
-0.1378381 -0.042361908 0.70600003
-0.13672535 -0.037312385 0.70719999
-0.13428572 -0.036928575 0.70500004
-0.13688001 -0.034388572 0.708
-0.13495715 -0.034242861 0.70500004
-0.13543573 -0.022908097 0.70749998
-0.13251631 -0.022734953 0.70629996
-0.13249333 -0.018049948 0.70777786
-0.1292192 -0.017195512 0.70614284
-0.13071857 -0.013476668 0.70749998
-0.12872732 -0.012355874 0.70766664
-0.12633952 -0.0077485722 0.70749998
-0.12609144 -0.0047200001 0.708
-0.12421429 -0.0047000004 0.70500004
-0.12044144 0.0067300005 0.70650005
-0.11867429 0.0087657152 0.708
-0.11790039 0.01118381 0.70740002
