# .PCD v0.7 - Point Cloud Data file format
VERSION 0.7
FIELDS x y z
SIZE 4 4 4
TYPE F F F
COUNT 1 1 1
WIDTH 1331
HEIGHT 1
VIEWPOINT 0 0 0 1 0 0 0
POINTS 1331
DATA ascii
-0.07407476 -0.0057471432 0.67050004
-0.092434287 -0.0044933334 0.67400002
-0.086336203 -0.004172381 0.67400002
-0.08209125 -0.0032059052 0.67339993
-0.077601485 -0.0027041761 0.67169237
-0.073212825 -0.002211795 0.67115384
-0.068063498 -0.0010634921 0.67000002
-0.064447626 -0.00063809525 0.67000002
-0.076129913 0.0011554287 0.67400002
-0.072374776 0.0012817462 0.67250001
-0.067542486 0.001664762 0.67159998
-0.062679708 0.0025610121 0.67156249
-0.057498392 0.0025570835 0.67081249
-0.052682392 0.0030869839 0.67050004
-0.048176195 0.004147619 0.67000002
-0.061408892 0.0062050801 0.67400002
-0.057665005 0.0064078574 0.67275
-0.052254479 0.0067889527 0.6724
-0.047395237 0.0076880963 0.67249995
-0.042259585 0.0076870834 0.6723125
-0.037120715 0.007683096 0.67199993
-0.032148052 0.0084306495 0.67145461
-0.02750016 0.0089538097 0.67150009
-0.023260003 0.0090306131 0.67042863
-0.017233714 0.0090638101 0.67020005
-0.012634287 0.0093161911 0.67000002
-0.0076571433 0.0095714293 0.67000002
-0.0038285716 0.0095714293 0.67000002
-0.043007623 0.010912383 0.67400002
-0.036267623 0.011233334 0.67400002
-0.032003541 0.011462587 0.67400008
-0.02712048 0.011875239 0.67400002
-0.02267286 0.012042382 0.67250001
-0.017903097 0.012151033 0.6714167
-0.012658977 0.012366229 0.67238468
-0.0076867864 0.012812501 0.6724999
-0.0026858416 0.01291429 0.67120004
0.0019148303 0.0139532 0.67028582
0.0076571438 0.014676192 0.67000002
0.012634287 0.014420954 0.67000002
0.017866667 0.014676192 0.67000002
-0.0057771434 0.016047619 0.67400002
-0.0021824762 0.016304381 0.67400002
0.0028206669 0.017053237 0.67309999
0.0076869852 0.017299049 0.67266655
0.012941081 0.017812192 0.67266673
0.017913334 0.01791643 0.67174995
-0.17007335 -0.036860004 0.67900002
-0.16764629 -0.036709722 0.67860001
-0.16288809 -0.036585625 0.67869997
-0.15769964 -0.036193691 0.67862499
-0.1525294 -0.036193695 0.67862499
-0.14733143 -0.036187142 0.6785
-0.14243215 -0.036335714 0.67825001
-0.1374404 -0.036073528 0.67880005
-0.13330285 -0.035814859 0.67880005
-0.12794572 -0.03618715 0.6785
-0.12279847 -0.036193695 0.67862499
-0.11716548 -0.03636191 0.67874998
-0.11238287 -0.036816038 0.67816675
-0.10747408 -0.036399584 0.67844445
-0.10255493 -0.035980321 0.67866671
-0.096892148 -0.035850719 0.67825007
-0.092764504 -0.036091026 0.67842859
-0.087673977 -0.036405403 0.67855555
-0.082530722 -0.036107622 0.67699999
-0.077927388 -0.036066428 0.67625004
-0.072247945 -0.03591048 0.67733335
-0.066821508 -0.036038645 0.67742866
-0.061988577 -0.035514288 0.67800003
-0.057243813 -0.036052573 0.67840004
-0.053085171 -0.036098506 0.67857146
-0.047781907 -0.036160953 0.67799997
-0.042884603 -0.035989054 0.67883337
-0.037272811 -0.036411431 0.67866665
-0.032327022 -0.036206786 0.67887497
-0.027155358 -0.036206789 0.67887497
-0.021970477 -0.036187146 0.6785
-0.018753335 -0.036213338 0.67900002
-0.16658597 -0.032996908 0.67600006
-0.16267093 -0.032840785 0.67609096
-0.15761621 -0.033895053 0.67660004
-0.1523751 -0.033606943 0.6767143
-0.14807335 -0.033577334 0.67540008
-0.14271429 -0.034071431 0.67500001
-0.13752776 -0.033578098 0.67614293
-0.13267308 -0.033491667 0.67625004
-0.12783036 -0.033592518 0.67642862
-0.12232381 -0.034121908 0.67600006
-0.11730596 -0.034159765 0.67675
-0.11250001 -0.034071431 0.67500007
-0.108 -0.034071431 0.67500001
-0.10295873 -0.033676513 0.67566675
-0.097822621 -0.034109287 0.67575008
-0.092639059 -0.034096669 0.67550004
-0.087657861 -0.034159765 0.67675
-0.083571434 -0.034071431 0.67500001
-0.075857148 -0.034071431 0.67500001
-0.070071436 -0.034071431 0.67500001
-0.068142861 -0.034071431 0.67500001
-0.062449526 -0.034121908 0.67600006
-0.05794286 -0.034121908 0.67600006
-0.052648198 -0.033854671 0.67580009
-0.049500003 -0.034071431 0.67500001
-0.042490955 -0.034121908 0.676
-0.037340954 -0.034121908 0.67600006
-0.031783968 -0.033718571 0.67650002
-0.027075121 -0.033522978 0.67687505
-0.022078931 -0.033361789 0.67687505
-0.01753162 -0.032746669 0.67680001
-0.012888642 -0.031947821 0.67664295
-0.0081138108 -0.031681623 0.67610013
-0.0020744975 -0.032725293 0.67666668
0.0025796827 -0.032885402 0.67700005
0.0074469401 -0.032276329 0.67585725
0.013336509 -0.03248667 0.67766666
0.017837355 -0.031595662 0.67699999
0.021931145 -0.031609237 0.67730004
0.025574923 -0.030734923 0.67700005
-0.17060953 -0.025108574 0.67600006
-0.16696565 -0.02648643 0.67558348
-0.16249673 -0.026370823 0.67536378
-0.15878573 -0.025071431 0.67500001
0.018642858 -0.028928574 0.67500007
0.02301429 -0.028157145 0.67500001
0.026601389 -0.027069956 0.67527288
-0.1714541 -0.021906985 0.67877775
-0.16771473 -0.022151839 0.67842859
-0.16267614 -0.021946492 0.67781252
-0.15737398 -0.021779938 0.67666674
-0.15232213 -0.021981705 0.67607152
-0.14793018 -0.021867622 0.67533344
-0.15684763 -0.017881908 0.67866671
-0.15250011 -0.018092288 0.6785
-0.14736632 -0.017950542 0.67806661
-0.14278632 -0.017867709 0.67672735
-0.13767406 -0.016726429 0.67550004
-0.13307145 -0.016585717 0.67500001
-0.12940572 -0.01609524 0.67600006
-0.14679334 -0.014873335 0.67900008
-0.14183734 -0.014610286 0.67880005
-0.13716182 -0.01357343 0.67869997
-0.13247296 -0.013671239 0.67720002
-0.12767722 -0.0128949 0.67707163
-0.12287763 -0.011579525 0.67550004
-0.11892858 -0.010928572 0.67500001
-0.12696223 -0.008406668 0.67900002
-0.12267136 -0.0083916681 0.67791671
-0.11723825 -0.0081835911 0.67723078
-0.11261334 -0.0076767099 0.67709094
-0.10773298 -0.0066103572 0.67737502
-0.10330681 -0.0067141508 0.67614293
-0.099146679 -0.0057942863 0.67600006
-0.11252001 -0.0045266668 0.67900002
-0.10176777 -0.0029326011 0.67861539
-0.09741962 -0.0025783337 0.67741674
-0.092812315 -0.0019318255 0.67675006
-0.087912157 -0.0020373811 0.6762501
-0.082696386 -0.0009001905 0.67520005
-0.10152667 0.00064666668 0.67900002
-0.096611999 0.00090533338 0.67900002
-0.092427947 0.0019396825 0.67866665
-0.088086158 0.0021389015 0.67892307
-0.082514867 0.0024550478 0.67793345
-0.077760778 0.0032250218 0.67681819
-0.072280124 0.0038729766 0.67762506
-0.067998342 0.0041897623 0.67675
-0.089886673 0.0058200005 0.67900002
-0.07760001 0.0058200005 0.67900002
-0.073073342 0.0058200005 0.67900008
-0.066563495 0.0069653974 0.67855555
-0.062838949 0.0082423287 0.67711115
-0.057932504 0.0090117864 0.67587507
-0.053142861 0.0092142858 0.67500007
-0.061790213 0.011545306 0.67885715
-0.057515878 0.01227926 0.67855555
-0.052733503 0.012378096 0.67800009
-0.047547553 0.01244718 0.67676938
-0.042401467 0.013342271 0.6769231
-0.037668653 0.013415636 0.67608345
-0.032240849 0.013940532 0.67555565
-0.027114697 0.014247213 0.67557156
-0.022533335 0.014807621 0.67600006
-0.018007381 0.014791192 0.67525005
-0.013500001 0.014785716 0.67500007
-0.042550664 0.016425336 0.67900002
-0.037260532 0.017015452 0.67844445
-0.032286353 0.017435556 0.67799997
-0.027123099 0.017437223 0.67808336
-0.021953812 0.017434921 0.67800009
-0.017422646 0.017424552 0.67755556
-0.012889843 0.017401271 0.67666674
-0.0078984424 0.017493766 0.67572737
-0.0029585715 0.018651715 0.67530006
0.0021442859 0.019514762 0.67550009
0.0077142864 0.019928573 0.67500001
0.010928572 0.019928573 0.67500001
-0.030393336 0.020046668 0.67900002
-0.027160002 0.020046668 0.67900002
-0.021555556 0.020477779 0.67900002
-0.017713144 0.020558095 0.67880005
-0.013318096 0.020299429 0.67880005
-0.007430953 0.020840237 0.6785
-0.0025855955 0.021651786 0.67862499
0.0025848811 0.021974882 0.67862499
0.0080060968 0.022342857 0.67800003
0.012900795 0.022580002 0.67733335
0.017857576 0.022427276 0.67627287
0.020825716 0.022546351 0.67633337
0.013148891 0.025220003 0.67900008
0.017451111 0.025854288 0.67866671
0.020673018 0.026487939 0.6783334
-0.16690159 -0.041888576 0.68366671
-0.16296847 -0.041881908 0.6835556
-0.15720232 -0.041555244 0.68328583
-0.15211812 -0.041881911 0.6835556
-0.14739735 -0.042058293 0.68360007
-0.14236966 -0.042142265 0.68337506
-0.13795073 -0.04164619 0.68325007
-0.13329285 -0.041681435 0.68383336
-0.12761036 -0.041668933 0.68362504
-0.12237905 -0.041661434 0.68350005
-0.11717144 -0.041661434 0.68350005
-0.1122543 -0.041758783 0.68357152
-0.10808383 -0.041454289 0.68366671
-0.10299505 -0.041276574 0.68360007
-0.09667062 -0.042148169 0.6838572
-0.092379771 -0.04228675 0.68308342
-0.087363906 -0.042174637 0.68318194
-0.082473665 -0.041454293 0.68366671
-0.076868579 -0.041040003 0.68400002
-0.072708264 -0.041020006 0.68366671
-0.067723334 -0.041676436 0.68375003
-0.062257964 -0.041598372 0.68400007
-0.057011027 -0.041572656 0.68357152
-0.051651865 -0.042304508 0.68336374
-0.047634464 -0.042783555 0.68345463
-0.043255243 -0.041581232 0.68371433
-0.03738153 -0.041288573 0.68380004
-0.032727979 -0.041846789 0.68387502
-0.027345359 -0.041668933 0.68362504
-0.021959137 -0.042202603 0.68363643
-0.017801113 -0.041898575 0.68383336
-0.014005715 -0.041365717 0.68400002
0.02801143 -0.041040003 0.68400002
-0.16660255 -0.039543495 0.68066669
-0.16265398 -0.03915048 0.68133342
-0.15760191 -0.038915243 0.68099999
-0.15241335 -0.038915243 0.68100005
-0.14756492 -0.038814425 0.68085724
-0.14230929 -0.03873881 0.68074995
-0.13749734 -0.038526289 0.68099999
-0.13248278 -0.03857762 0.68190002
-0.12732966 -0.038979173 0.68212503
-0.12199751 -0.038936552 0.68137503
-0.11798223 -0.038680002 0.68066669
-0.11301715 -0.039620955 0.68200004
-0.10749716 -0.039048713 0.68171436
-0.10236382 -0.038582671 0.6820001
-0.097631872 -0.038452297 0.68218184
-0.092114411 -0.038922504 0.68112504
-0.087339371 -0.039131112 0.68099999
-0.082472265 -0.038965121 0.68187505
-0.077487834 -0.038493339 0.68244439
-0.072683051 -0.038549151 0.6814
-0.067755029 -0.038749743 0.68188894
-0.062331676 -0.038309924 0.68175006
-0.057364982 -0.038749315 0.68188894
-0.052546404 -0.038644902 0.68114293
-0.047975 -0.038899768 0.68074995
-0.042626102 -0.038480196 0.68019998
-0.037911434 -0.039023813 0.6812858
-0.032452144 -0.038944289 0.68149996
-0.027250476 -0.038929764 0.68125004
-0.022051429 -0.038915243 0.68100005
-0.017271811 -0.037922859 0.68180007
-0.012988097 -0.037668094 0.68187511
-0.008576191 -0.037296385 0.68220007
-0.0013937416 -0.03725769 0.68285722
0.0026011311 -0.037719943 0.68281257
0.0078042266 -0.037718989 0.68281245
0.01237252 -0.036557831 0.68371433
0.017580003 -0.035811119 0.68366671
0.022141194 -0.035815481 0.68375003
0.02725143 -0.037674289 0.68400002
-0.012952382 -0.034323812 0.68000001
-0.0077714291 -0.034323812 0.68000001
-0.0039085718 -0.034525715 0.68400002
0.0077785719 -0.03434905 0.68050003
0.012990477 -0.034424763 0.68200004
0.017520001 -0.034391113 0.68133342
0.022473145 -0.034165718 0.6820001
0.026753098 -0.033240952 0.68099999
-0.1729143 -0.020076191 0.68000001
-0.17107525 -0.016261905 0.68300003
-0.16759723 -0.017537702 0.68208337
-0.16269897 -0.017397812 0.68170011
-0.15876001 -0.017236194 0.68040007
-0.15348575 -0.016190477 0.68000001
-0.17067429 -0.014982858 0.68400002
-0.16741717 -0.014982859 0.68400002
-0.16256139 -0.014107196 0.68366671
-0.15731613 -0.013140893 0.68313342
-0.15234728 -0.012809594 0.68235719
-0.14775586 -0.012679654 0.6812728
-0.14269145 -0.012189957 0.6801818
-0.13742477 -0.011268573 0.68000001
-0.13211429 -0.011009525 0.68000001
-0.15178287 -0.0091200005 0.68400002
-0.14711557 -0.0084617473 0.68350005
-0.1420614 -0.0079794815 0.68281829
-0.13769038 -0.0079299686 0.68260002
-0.13260002 -0.0077988096 0.68250006
-0.12792803 -0.0069546946 0.68185723
-0.12264001 -0.0058400007 0.68133342
-0.11851429 -0.005828572 0.68000001
-0.11268573 -0.005828572 0.68000001
-0.13680002 -0.0045600003 0.68400002
-0.13267429 -0.0036914286 0.68400002
-0.12771112 -0.0036899473 0.68377781
-0.12212867 -0.0033700436 0.68309098
-0.11723893 -0.0024710477 0.6831333
-0.11259075 -0.0024224245 0.68263644
-0.10777234 -0.0025947029 0.68168747
-0.10383493 -0.0010793651 0.68000001
-0.11573716 0.0010857144 0.68400002
-0.11176886 0.0020844762 0.68390006
-0.10753257 0.0020721212 0.68354553
-0.10271894 0.0027318732 0.68233341
-0.097514905 0.0033642426 0.68136364
-0.092927948 0.0045488896 0.68233335
-0.087428585 0.0045333337 0.68000001
-0.0848381 0.0045333337 0.68000001
-0.10618287 0.0058628577 0.68400002
-0.10184001 0.0062971432 0.68400002
-0.097642861 0.0065100007 0.68350005
-0.092418455 0.0068341675 0.68337506
-0.087023161 0.0077582416 0.68307704
-0.082347319 0.0078439377 0.68226665
-0.077563539 0.0083170487 0.68210006
-0.072532028 0.0082382439 0.68138462
-0.068243273 0.0087967357 0.68057144
-0.082080007 0.011074287 0.68400002
-0.077230483 0.012521905 0.68400002
-0.072581425 0.012477461 0.68350005
-0.067613579 0.013004763 0.68262506
-0.062500007 0.014058096 0.68122226
-0.057032861 0.014906191 0.68050003
-0.053320639 0.014463494 0.68000001
-0.04857143 0.01489524 0.68000001
-0.069702864 0.016285716 0.68400002
-0.062057626 0.016708096 0.68350005
-0.05699886 0.017308572 0.68320006
-0.052188311 0.017672295 0.68263644
-0.047605149 0.017383048 0.68100005
-0.042907219 0.018257419 0.68114293
-0.038209528 0.018780954 0.68000001
-0.051438417 0.020184446 0.68366671
-0.047102865 0.021276737 0.68285722
-0.042754155 0.021843268 0.6831429
-0.037796803 0.0213542 0.68318188
-0.032634605 0.022236003 0.68260002
-0.027303416 0.022753416 0.68258345
-0.022337144 0.022988379 0.68180001
-0.017330343 0.023077007 0.68114293
-0.012789612 0.022810046 0.6807273
-0.0081045246 0.02317881 0.68075001
-0.002201905 0.02370286 0.68000001
0.0025904763 0.023961907 0.68000001
0.0064761909 0.023961907 0.68000001
-0.04234286 0.025405716 0.68400002
-0.032571431 0.025405716 0.68400002
-0.027360002 0.025405716 0.68400002
-0.022148572 0.025405716 0.68400002
-0.017588574 0.025405716 0.68400002
-0.012843984 0.026576625 0.68363643
-0.0078111319 0.027338872 0.68343753
-0.0026019048 0.026670799 0.68300009
0.0027515024 0.026868431 0.68292314
0.0077927988 0.027280295 0.68193758
0.012922638 0.027693627 0.681077
0.017485715 0.028495241 0.68000001
0.02072381 0.029142858 0.68000001
0.0082051437 0.030868763 0.68380004
0.013016311 0.031240597 0.68337506
0.017726397 0.031463809 0.68214291
0.020547304 0.031366352 0.68133342
-0.16684382 -0.045800641 0.68700016
-0.16243953 -0.045851193 0.68774998
-0.15761842 -0.04562699 0.68766677
-0.15223294 -0.045942046 0.68771434
-0.14758301 -0.045764495 0.68785721
-0.14232363 -0.045434479 0.68740004
-0.13785267 -0.045764495 0.68785727
-0.1323581 -0.045211431 0.68800008
-0.12711525 -0.045867622 0.68800008
-0.12252857 -0.045867622 0.68800008
-0.11763716 -0.045764495 0.68785727
-0.11250044 -0.046093654 0.68811119
-0.10789647 -0.045839597 0.68900007
-0.10270286 -0.0456708 0.68833339
-0.097214974 -0.04594259 0.6877144
-0.092493825 -0.045594133 0.68716681
-0.087767385 -0.045195002 0.6877501
-0.082261644 -0.045764495 0.68785727
-0.077318102 -0.045867622 0.68800008
-0.071997695 -0.04578327 0.68814296
-0.06735 -0.046376191 0.68825006
-0.062902868 -0.045867622 0.68800008
-0.057599526 -0.045817383 0.68725002
-0.05259021 -0.045865308 0.68657148
-0.046798337 -0.045817383 0.68725008
-0.041964289 -0.045244288 0.68849999
-0.037348576 -0.045867622 0.68800008
-0.033183049 -0.045513339 0.68860006
-0.026247621 -0.045277145 0.68900001
-0.022002315 -0.04578327 0.68814296
-0.017443622 -0.045513339 0.6886
-0.16790667 -0.043773334 0.68600005
-0.16168135 -0.043524764 0.68620008
-0.15745336 -0.043773334 0.68600005
-0.15353334 -0.043773334 0.68600005
-0.14634669 -0.043773334 0.68600005
-0.14242667 -0.043773334 0.68600005
-0.13720001 -0.043773334 0.68600005
-0.13197336 -0.043120004 0.68600005
-0.12740001 -0.043773334 0.68600005
-0.12282667 -0.043773334 0.68600005
-0.11764358 -0.04378929 0.68625009
-0.11237334 -0.043773334 0.68600005
-0.10678874 -0.043369688 0.68650007
-0.10231201 -0.043250673 0.68600005
-0.099437341 -0.042728003 0.68600005
-0.085711434 -0.043837145 0.68700004
-0.081884451 -0.043337785 0.68600005
-0.077336505 -0.042916406 0.68622226
-0.072721772 -0.04284912 0.68614298
-0.067946672 -0.043773334 0.68600005
-0.063166671 -0.04355029 0.68660009
-0.057919621 -0.043537527 0.68640012
-0.053573336 -0.043773334 0.68600005
-0.045080002 -0.043773334 0.68600005
-0.042155001 -0.043462623 0.68625009
-0.03818164 -0.04322245 0.68614286
-0.032340001 -0.043446671 0.68600005
-0.02745905 -0.043805238 0.68650001
-0.024173334 -0.043773334 0.68600005
-0.01667143 -0.043478575 0.68650007
-0.012216351 -0.042758577 0.68716669
-0.0078592859 -0.041920718 0.6877501
-0.0026219047 -0.04192343 0.68780011
0.0023974606 -0.042073019 0.68666673
0.0076349215 -0.042246144 0.6871112
0.012467621 -0.041340001 0.68900001
0.017060952 -0.04035572 0.68900001
0.022966668 -0.041340001 0.68900001
0.026171431 -0.041220002 0.68700004
-0.0065376195 -0.038574763 0.68650007
-0.0034322622 -0.038077503 0.68637502
0.012855239 -0.039001592 0.68633336
0.016788466 -0.03815503 0.68677777
0.022224126 -0.038566031 0.68633342
0.026133336 -0.039853334 0.68600005
-0.17103359 -0.012099287 0.68675005
-0.16763213 -0.012308487 0.68681824
-0.1625416 -0.01154762 0.68633336
-0.17183843 -0.0085257161 0.68866676
-0.16780582 -0.0086497841 0.68900013
-0.16241284 -0.008962011 0.6885556
-0.15751317 -0.0083782868 0.68740004
-0.15312965 -0.00719631 0.68712503
-0.14786859 -0.005888572 0.68700004
-0.14383858 -0.005884286 0.68650007
-0.15092382 -0.0045933337 0.68900001
-0.14698668 -0.0045933337 0.68900001
-0.14200056 -0.0036497964 0.68800002
-0.13761087 -0.002355048 0.68740004
-0.13209458 -0.0012134694 0.68614298
-0.12725012 -0.0011765715 0.68660009
-0.12325505 -0.00091485726 0.68620008
-0.1320802 0.00091828575 0.68860006
-0.12725405 0.0016402381 0.68875003
-0.12254503 0.0019673596 0.68809104
-0.11786122 0.0027985284 0.68718195
-0.11335429 0.0040533333 0.68640006
-0.10845334 0.0045733335 0.68600005
-0.11226541 0.0063346038 0.68800008
-0.10746396 0.0066413609 0.68742865
-0.10248815 0.0085175773 0.68781829
-0.097513184 0.0091626998 0.68716669
-0.093112253 0.009245852 0.68642867
-0.089506671 0.009146668 0.68600005
-0.102147 0.011155238 0.68900001
-0.097116202 0.011155238 0.68900001
-0.092153721 0.011667239 0.68820012
-0.087497234 0.012313162 0.6870001
-0.082334884 0.01306917 0.68612504
-0.077093333 0.013720001 0.68600005
-0.086398415 0.015529843 0.68900001
-0.08256001 0.015726667 0.68800008
-0.077306069 0.016486667 0.68736374
-0.072224453 0.017239369 0.68733335
-0.067402758 0.017670056 0.68711114
-0.063201748 0.018524924 0.68650001
-0.058800004 0.018946668 0.68600005
-0.071524769 0.020341907 0.68900001
-0.067522228 0.020322226 0.68833339
-0.06295 0.020327145 0.68850005
-0.057683341 0.020975955 0.68825006
-0.05238048 0.021608099 0.6875
-0.047717147 0.022877781 0.68633336
-0.043773334 0.024173334 0.68600005
-0.037784763 0.023926098 0.68640006
-0.041741908 0.026303051 0.68700004
-0.037492022 0.026360122 0.68762505
-0.032476671 0.027894383 0.6875
-0.027479365 0.028135553 0.68700004
-0.022283969 0.028183337 0.6881668
-0.017181385 0.028239047 0.68663633
-0.012413334 0.029400002 0.68600005
-0.0026133335 0.029400002 0.68600005
0.00196 0.029400002 0.68600005
-0.028872382 0.030840954 0.68900001
-0.022310479 0.030840954 0.68900001
-0.016842224 0.031497147 0.68900007
-0.012279406 0.031926788 0.68762505
-0.007849128 0.032049291 0.68675005
-0.0026187305 0.032084927 0.68750012
0.0026187305 0.032084927 0.68750012
0.0076836911 0.033024404 0.686625
0.012426905 0.033684526 0.68675005
0.01702524 0.034049049 0.68750012
-0.16589905 -0.050893337 0.69400001
-0.16259429 -0.050893337 0.69400001
-0.15730667 -0.050893337 0.69400001
-0.15201905 -0.050893337 0.69400001
-0.14712802 -0.051422101 0.69400001
-0.14271477 -0.051535957 0.69375002
-0.13787468 -0.05115772 0.69400001
-0.1321905 -0.050893337 0.69400001
-0.12756382 -0.050893337 0.69400001
-0.12227621 -0.050893337 0.69400001
-0.11768057 -0.051113721 0.69340008
-0.11277857 -0.051444288 0.6925
-0.10823762 -0.050820004 0.69300002
-0.10376953 -0.050893337 0.69400001
-0.091872387 -0.050893337 0.69400001
-0.088567629 -0.050893337 0.69400001
-0.076670483 -0.050893337 0.69400001
-0.073365718 -0.050893337 0.69400001
-0.062129527 -0.050893337 0.69400001
-0.058121435 -0.050856672 0.69350004
-0.017845716 -0.050893337 0.69400001
-0.16643643 -0.048682146 0.69075006
-0.16272406 -0.048753336 0.69175005
-0.15733431 -0.048362289 0.69180006
-0.15218288 -0.048753571 0.69175005
-0.14713667 -0.048389286 0.69125003
-0.14275144 -0.04836667 0.69144452
-0.13757069 -0.048544023 0.69188899
-0.13262287 -0.048089843 0.69166672
-0.12773918 -0.048397973 0.69137502
-0.12249429 -0.048735715 0.69150007
-0.11709929 -0.048682146 0.69075
-0.11266686 -0.048774291 0.69020003
-0.10765631 -0.048457146 0.69066668
-0.10238411 -0.048298575 0.69090003
-0.097633205 -0.048677012 0.69200003
-0.092266671 -0.048376385 0.69200003
-0.087376297 -0.048238005 0.69190001
-0.083038583 -0.048441909 0.69200003
-0.077740006 -0.048753571 0.69175005
-0.072498418 -0.048504762 0.69133335
-0.067287624 -0.049038097 0.69266671
-0.062232658 -0.048865311 0.69200009
-0.057629261 -0.048606124 0.6910001
-0.05313842 -0.048527941 0.69166672
-0.04698123 -0.047923815 0.69200009
-0.042228054 -0.047980439 0.69181824
-0.036914133 -0.048783015 0.69216669
-0.032588847 -0.047428031 0.6902858
-0.028052211 -0.047192473 0.69081819
-0.022394408 -0.048415832 0.69162506
-0.017121144 -0.048070859 0.69139999
-0.012509842 -0.046749212 0.69133335
-0.0079065887 -0.046788491 0.6919167
-0.0028993336 -0.04652372 0.69190001
0.0026380955 -0.0461681 0.6925
0.0079194456 -0.046855956 0.69291663
0.012543598 -0.046876516 0.69322228
0.017176511 -0.046905722 0.69366682
0.022286583 -0.046795506 0.69381827
0.025777144 -0.045605719 0.69400001
-0.012485716 -0.044028573 0.69000006
-0.007885715 -0.044028573 0.69000006
-0.0032857144 -0.044028573 0.69000006
0.0032857144 -0.044028573 0.69000006
0.0085428581 -0.043590479 0.69000006
0.012485716 -0.043371435 0.69000006
0.017274464 -0.042856801 0.69036371
0.022146035 -0.043194927 0.69066668
0.026750287 -0.043617722 0.69180006
-0.17176144 -0.0065800007 0.69100004
-0.16769978 -0.0059421435 0.69325006
-0.1633243 -0.0065842867 0.69150007
-0.15788643 -0.0059207147 0.69075
-0.17184763 -0.0046266671 0.69400001
-0.16788191 -0.0046266671 0.69400001
-0.16190028 -0.0038703405 0.69385725
-0.15715206 -0.0027476191 0.6928333
-0.15264207 -0.0025215875 0.69133341
-0.14736089 -0.0019723019 0.69075
-0.14294592 -0.0011832382 0.69040006
-0.13931429 -0.0006571429 0.69000006
-0.15166132 0.0018175 0.69387507
-0.14752917 0.0018497146 0.69340003
-0.14240055 0.002359184 0.69314283
-0.13744941 0.0028289796 0.69242853
-0.1324842 0.0034260955 0.69140005
-0.12760954 0.0039469842 0.69066679
-0.12222859 0.0046000001 0.69000006
-0.14078286 0.005948572 0.69400001
-0.13719486 0.0065151029 0.69400001
-0.13225812 0.0065138792 0.69385725
-0.12741128 0.0066023818 0.69316673
-0.12228509 0.0068071964 0.69155556
-0.11743105 0.0080429846 0.69193339
-0.11272286 0.0089321099 0.6910001
-0.10779133 0.0092017855 0.69012505
-0.11632762 0.011897143 0.69400001
-0.11218117 0.0124 0.69333345
-0.10762592 0.012384954 0.69159997
-0.10281883 0.012954499 0.69155562
-0.097381555 0.01316012 0.69087505
-0.092394292 0.013537145 0.69000006
-0.11037906 0.015201906 0.69400001
-0.10747086 0.015466287 0.69400001
-0.10271201 0.015730668 0.69400001
-0.097214185 0.016215239 0.69333333
-0.092267744 0.017137859 0.69200003
-0.087791651 0.01761746 0.69077778
-0.082814895 0.018403454 0.69012505
-0.077542856 0.019057143 0.69000006
-0.07425715 0.019057143 0.69000006
-0.090947628 0.020920319 0.6936667
-0.087403409 0.021215104 0.69300002
-0.082684182 0.022285352 0.69284618
-0.077817559 0.022424588 0.69243759
-0.07258375 0.022845278 0.69138461
-0.067068979 0.023014527 0.69041675
-0.062499158 0.023026986 0.69077778
-0.05786036 0.023670359 0.69037503
-0.05285307 0.023751022 0.69000012
-0.047971427 0.02431429 0.69000006
-0.076413654 0.026205398 0.6936667
-0.072691314 0.026433453 0.69387507
-0.067153655 0.026641903 0.69355553
-0.062107235 0.027089763 0.69375008
-0.057420172 0.027721748 0.69299996
-0.052696194 0.027667619 0.69162506
-0.047404345 0.027654825 0.69131243
-0.042365823 0.028756298 0.69144446
-0.037720006 0.029045716 0.69000006
-0.034171432 0.029571431 0.69000006
-0.051554289 0.031064764 0.69400001
-0.047324196 0.032122284 0.69400007
-0.042275637 0.032367699 0.69358337
-0.037578631 0.032305613 0.69222224
-0.032925639 0.032267705 0.69141668
-0.027369907 0.032501716 0.69080007
-0.022105146 0.033291433 0.69080001
-0.017232573 0.033676006 0.69060004
-0.012823811 0.034525242 0.69050002
-0.0078904768 0.034853812 0.69050002
-0.0026323812 0.034879051 0.69100004
0.0026288098 0.034841195 0.69025004
0.0076666675 0.034828573 0.69000006
0.012485715 0.034828573 0.69000006
0.015114287 0.034828573 0.69000006
0.02037143 0.034828573 0.69000006
-0.044283811 0.035030477 0.69400001
-0.031064764 0.035030477 0.69400001
-0.026658414 0.035471115 0.69400001
-0.022604574 0.035823621 0.69400001
-0.017250266 0.03721619 0.69366676
-0.01253762 0.036952227 0.69283336
-0.007916905 0.036947865 0.69275004
-0.0024586148 0.037482172 0.69263643
0.0026350799 0.037557945 0.69183338
0.0079025412 0.037540164 0.69150007
0.012501377 0.037506457 0.69088894
0.016919831 0.037367798 0.6905455
0.02037143 0.03614286 0.69000006
-0.00066095241 0.040318098 0.69400001
0.0033033334 0.041295007 0.69374996
0.0082114302 0.041056871 0.69371432
0.012718572 0.041460242 0.69375002
0.016611518 0.042040266 0.69263637
-0.16528858 -0.055096194 0.69700003
-0.162567 -0.055592071 0.69766665
-0.15754859 -0.055175241 0.69800007
-0.15289526 -0.055175241 0.69800001
-0.14740144 -0.05577318 0.69716668
-0.14244343 -0.056207247 0.69760007
-0.13779025 -0.055448338 0.69725001
-0.13295239 -0.055175241 0.69800001
-0.12032191 -0.055175241 0.69800001
-0.11899239 -0.055175241 0.69800001
-0.091072388 -0.055175241 0.69800001
-0.089742862 -0.055175241 0.69800001
-0.077777147 -0.055175241 0.69800007
-0.062266033 -0.055175241 0.69800007
-0.059163813 -0.055175241 0.69800001
-0.16528858 -0.053768575 0.69700003
-0.16274491 -0.052923951 0.69585723
-0.15776001 -0.053029526 0.6960001
-0.15229359 -0.052971669 0.69525009
-0.14793572 -0.053283338 0.69500005
-0.14336859 -0.053879052 0.69500011
-0.13756151 -0.053113069 0.69585723
-0.13253336 -0.052616954 0.69580013
-0.12706764 -0.052817039 0.69611114
-0.12262858 -0.05302953 0.6960001
-0.11782029 -0.053091027 0.69557154
-0.11241753 -0.053488385 0.69680005
-0.10753715 -0.05244191 0.69700003
-0.10236583 -0.052327726 0.69744444
-0.097137049 -0.052442431 0.69700003
-0.092707731 -0.052389629 0.69630009
-0.08720725 -0.052616954 0.69580007
-0.082164854 -0.052348346 0.69575012
-0.077387862 -0.052864049 0.6960001
-0.072735116 -0.052357506 0.69587511
-0.067465983 -0.052274294 0.69636375
-0.06230858 -0.053029526 0.6960001
-0.057055835 -0.052413452 0.69662505
-0.052165478 -0.051500715 0.69774997
-0.047543056 -0.052191246 0.6972
-0.042468812 -0.052424043 0.69675004
-0.037075661 -0.051966455 0.69655561
-0.032550003 -0.051814765 0.69749999
-0.02788393 -0.051787026 0.69712502
-0.022565359 -0.05176869 0.69687504
-0.017243931 -0.052063696 0.69637507
-0.012620954 -0.051482383 0.69749999
-0.0099714296 -0.05118667 0.69800001
-0.0019942857 -0.051186673 0.69800007
0.0026582542 -0.051617622 0.6978333
0.0075284131 -0.051593181 0.69749999
0.011957619 -0.051150002 0.69749999
0.017505398 -0.051186673 0.69800007
0.022601906 -0.05118667 0.69800001
-0.097300008 -0.049642861 0.69500005
-0.051628575 -0.049642861 0.69500005
-0.048319053 -0.049642861 0.69500005
-0.041700002 -0.049642861 0.69500005
-0.039052382 -0.049642861 0.69500005
-0.032433338 -0.049642861 0.69500005
-0.027138097 -0.049642861 0.69500005
-0.024490478 -0.049642861 0.69500005
-0.01522381 -0.049642861 0.69500005
-0.012576192 -0.049642861 0.69500005
-0.0079735722 -0.049839288 0.69774997
-0.0022138096 -0.04933254 0.69683337
0.0026516668 -0.049069762 0.69625008
0.0079657147 -0.049785718 0.69700003
0.012625081 -0.049833339 0.69766665
0.017259048 -0.049785718 0.69700003
0.022953717 -0.049492385 0.69660008
0.027843609 -0.048016805 0.69607151
-0.17074645 -0.0023188095 0.69625002
-0.16748612 -0.0018548571 0.69620007
-0.16327669 -0.0018207142 0.69550008
-0.15885715 -0.00066190481 0.69500005
-0.16619048 0.00066476193 0.69800001
-0.16247645 0.0009969048 0.69774997
-0.1575228 0.0021023017 0.69641674
-0.15296343 0.0038787755 0.69528586
-0.14760478 0.0046333335 0.69500005
-0.14429525 0.0046333335 0.69500005
-0.1525169 0.0065489803 0.69757152
-0.14792429 0.0066341273 0.69650006
-0.14276405 0.0079084998 0.69623083
-0.13782406 0.008946429 0.69575006
-0.13251884 0.0090614827 0.6961112
-0.12726858 0.0092809526 0.6960001
-0.12271714 0.0093990481 0.69500011
-0.13760573 0.011300954 0.69800007
-0.1326253 0.012178096 0.69744444
-0.12766711 0.012183704 0.69777775
-0.12210635 0.012469736 0.69722223
-0.11812493 0.012806827 0.69550008
-0.11384763 0.013900001 0.69500005
-0.11659925 0.01608724 0.69800001
-0.11233845 0.017065197 0.69645458
-0.10707559 0.017996797 0.69518197
-0.10220858 0.018388573 0.69575006
-0.098403186 0.018312704 0.69500011
-0.1108562 0.020578096 0.69700003
-0.1076531 0.020600239 0.69774997
-0.10233644 0.020600239 0.69774997
-0.09715303 0.022058416 0.69711113
-0.093087479 0.022776194 0.69650006
-0.087403581 0.023837382 0.69525009
-0.091737151 0.025925716 0.69800001
-0.087526999 0.025925716 0.69800007
-0.081793249 0.027186148 0.69618189
-0.077586956 0.028517241 0.69630003
-0.07264477 0.029078234 0.69614297
-0.067826532 0.029230617 0.69528586
-0.06221905 0.029785717 0.69500005
-0.07844191 0.031243812 0.69800001
-0.071129531 0.031243812 0.69800001
-0.067358576 0.032417815 0.69749999
-0.062346112 0.032501195 0.69641674
-0.057386477 0.032604571 0.69580007
-0.053043075 0.032591216 0.69522232
-0.048980955 0.033757146 0.69500005
-0.055760004 0.035181906 0.69700003
-0.052220572 0.035744004 0.69760007
-0.047601305 0.036380865 0.69681823
-0.042106114 0.036803734 0.69625014
-0.037133332 0.037135959 0.69624996
-0.032508004 0.037154287 0.69660008
-0.027906671 0.037191868 0.69618195
-0.022741061 0.038194392 0.69544452
-0.016988892 0.039052382 0.69500005
-0.012576192 0.039052382 0.69500005
-0.0079428572 0.039052382 0.69500005
-0.0046333335 0.039052382 0.69500005
-0.026571907 0.040521428 0.69749999
-0.022574645 0.041164171 0.69712502
-0.017031007 0.041365188 0.69677782
-0.012425034 0.041449528 0.6971429
-0.0079695247 0.041840639 0.69733334
-0.0026015386 0.042285647 0.69623083
0.0019897618 0.043434054 0.69625002
0.0077323816 0.043374714 0.695889
0.012245239 0.044016667 0.69500005
0.01522381 0.044347622 0.69500005
-0.00066476193 0.045868576 0.69800001
0.0026590477 0.045868576 0.69800001
0.0084179379 0.046300799 0.6978333
0.012620212 0.047161169 0.69744444
0.016702771 0.047578104 0.69645464
-0.16158478 -0.061013337 0.70400012
-0.15823239 -0.061013337 0.70400006
-0.15085715 -0.061013337 0.70400006
-0.1495162 -0.061013337 0.70400006
-0.1213562 -0.061013337 0.70400006
-0.11062858 -0.061013337 0.70400006
-0.10723881 -0.060991671 0.70375007
-0.10253429 -0.060984448 0.70366669
-0.097432397 -0.061246861 0.70360005
-0.092392117 -0.061563272 0.70371431
-0.087832391 -0.061013337 0.70400006
-0.083809532 -0.061013337 0.70400006
-0.067271113 -0.061013337 0.70400012
-0.063695244 -0.061013337 0.70400006
-0.056990482 -0.061013337 0.70400012
-0.052297145 -0.061013337 0.70400006
-0.047603812 -0.061013337 0.70400012
-0.042686991 -0.061013337 0.70400012
-0.16216621 -0.05837629 0.70130008
-0.15747741 -0.058000356 0.70145464
-0.15234406 -0.05813358 0.70158333
-0.14768383 -0.058807939 0.70166671
-0.14221363 -0.05912191 0.70200008
-0.13726486 -0.058143139 0.70170009
-0.13226661 -0.057981905 0.70223093
-0.12745881 -0.057381831 0.70191669
-0.12259669 -0.057578165 0.7017858
-0.11738206 -0.057500135 0.70200008
-0.1122291 -0.057388064 0.70226687
-0.10764033 -0.057498418 0.70200008
-0.10284952 -0.057437148 0.70125008
-0.097481608 -0.057422202 0.7010625
-0.092541248 -0.057808504 0.70138466
-0.087386295 -0.057622865 0.70186675
-0.08255668 -0.057268504 0.70150006
-0.077442423 -0.057994515 0.70238471
-0.072106101 -0.057393339 0.70233345
-0.067501672 -0.057479605 0.70175004
-0.062882058 -0.057949599 0.70184624
-0.057390925 -0.057661019 0.70233345
-0.052163035 -0.057514824 0.7021876
-0.047451831 -0.057479613 0.70175004
-0.042735245 -0.057427742 0.70112509
-0.037583817 -0.057382669 0.70220011
-0.032502126 -0.057330117 0.70307708
-0.027424607 -0.057527151 0.70233339
-0.022638164 -0.057218716 0.70207149
-0.017846907 -0.057113886 0.70275009
-0.011872469 -0.056803387 0.70318192
-0.007368254 -0.056937147 0.70333338
-0.0028696605 -0.057293475 0.70300013
0.0021757144 -0.056388337 0.70275003
0.0073700007 -0.056280479 0.70350003
0.012062501 -0.056290358 0.70362502
0.016761906 -0.05564953 0.70400012
0.024137145 -0.055649526 0.70400006
0.026148573 -0.055649526 0.70400006
-0.10733335 -0.054000005 0.70000005
-0.10133334 -0.054000005 0.70000005
-0.099333338 -0.054000005 0.70000005
-0.070666671 -0.054000005 0.70000005
-0.056000005 -0.054000005 0.70000005
-0.052457303 -0.053568419 0.7001667
-0.048666671 -0.054000005 0.70000005
-0.03755556 -0.054000005 0.70000005
-0.032666668 -0.054000005 0.70000005
-0.028000003 -0.054000005 0.70000005
-0.022666669 -0.054000005 0.70000005
-0.017111113 -0.054000005 0.70000005
-0.01191456 -0.05347266 0.70057148
-0.0073395767 -0.052709527 0.70055562
-0.0028904765 -0.053136829 0.70033342
0.0026677779 -0.053568419 0.7001667
0.0076723816 -0.053705242 0.70050001
0.012245293 -0.053213552 0.70133334
0.017303282 -0.053247415 0.70177788
0.022718478 -0.053056002 0.70160002
0.027394498 -0.052785613 0.70155561
0.030042859 -0.052074291 0.70100003
-0.17266668 -0.00066666672 0.70000005
-0.17633525 0.0046933335 0.70400006
-0.17232412 0.0026732741 0.70131254
-0.1675384 0.0030686671 0.70030004
-0.16311982 0.0036049529 0.70080012
-0.15866667 0.004666667 0.70000005
-0.17621002 0.0067004766 0.70350003
-0.17286658 0.0069209528 0.70322227
-0.16741037 0.0066970252 0.703125
-0.16286787 0.0063673817 0.70375001
-0.15745927 0.0071949214 0.70088893
-0.15210953 0.0086728577 0.70050001
-0.14747429 0.0086749215 0.70066667
-0.17432383 0.010057144 0.70400006
-0.15154406 0.011196191 0.7017501
-0.14733669 0.011936351 0.70266676
-0.14274356 0.01232762 0.70127273
-0.13764749 0.01343143 0.70014292
-0.13222224 0.014000001 0.70000005
-0.12666667 0.014000001 0.70000005
-0.12400001 0.014000001 0.70000005
-0.14147049 0.015867939 0.70400012
-0.13727123 0.016426349 0.70233339
-0.13193165 0.017064152 0.70064288
-0.12742414 0.017346511 0.70050013
-0.12272161 0.017341848 0.7003125
-0.11775001 0.018136097 0.70010006
-0.11400001 0.019333335 0.70000005
-0.12720953 0.020755239 0.70300001
-0.12173652 0.021405717 0.70233339
-0.1172081 0.021570716 0.70225006
-0.11231938 0.022734288 0.70200008
-0.10753801 0.023379471 0.70133334
-0.10274032 0.023350637 0.70050001
-0.098333336 0.024333335 0.70000005
-0.1067535 0.027023654 0.70350003
-0.10263133 0.027299145 0.7025001
-0.097508512 0.027383253 0.70125002
-0.0924109 0.027835876 0.70144451
-0.087595381 0.027737418 0.70057148
-0.084000006 0.028666668 0.70000005
-0.10526477 0.03017143 0.70400006
-0.10258286 0.03017143 0.70400012
-0.097699814 0.030690668 0.70360005
-0.091184773 0.030841906 0.70400006
-0.08723221 0.031837922 0.70309097
-0.082612976 0.031988792 0.7008462
-0.077176005 0.032981526 0.70100015
-0.072360672 0.032976668 0.70090002
-0.071070477 0.035535239 0.70400006
-0.067542076 0.036112543 0.70216674
-0.062458497 0.036854684 0.70141667
-0.057612456 0.037678301 0.70107156
-0.052263815 0.038475446 0.70055562
-0.047333341 0.039333336 0.70000005
-0.043333337 0.039333336 0.70000005
-0.034000002 0.039333336 0.70000005
-0.029333334 0.039333336 0.70000005
-0.056937151 0.040860321 0.70333338
-0.052024134 0.041307304 0.70333338
-0.047496002 0.041342098 0.70240003
-0.042824369 0.042157065 0.70258343
-0.037341084 0.042698044 0.70266676
-0.032082681 0.042779587 0.70181257
-0.027502382 0.043123148 0.70090008
-0.022678692 0.044023938 0.70037496
-0.017633472 0.044131435 0.70057148
-0.01244778 0.04423286 0.7001667
-0.0073333336 0.04466667 0.70000005
-0.0040000002 0.04466667 0.70000005
-0.031501669 0.046581671 0.70375001
-0.027264493 0.047163542 0.70314294
-0.022584241 0.047421306 0.70309097
-0.017409448 0.047542624 0.7030834
-0.01203762 0.047481112 0.70216674
-0.007350794 0.047447305 0.70166671
-0.002854113 0.047548316 0.70136374
0.0026689288 0.048060596 0.7008751
0.0070704767 0.048161145 0.70040005
0.010000001 0.048666671 0.70000005
-0.0020114286 0.050285719 0.70400006
0.0031265083 0.050696991 0.70350003
0.0073700002 0.050920483 0.70350003
0.012271536 0.051100109 0.70288891
0.016541362 0.05191661 0.70271438
-0.15576001 -0.065405719 0.708
-0.1517143 -0.065405719 0.70800006
-0.11125715 -0.065405719 0.708
-0.085634291 -0.065405719 0.708
-0.083611436 -0.065405719 0.708
-0.069451436 -0.065405719 0.708
-0.060685717 -0.065405719 0.708
-0.057314292 -0.065405719 0.70800006
-0.053942859 -0.065405719 0.708
-0.033040002 -0.065405719 0.708
-0.16182001 -0.063088574 0.70620006
-0.15681398 -0.062682547 0.70600003
-0.15250467 -0.06284181 0.70611113
-0.14776921 -0.062413026 0.70633334
-0.14264452 -0.061903816 0.70650005
-0.13751873 -0.062592387 0.70666665
-0.13305588 -0.062084451 0.70599997
-0.12771767 -0.062104132 0.70622212
-0.12229019 -0.062559724 0.70630008
-0.11746363 -0.062703431 0.70640004
-0.11292743 -0.062515251 0.70580006
-0.10803049 -0.062980957 0.70600003
-0.10227887 -0.062765725 0.70559996
-0.096888579 -0.063250005 0.70650005
-0.092201911 -0.063488893 0.70666665
-0.087250486 -0.062783808 0.7058
-0.082064293 -0.062828287 0.70629996
-0.07764715 -0.062443148 0.70649999
-0.072685726 -0.06259238 0.70666671
-0.067174077 -0.062991016 0.70611107
-0.062374644 -0.062712505 0.70612496
-0.058039475 -0.062970906 0.70588887
-0.052734155 -0.063108847 0.70600009
-0.047254484 -0.062872007 0.70679998
-0.042725716 -0.062240005 0.70649999
-0.037394475 -0.062281717 0.70620006
-0.032270402 -0.062525794 0.70591664
-0.027759733 -0.062148578 0.70600003
-0.022860955 -0.061860006 0.70599997
-0.017499048 -0.061925486 0.70675004
-0.012416327 -0.061888441 0.70742857
-0.007075239 -0.061653815 0.70749998
-0.003099429 -0.061595052 0.70760006
0.002697143 -0.061360005 0.708
0.0074171438 -0.061360009 0.70800006
0.010114286 -0.061360005 0.708
0.01753143 -0.060011432 0.708
0.022925718 -0.060011432 0.708
0.027645718 -0.060011432 0.70800006
0.030342858 -0.060011432 0.708
-0.12690002 -0.059757147 0.70500004
-0.1148143 -0.059757147 0.70500004
-0.074528575 -0.059757147 0.70500004
-0.035585716 -0.059757147 0.70500004
-0.030661907 -0.058861911 0.7050001
-0.023500001 -0.059757147 0.70500004
-0.016137145 -0.059170477 0.70599997
-0.012496572 -0.05952248 0.70539999
-0.0073857149 -0.059757151 0.7050001
-0.0013428573 -0.059757147 0.70500004
0.0031947624 -0.059023336 0.70624995
0.0073990482 -0.059198096 0.70633334
0.012099287 -0.059149284 0.70574999
0.01771524 -0.057628263 0.70633334
0.022611812 -0.057471056 0.70660001
0.02776012 -0.057372507 0.70662498
0.030848002 -0.057520386 0.70719999
0.030214287 -0.054385718 0.70500004
-0.17591429 0.0087285722 0.70500004
-0.17188573 0.0087285722 0.70500004
-0.16785716 0.0087285722 0.70500004
-0.16294096 0.0082933344 0.70600003
-0.15912858 0.0087285722 0.70500004
-0.17524287 0.011414287 0.70500004
-0.1718486 0.011297462 0.70700002
-0.16749464 0.011567014 0.70681816
-0.1625001 0.011699742 0.7074545
-0.15735197 0.012105774 0.70606244
-0.15275002 0.013764287 0.70500004
-0.14905715 0.014100001 0.70500004
-0.1574305 0.016080003 0.70771438
-0.15237516 0.017180877 0.70741665
-0.14754434 0.016953165 0.70681828
-0.14298274 0.018056508 0.70649999
-0.13807715 0.019149525 0.70550001
-0.13428572 0.019471429 0.70500004
-0.14160001 0.020902859 0.708
-0.13697498 0.022494189 0.70710003
-0.13261695 0.022735609 0.70684618
-0.12776642 0.023448139 0.70709091
-0.12263662 0.023990264 0.70622224
-0.11783601 0.024319811 0.70539999
-0.11414286 0.024842858 0.70500004
-0.12179168 0.027457859 0.70749998
-0.11728338 0.027715586 0.70663637
-0.11246153 0.027410287 0.70539999
-0.10836858 0.028334288 0.70500004
-0.12137143 0.030342858 0.708
-0.11712458 0.031404573 0.70760006
-0.11255271 0.031677146 0.7076667
-0.10783421 0.031746063 0.70645446
-0.10197591 0.032693047 0.70629996
-0.097226672 0.033108149 0.70622224
-0.093094036 0.032581646 0.70600003
-0.088041596 0.034275241 0.70566672
-0.091702864 0.035737146 0.708
-0.087595239 0.036386192 0.70749998
-0.083112001 0.036236193 0.70719999
-0.076874927 0.03653397 0.70600003
-0.072809398 0.037943136 0.70599997
-0.067214049 0.038985003 0.70574999
-0.063114285 0.03961429 0.70500004
-0.072418295 0.041401148 0.708
-0.067099199 0.041684493 0.70757145
-0.062359143 0.042562194 0.70709991
-0.057845481 0.042712152 0.70625007
-0.052595243 0.043195244 0.70500004
-0.047402862 0.04364286 0.70500004
-0.042971432 0.044985719 0.70500004
-0.03961429 0.044985719 0.70500004
-0.063382864 0.045177147 0.708
-0.057044573 0.045716576 0.708
-0.052220475 0.046605714 0.70749998
-0.047325715 0.04742191 0.70699996
-0.042407095 0.04779207 0.70677769
-0.037609369 0.047683023 0.7051667
-0.032564286 0.048175003 0.70499998
-0.028200001 0.049014289 0.70500004
-0.024842858 0.049014289 0.70500004
-0.045177147 0.05057143 0.708
-0.027645718 0.050571434 0.70800006
-0.0074057942 0.05251611 0.70691669
0.011803675 0.053832252 0.70528579
-0.16116001 -0.070040002 0.71400005
-0.15640001 -0.070040002 0.71400005
-0.15209335 -0.070040002 0.71400011
-0.14756003 -0.070040002 0.71400011
-0.1428 -0.070040002 0.71400005
-0.13668001 -0.070040002 0.71400011
-0.13260001 -0.070040002 0.71400011
-0.12806669 -0.070040002 0.71400011
-0.12240001 -0.070720002 0.71400005
-0.11764 -0.070040002 0.71400005
-0.11492001 -0.070040002 0.71400005
-0.10200001 -0.070040002 0.71400005
-0.097920008 -0.070040002 0.71400005
-0.093840003 -0.070040002 0.71400005
-0.032640003 -0.070040002 0.71400005
-0.027200002 -0.070040002 0.71400005
-0.022100002 -0.070380002 0.71400005
-0.019720001 -0.070720002 0.71400005
-0.011720833 -0.071506783 0.71337509
-0.0079257153 -0.070880011 0.71333337
-0.0027200002 -0.070040002 0.71400005
-0.1614494 -0.066844769 0.71100008
-0.15773304 -0.067795724 0.71183342
-0.15251666 -0.067617863 0.71175003
-0.14750712 -0.066949703 0.71136373
-0.14251204 -0.067221828 0.71163636
-0.13765264 -0.067304701 0.71141672
-0.13265283 -0.066975594 0.71163648
-0.1275261 -0.067156747 0.71225011
-0.12242477 -0.067713976 0.71216679
-0.1176251 -0.067166999 0.71116674
-0.11250979 -0.067188062 0.71127278
-0.10781705 -0.067075878 0.71300012
-0.10265493 -0.066904023 0.71277791
-0.097577475 -0.067085892 0.71150011
-0.092440791 -0.067282341 0.71227282
-0.087829739 -0.067060009 0.71122223
-0.082409903 -0.067366861 0.71160007
-0.077284291 -0.067118265 0.71183342
-0.072533973 -0.067112803 0.71177793
-0.067560151 -0.066591434 0.71242863
-0.062430792 -0.067252383 0.7116667
-0.056918576 -0.067763343 0.71150005
-0.052577961 -0.066911571 0.71171439
-0.047722545 -0.066722542 0.71244448
-0.042392798 -0.066644222 0.71300006
-0.03758724 -0.067035615 0.71240014
-0.032466587 -0.067213774 0.71154553
-0.027129209 -0.067148745 0.71216673
-0.022393968 -0.067185082 0.71255571
-0.017882966 -0.066784129 0.71311122
-0.01189254 -0.067386031 0.71350014
-0.0074695251 -0.067719571 0.71300012
-0.0029028577 -0.067145459 0.71345472
0.0023104765 -0.066195056 0.7136001
0.0074757147 -0.065913811 0.71350002
0.012240001 -0.066639997 0.71400011
0.017755559 -0.066866666 0.71400011
0.022100002 -0.066300005 0.71400005
0.025840003 -0.065960005 0.71400005
-0.16025716 -0.064238101 0.71000004
-0.14605716 -0.064238101 0.71000004
-0.1426762 -0.064238101 0.71000004
-0.13997144 -0.064238101 0.71000004
-0.13230795 -0.064238101 0.71000004
-0.12689842 -0.064238101 0.71000004
-0.10683811 -0.064238101 0.71000004
-0.10255557 -0.064238101 0.71000004
-0.098723814 -0.064238101 0.71000004
-0.093990482 -0.064238101 0.71000004
-0.050714288 -0.064238101 0.71000004
-0.047107942 -0.064238101 0.71000004
-0.042600002 -0.064238101 0.71000004
-0.039219052 -0.064238101 0.71000004
-0.026371431 -0.064238101 0.71000004
-0.022334605 -0.064298421 0.71066666
-0.017622143 -0.064396434 0.71175003
-0.011806859 -0.064184763 0.71240008
-0.0077274293 -0.063859999 0.71180004
-0.0024214969 -0.063813604 0.71171439
0.0027104763 -0.063697614 0.71150005
0.00745381 -0.063697621 0.71150005
0.012381302 -0.063139737 0.71145457
0.01764008 -0.063101828 0.71241677
0.022356192 -0.063005716 0.71133339
0.026814098 -0.062704951 0.71100003
0.030893654 -0.061562862 0.71033335
-0.17513335 0.01284762 0.71000004
-0.17288812 0.013871906 0.7105
-0.16679859 0.013871906 0.7105
-0.16363811 0.014200001 0.71000004
-0.1727064 0.01778828 0.71200007
-0.16775833 0.01768392 0.71247071
-0.16237584 0.017556924 0.71107703
-0.15766335 0.018947143 0.71050012
-0.15304446 0.019609526 0.71000004
-0.14876191 0.019609526 0.71000004
-0.17247811 0.021050477 0.71300006
-0.16750669 0.021080002 0.71400011
-0.16229239 0.021050479 0.71300006
-0.15673403 0.021810208 0.71242869
-0.15221395 0.02252182 0.71263647
-0.14745925 0.022249525 0.71220011
-0.14309961 0.022737961 0.7111429
-0.13997144 0.022990478 0.71000004
-0.15096001 0.025160002 0.71400005
-0.14747734 0.025689906 0.7136001
-0.14241874 0.026039049 0.71322232
-0.13724771 0.027204422 0.71245468
-0.13246286 0.027405892 0.71127278
-0.12722851 0.027747225 0.71058339
-0.12391715 0.029117145 0.71100003
-0.13532001 0.030600002 0.71400005
-0.13250779 0.031258255 0.71350014
-0.12753084 0.032320213 0.71335727
-0.1228379 0.032947432 0.71180004
-0.11793812 0.034051113 0.71033335
-0.11236405 0.034522146 0.71075004
-0.10766572 0.034534287 0.71100008
-0.10413334 0.034485716 0.71000004
-0.11753081 0.036006354 0.71333337
-0.11226889 0.036442861 0.71300006
-0.10751638 0.037485715 0.71327287
-0.1027643 0.03719705 0.71270007
-0.09762191 0.037288096 0.71183342
-0.092214189 0.038186193 0.71090001
-0.087310806 0.039256196 0.71066666
-0.082127973 0.038573164 0.71054548
-0.078231275 0.039002702 0.71016669
-0.10676001 0.040120002 0.71400011
-0.10268001 0.040800005 0.71400011
-0.097817861 0.040077861 0.71325004
-0.092091732 0.041971337 0.71310014
-0.087488368 0.04272794 0.71211112
-0.082670003 0.042690959 0.71150005
-0.077320434 0.042750392 0.71045458
-0.072664 0.043436196 0.71040004
-0.068024769 0.043681908 0.71000004
-0.062079053 0.047672253 0.71071428
-0.057704091 0.048425719 0.7104286
-0.053757146 0.049023814 0.71000004
-0.092442863 -0.076008573 0.71900004
-0.065052383 -0.077378102 0.71900004
-0.063682862 -0.076693341 0.71900004
-0.056835245 -0.076008573 0.71900004
-0.052726671 -0.076008573 0.71900004
-0.037661906 -0.076008573 0.71900004
-0.0342381 -0.076008573 0.71900004
-0.16035953 -0.072332859 0.71650004
-0.15715177 -0.072994292 0.71777779
-0.15270704 -0.072722778 0.71727276
-0.14782214 -0.072630957 0.71775001
-0.14239334 -0.072451442 0.71766675
-0.13766727 -0.072592981 0.71737504
-0.1323723 -0.072989441 0.71745461
-0.12752624 -0.07298997 0.71745461
-0.12270477 -0.073230065 0.71711111
-0.11748363 -0.072814487 0.71719998
-0.1124761 -0.071888678 0.71750003
-0.10773205 -0.071595773 0.71718186
-0.10268773 -0.07217896 0.71722227
-0.0972206 -0.072960362 0.71762502
-0.092520379 -0.072557881 0.71715397
-0.087637596 -0.071973421 0.71761537
-0.082366131 -0.071424633 0.71814293
-0.077897675 -0.071223818 0.7167778
-0.072432145 -0.071067631 0.71750003
-0.067531124 -0.071410798 0.71866673
-0.062615409 -0.071944252 0.71818179
-0.057113755 -0.072344355 0.71757144
-0.052616671 -0.072434776 0.71749997
-0.047836732 -0.072441146 0.7175625
-0.042396195 -0.07248573 0.71799999
-0.037575237 -0.072418734 0.71733332
-0.032943379 -0.072896294 0.71654552
-0.027032385 -0.072773717 0.71680003
-0.022507779 -0.072753817 0.71616673
-0.01762032 -0.072185561 0.71616668
-0.014320001 -0.071600005 0.71600002
-0.00068285718 -0.070334293 0.71700001
0.0027380956 -0.070432387 0.71800005
-0.10637715 -0.068872385 0.71600002
-0.10433143 -0.068872385 0.71600002
-0.070236199 -0.068872385 0.71600002
-0.067539379 -0.068904452 0.71633339
-0.064780958 -0.068872385 0.71600002
-0.059325717 -0.068872385 0.71600002
-0.051824763 -0.068872385 0.71600002
-0.047051437 -0.068872385 0.71600002
