# .PCD v0.7 - Point Cloud Data file format
VERSION 0.7
FIELDS x y z
SIZE 4 4 4
TYPE F F F
COUNT 1 1 1
WIDTH 1328
HEIGHT 1
VIEWPOINT 0 0 0 1 0 0 0
POINTS 1328
DATA ascii
-0.074057147 -0.013577144 0.648
-0.15712458 -0.0060480009 0.648
-0.15299192 -0.0061692861 0.64775002
-0.14747421 -0.0061705718 0.64789999
-0.14176653 -0.0071412264 0.64799994
-0.13739844 -0.0067885718 0.64799994
-0.13182174 -0.0065417141 0.64799994
-0.12699501 -0.0075284466 0.6479333
-0.12404572 -0.0080228578 0.648
-0.11910858 -0.0067885718 0.648
-0.10553144 -0.0080228578 0.648
-0.10368 -0.0086400006 0.648
-0.098125719 -0.0092571434 0.648
-0.092262864 -0.008948572 0.648
-0.15685248 -0.0026717461 0.64755559
-0.15294793 -0.0024660118 0.64756244
-0.14799088 -0.0029211428 0.64799994
-0.14231315 -0.004073143 0.648
-0.13762286 -0.0040114289 0.648
-0.13206857 -0.0043200003 0.648
-0.050374288 -0.020522859 0.65300006
-0.036692385 -0.020522859 0.65300006
-0.032339048 -0.021144763 0.65300006
-0.027736956 -0.020771621 0.65300006
-0.021973971 -0.020937463 0.65300012
-0.019030288 -0.02201543 0.65300006
-0.10572381 -0.01554762 0.65300006
-0.10074858 -0.01554762 0.65300006
-0.096943341 -0.015535715 0.65250003
-0.091970481 -0.015535716 0.65250003
-0.086497843 -0.016893333 0.65254545
-0.08223211 -0.017565716 0.65200007
-0.077735983 -0.016942862 0.65138465
-0.072219893 -0.016990835 0.65162504
-0.067127153 -0.017404169 0.65262502
-0.062113397 -0.017392678 0.65218759
-0.057045303 -0.017363157 0.65106261
-0.052114822 -0.017372204 0.65143758
-0.047205657 -0.017391488 0.65218759
-0.042249523 -0.017396785 0.6523751
-0.037250239 -0.017383099 0.65187508
-0.032316487 -0.017401488 0.65256256
-0.028123919 -0.01803524 0.65300006
-0.022388574 -0.018657144 0.65300006
-0.018864445 -0.018864445 0.65300006
-0.15174478 -0.010572381 0.65300006
-0.14791201 -0.010804954 0.65200007
-0.14254645 -0.010535954 0.65075004
-0.13713893 -0.011259729 0.65157151
-0.13268001 -0.011781271 0.65100002
-0.12751158 -0.011879928 0.65115386
-0.1224547 -0.011791985 0.65158337
-0.11741298 -0.011987035 0.65176922
-0.11248841 -0.012372446 0.65160006
-0.10765191 -0.012411905 0.65149993
-0.10282769 -0.012281652 0.6512
-0.098057091 -0.012824249 0.6506924
-0.092749752 -0.013115018 0.65092319
-0.087754704 -0.012398233 0.65085721
-0.083032854 -0.0123925 0.65062493
-0.077966936 -0.012258222 0.65006673
-0.072045483 -0.012085715 0.65075004
-0.067101322 -0.012426192 0.65237504
-0.062083691 -0.012416429 0.65187508
-0.057071552 -0.012405833 0.651375
-0.052305277 -0.012547556 0.65226668
-0.047427882 -0.013171082 0.6529091
-0.042200681 -0.01377075 0.65300012
-0.037307505 -0.013679168 0.65287507
-0.033209719 -0.013806286 0.65300006
-0.15745687 -0.0084272129 0.65200007
-0.15275525 -0.0086938106 0.65200001
-0.14744739 -0.0086738104 0.65050006
-0.14361906 -0.0092857145 0.65000004
-0.13656192 -0.0087904772 0.65000004
-0.1328889 -0.0088730166 0.6500001
-0.12938096 -0.0055714292 0.65000004
-0.12218588 -0.0072879856 0.65023088
-0.11753125 -0.0074715563 0.65020007
-0.11273157 -0.0074317865 0.65037495
-0.10824484 -0.0072909896 0.65061539
-0.10229958 -0.0069136266 0.65100002
-0.097472511 -0.0072870245 0.65137494
-0.092530228 -0.0069333343 0.65127277
-0.08745531 -0.0074413237 0.65127784
-0.082490556 -0.0078800004 0.65200001
-0.077302054 -0.0079772798 0.65157151
-0.072024405 -0.0078850565 0.65238464
-0.067290105 -0.0075872387 0.65300006
-0.062439241 -0.0083335256 0.65300006
-0.057837151 -0.0093285721 0.65300006
-0.054105718 -0.0093285721 0.65300006
-0.14646669 -0.0011142859 0.65000004
-0.14227161 -0.0017448484 0.65027285
-0.13731025 -0.0019608731 0.65041673
-0.13268001 -0.0018587302 0.65100002
-0.12774512 -0.0024784529 0.65112507
-0.12268745 -0.0023711489 0.65158826
-0.11779696 -0.0026900324 0.65213341
-0.11248463 -0.0029153847 0.65253848
-0.10761204 -0.0035583554 0.65245456
-0.10199238 -0.0033582859 0.65300006
-0.097141534 -0.0026120003 0.65300006
-0.09204191 -0.0031095245 0.653
-0.087066673 -0.0037314286 0.65300006
-0.083957151 -0.0043533337 0.65300006
-0.068409532 -0.0043533337 0.65300006
-0.15675947 0.0024797623 0.65058339
-0.15246144 0.0024807141 0.65074998
-0.14774376 0.0024848215 0.65181249
-0.14277782 0.0024847025 0.65181249
-0.13785084 0.0024852382 0.65200001
-0.13344012 0.0017412383 0.65290004
-0.12702405 0.0010883333 0.65300006
-0.12230795 0.001036508 0.65300012
-0.096395247 0.00062190479 0.65300006
-0.1575423 0.0072123818 0.65280002
-0.15315431 0.0061265319 0.65257144
-0.14925715 0.0055971434 0.65300006
-0.14241619 0.0055971434 0.65300006
-0.13868478 0.0055971434 0.65300006
-0.13495333 0.0055971434 0.65300006
-0.15796381 0.010572381 0.65300006
-0.051386669 -0.025693335 0.65800005
-0.047626667 -0.025693335 0.65800005
-0.042613335 -0.025693335 0.65800005
-0.037808891 -0.025693335 0.65800011
-0.032304496 -0.026219321 0.65771431
-0.027976511 -0.026098099 0.65766668
-0.022131432 -0.026098095 0.65766674
-0.017531905 -0.02567381 0.65750003
-0.01128 -0.025693335 0.65800005
-0.0075200005 -0.025693335 0.65800005
-0.0028813337 -0.025936192 0.65780002
0.0022977781 -0.025693335 0.65800011
0.0079864291 -0.026466668 0.65775007
0.01227762 -0.026684096 0.65770006
0.016293334 -0.026319999 0.65800005
-0.092120007 -0.020680001 0.65800005
-0.087305151 -0.020918097 0.65760005
-0.082615726 -0.021071589 0.65716672
-0.077647626 -0.021290952 0.65750003
-0.072822772 -0.021647334 0.65690005
-0.067110322 -0.021258255 0.65650004
-0.062523976 -0.021885082 0.6565001
-0.057492387 -0.021873495 0.65616673
-0.05265893 -0.022641018 0.65666676
-0.047504343 -0.022503633 0.65631258
-0.042511966 -0.022508038 0.65643752
-0.037647624 -0.022936264 0.65630776
-0.032494407 -0.023746073 0.65612501
-0.027341995 -0.023250392 0.65654558
-0.022731716 -0.023356095 0.65570009
-0.016752642 -0.022660173 0.65590924
-0.012508692 -0.022518452 0.65674996
-0.0075041065 -0.022511132 0.65656251
-0.0025001192 -0.022510005 0.65650004
0.0025034526 -0.022526786 0.65700001
0.0075106556 -0.022532202 0.65718746
0.012528039 -0.022548867 0.65768749
0.01692 -0.022810668 0.65800005
0.021306667 -0.023186669 0.65800005
0.025693335 -0.024440002 0.65800005
-0.15854667 -0.015666667 0.65800005
-0.14225334 -0.015666667 0.65800011
-0.13786668 -0.015666667 0.65800005
-0.13261065 -0.016080476 0.6578334
-0.12752815 -0.016788227 0.65727276
-0.12267409 -0.016491642 0.65755558
-0.11750509 -0.016488995 0.65744448
-0.11260033 -0.016891588 0.65683341
-0.10772505 -0.017122192 0.65610003
-0.10264255 -0.017508417 0.6565001
-0.097561598 -0.018137936 0.65666676
-0.092476748 -0.018121669 0.65608346
-0.088537909 -0.01860686 0.65560001
-0.077144459 -0.019338097 0.65500009
-0.073609531 -0.019338097 0.65500003
-0.026478779 -0.01667143 0.65528578
-0.022474287 -0.016230954 0.65550005
-0.017154505 -0.017153334 0.65592313
-0.012505894 -0.01750649 0.65656251
-0.0075061913 -0.017512141 0.65675002
-0.0025034526 -0.017525 0.65724999
0.002191667 -0.018051986 0.6574167
0.0065800007 -0.019113334 0.65800005
0.01128 -0.019426668 0.65800005
-0.15744306 -0.012549586 0.65653336
-0.15271159 -0.012939853 0.65653855
-0.14739552 -0.013246062 0.65654558
-0.14257264 -0.01313246 0.65658343
-0.13813172 -0.013662587 0.65628576
-0.13239881 -0.014364049 0.65575004
-0.12730643 -0.014353096 0.65525001
-0.12231357 -0.014353096 0.65525001
-0.11748414 -0.01434762 0.65500009
-0.050528575 -0.010604762 0.65500003
-0.047049146 -0.010857524 0.65520006
-0.042517148 -0.011443706 0.6554445
-0.037428573 -0.011228573 0.65500003
-0.032067619 -0.011861387 0.65554553
-0.027509883 -0.012503689 0.65650004
-0.022521192 -0.012510952 0.65687501
-0.018315475 -0.013306429 0.65750003
-0.012220001 -0.014100001 0.65800005
-0.0073946672 -0.013912002 0.65800005
-0.081719056 -0.0056142863 0.65500009
-0.076728582 -0.0056142863 0.65500009
-0.072569847 -0.0056142863 0.65500009
-0.065500006 -0.0056142863 0.65500003
-0.062011596 -0.006034445 0.65550005
-0.057340447 -0.0070639574 0.65607703
-0.052408516 -0.0073775244 0.65666676
-0.047554284 -0.0075071445 0.65699995
-0.04255655 -0.0075086914 0.65712494
-0.037695903 -0.0079426374 0.6571539
-0.032566115 -0.0081408732 0.65758336
-0.027559368 -0.008141906 0.65766668
-0.02276889 -0.0085644461 0.65800005
-0.019426668 -0.0087733343 0.65800005
-0.11602858 -0.00062380958 0.65500003
-0.11290954 -0.00062380958 0.65500009
-0.1070509 -0.0011586396 0.65514296
-0.10230478 -0.0010396827 0.65500003
-0.095442861 -0.00062380958 0.65500003
-0.09232381 -0.00062380958 0.65500003
-0.08738298 -0.0012479762 0.65537506
-0.082301147 -0.0023718732 0.65566671
-0.077514172 -0.0024992861 0.65637499
-0.072500005 -0.0024983338 0.65625
-0.067280963 -0.0022296603 0.65585721
-0.062552795 -0.0025013695 0.65681249
-0.057636607 -0.0025056552 0.65781254
-0.05276534 -0.0026320007 0.65800011
-0.047250669 -0.0041360008 0.65800005
-0.043866672 -0.0037600002 0.65800005
-0.13215154 0.0035384132 0.65555567
-0.12761649 0.0035394712 0.65577781
-0.12218448 0.003374191 0.65590006
-0.11746626 0.0025007746 0.65606248
-0.11250001 0.0025016672 0.65625006
-0.10771447 0.0025061308 0.65756255
-0.10261714 0.0025042857 0.65700001
-0.097494677 0.0026249527 0.65593344
-0.092763953 0.0022357826 0.65685719
-0.087536901 0.002380318 0.65746671
-0.082815759 0.0020721615 0.65761548
-0.077933341 0.001629143 0.65780002
-0.072679646 0.0012532143 0.657875
-0.068063498 0.001044127 0.65766668
-0.062290668 0.00087733346 0.65800005
-0.057528008 0.00087733346 0.65800005
-0.053266671 0.0006266667 0.65800005
-0.15595239 0.008733334 0.65500003
-0.15214495 0.0083699059 0.65580004
-0.14743875 0.0076306039 0.65653348
-0.1425966 0.0077700689 0.65628576
-0.13754456 0.0079397075 0.65669239
-0.13261352 0.0075077973 0.65681255
-0.12768187 0.0075120837 0.65718746
-0.12276793 0.007517084 0.65768754
-0.11779535 0.0066418098 0.65790004
-0.11300889 0.0064755557 0.65800005
-0.10866401 0.0061413338 0.65800005
-0.10298222 0.005640001 0.65800011
-0.097741798 0.0062655956 0.65787506
-0.092955559 0.005640001 0.65800011
-0.088986672 0.0056400006 0.65800005
-0.15700096 0.012303175 0.6567778
-0.15281917 0.011273929 0.65762502
-0.14789334 0.011280001 0.65800005
-0.14283949 0.012529941 0.65781248
-0.13812022 0.012352994 0.65792865
-0.13285334 0.010653334 0.65800005
-0.12909335 0.010653334 0.65800005
-0.041042861 -0.030940002 0.66300005
-0.032154288 -0.030893337 0.66200006
-0.027782857 -0.030940002 0.66300005
-0.022731431 -0.030940002 0.66300005
-0.018058859 -0.031192571 0.66300005
-0.0037885716 -0.030940002 0.66300005
0.0088257147 -0.030893335 0.66200006
0.012893471 -0.031467892 0.66271436
0.017670121 -0.031553928 0.66262507
0.022714287 -0.031548098 0.66250008
0.028029528 -0.031454563 0.66242868
0.030916668 -0.031548098 0.66250002
-0.094082862 -0.026520003 0.66300005
-0.082085721 -0.025888573 0.66300005
-0.075771436 -0.025888573 0.66300005
-0.073765717 -0.025849525 0.66200006
-0.067187764 -0.02660463 0.66285723
-0.062817827 -0.026407484 0.66242868
-0.05800429 -0.026480716 0.66200006
-0.053163808 -0.027339239 0.66140008
-0.047648575 -0.027919263 0.66122228
-0.042813256 -0.028333573 0.6610834
-0.037719123 -0.028132893 0.66092312
-0.032949638 -0.028754076 0.66111112
-0.027451146 -0.028586 0.66110009
-0.02293467 -0.028607428 0.66160005
-0.01764347 -0.027998032 0.66164291
-0.012750258 -0.027976191 0.66176921
-0.0073008575 -0.028073812 0.66090006
-0.0023445024 -0.028428312 0.66063643
0.0025662275 -0.028136484 0.66100007
0.007081429 -0.028801672 0.66100007
0.012999525 -0.029146193 0.66050005
0.018023809 -0.028083652 0.66016668
0.022630537 -0.027659941 0.66006243
0.027667619 -0.027668333 0.66024995
0.032070041 -0.027269177 0.66027278
-0.13702002 -0.020837147 0.66300005
-0.1322441 -0.021364901 0.66257155
-0.12711298 -0.02160655 0.66237509
-0.12281439 -0.02208537 0.66254556
-0.11762743 -0.02183486 0.6626001
-0.11233779 -0.021247622 0.66266674
-0.10734287 -0.020837145 0.66300005
-0.10188912 -0.021351432 0.66214293
-0.097044609 -0.022372223 0.66166675
-0.092318796 -0.022969389 0.66200012
-0.087619647 -0.023324644 0.66187501
-0.082383178 -0.023589527 0.66144449
-0.077774428 -0.023827758 0.6608572
-0.072275788 -0.024212655 0.66157144
-0.068046987 -0.023289526 0.66088897
-0.062928334 -0.024542144 0.66075003
-0.057828575 -0.024514288 0.66000003
0.01864762 -0.022209525 0.66000009
0.022810685 -0.022541022 0.66007137
0.027788702 -0.022507049 0.66013336
0.032362349 -0.022977144 0.66030771
-0.16028573 -0.015714286 0.66000003
-0.15714508 -0.01742778 0.66133344
-0.15246001 -0.017011905 0.66149998
-0.1472491 -0.017202785 0.66138458
-0.1423443 -0.018266827 0.66133344
-0.13725342 -0.018259764 0.6610834
-0.13224848 -0.018673442 0.66088891
-0.12663333 -0.019240191 0.66020006
-0.12190533 -0.018955376 0.66028577
-0.11745144 -0.01908635 0.6606667
-0.11188572 -0.019485716 0.66000003
-0.10748573 -0.019485716 0.66000003
-0.10371429 -0.019485716 0.66000003
0.003457143 -0.016028572 0.66000003
0.007859366 -0.017080162 0.66016668
0.012783198 -0.017371634 0.66164291
0.01725697 -0.018287444 0.66218185
0.022701548 -0.018917026 0.66212505
0.027829843 -0.01871598 0.66244447
0.031548098 -0.019559525 0.66250002
-0.016817262 -0.011787738 0.66012502
-0.012682541 -0.012053017 0.66033328
-0.0076072738 -0.011954978 0.66072732
-0.0025188695 -0.012594346 0.66131258
0.0025190478 -0.01259357 0.66125
0.0075673815 -0.012610359 0.66212511
0.011155239 -0.014101906 0.66300005
-0.037122544 -0.0056628576 0.6606667
-0.03273524 -0.0056657149 0.66100001
-0.02769905 -0.0056657149 0.66100001
-0.022388302 -0.0062032663 0.6608572
-0.017376941 -0.0073815649 0.66178584
-0.012618572 -0.0082015879 0.66250008
-0.0077005723 -0.0084582875 0.66280007
-0.0025257147 -0.0090504773 0.66300011
0.0022551022 -0.0089302054 0.66300005
0.0056828577 -0.0094714295 0.66300005
-0.050914288 -0.00062857149 0.66000003
-0.047942862 -0.001771429 0.66000003
-0.042360716 -0.0020961112 0.66058338
-0.037788518 -0.0025180362 0.66131252
-0.032784764 -0.0025204762 0.662
-0.027864195 -0.0026462865 0.66193342
-0.022875153 -0.0032670132 0.66218191
-0.019574286 -0.0037885716 0.66300005
-0.091771439 0.0044000004 0.66000003
-0.089885719 0.0044000004 0.66000003
-0.082342863 0.0044000009 0.66000003
-0.07754302 0.0039820638 0.66016674
-0.072673343 0.003847725 0.66100001
-0.067324296 0.0034054287 0.6619001
-0.062914297 0.003146667 0.66060001
-0.057925459 0.0032601741 0.66045457
-0.052858736 0.0026470481 0.6612668
-0.047934286 0.0025245242 0.66225004
-0.043209054 0.0019985714 0.66233343
-0.03796735 0.0011725172 0.66285723
-0.033781432 0.00094714289 0.66300005
-0.028414287 0.00063142861 0.66300005
-0.12005715 0.0094285719 0.66000003
-0.11733335 0.0090095242 0.66000009
-0.11194918 0.0088053569 0.660375
-0.10694651 0.0081837224 0.66090918
-0.10240616 0.0079906238 0.66092312
-0.096927978 0.0088120243 0.66087496
-0.09224879 0.0079217013 0.6615001
-0.087100446 0.0079023447 0.66161555
-0.082392104 0.0075252098 0.66158831
-0.077240065 0.0075679165 0.66206264
-0.072513856 0.0067074471 0.66209102
-0.068825722 0.006314286 0.66300005
-0.062496033 0.0063128578 0.66283339
-0.057963286 0.0065186247 0.66233343
-0.053019524 0.0063121431 0.66275007
-0.04862 0.0059985719 0.66300005
-0.15625882 0.014148334 0.66025001
-0.15220083 0.013836787 0.660375
-0.14782619 0.013839524 0.66050005
-0.13572802 0.013460191 0.66040009
-0.13208327 0.013208969 0.66041672
-0.1269736 0.012711366 0.6606667
-0.12211554 0.012591129 0.66093761
-0.11723496 0.012607439 0.66181248
-0.11223555 0.012612205 0.66206264
-0.10733988 0.012348165 0.66242862
-0.10224544 0.011739715 0.66270012
-0.097385287 0.011568995 0.66255563
-0.09253905 0.01098362 0.66280007
-0.087137148 0.011155238 0.66300011
-0.082356334 0.01127551 0.66300005
-0.15676564 0.017585889 0.66154557
-0.15251762 0.017648334 0.66175008
-0.14755966 0.017658336 0.66212505
-0.14246596 0.017114207 0.66141677
-0.13766783 0.017390138 0.6622144
-0.13268021 0.017397076 0.66250014
-0.12772383 0.01678629 0.6626001
-0.1228021 0.016028764 0.66260004
-0.11753593 0.016326942 0.66300005
-0.11201543 0.016922286 0.66300005
0.0095571438 -0.03504286 0.66900003
0.01083143 -0.03504286 0.66900003
0.028352858 -0.035998572 0.66900003
0.031080002 -0.037422858 0.66600001
-0.071997151 -0.031220002 0.66900003
-0.067537144 -0.031220002 0.66900003
-0.061484292 -0.031538572 0.66900003
-0.057470288 -0.031474859 0.66900009
-0.052130003 -0.031150002 0.66750008
-0.046776466 -0.031698916 0.6675716
-0.041987762 -0.032196462 0.66657144
-0.03782599 -0.03165837 0.66671437
-0.033392575 -0.032124382 0.66660005
-0.027866667 -0.032300003 0.66500002
-0.022576738 -0.032914966 0.66642857
-0.017782699 -0.033025559 0.66683334
-0.01271012 -0.031780601 0.66737503
-0.0073580965 -0.031691976 0.66742861
-0.0019027214 -0.032175649 0.66614288
0.0025406349 -0.032391589 0.6668334
0.0073640007 -0.032633718 0.66660005
0.012686787 -0.033941075 0.666125
0.017480547 -0.034146942 0.66571426
0.022859287 -0.033655003 0.66675001
0.028017282 -0.033820547 0.66642857
0.031033335 -0.033566669 0.66500002
-0.13634858 -0.026122859 0.66900003
-0.13274877 -0.026601335 0.66820014
-0.12105715 -0.026122859 0.66900003
-0.11722153 -0.026346479 0.66820014
-0.1118843 -0.026382858 0.66750008
-0.10725007 -0.026937673 0.66811115
-0.10251588 -0.026919473 0.66766667
-0.097616881 -0.026607621 0.66742867
-0.0920408 -0.026660478 0.66650009
-0.087559395 -0.027223466 0.6675455
-0.082430571 -0.027786408 0.66718185
-0.077690698 -0.028115608 0.66738468
-0.072261915 -0.028069271 0.66673344
-0.06725882 -0.029189289 0.66624999
-0.062171314 -0.029183455 0.666125
-0.057382595 -0.029280819 0.66628575
-0.051953573 -0.02977786 0.66525
-0.048133336 -0.029766669 0.66500002
-0.013300001 -0.028500002 0.66500002
-0.0088933334 -0.029856192 0.66700006
-0.15683715 -0.021497715 0.66780007
-0.15253335 -0.022246351 0.66733336
-0.14743057 -0.022243731 0.66725004
-0.14246693 -0.022350566 0.667
-0.1373402 -0.023104191 0.66639996
-0.13239291 -0.02391291 0.66655558
-0.12801033 -0.023910953 0.66650003
-0.12216306 -0.024230098 0.66600001
-0.11740749 -0.024283972 0.66516674
-0.11281782 -0.023705048 0.66549999
-0.10778803 -0.023460556 0.66574997
-0.10287968 -0.023872068 0.66544443
-0.098166674 -0.024700001 0.66500008
-0.086133339 -0.024700001 0.66500002
-0.15580001 -0.019633334 0.66500002
-0.15200001 -0.019633334 0.66500002
-0.14820001 -0.019633334 0.66500002
0.018620003 -0.016340001 0.66500002
0.0228 -0.016466668 0.66500002
0.027776193 -0.016376192 0.66500008
0.032975081 -0.017120318 0.66583335
0.013020001 -0.012335899 0.66561538
0.017769346 -0.012689585 0.66631246
0.022864288 -0.012699641 0.66687506
0.02797167 -0.012711549 0.6674999
0.032719236 -0.013494288 0.66840005
0.03563929 -0.012727858 0.66825008
-0.012666668 -0.0057000006 0.66500002
-0.0073941275 -0.0061265081 0.66550004
-0.0025363811 -0.0067201913 0.66580003
0.002747725 -0.0065511116 0.66577774
0.007614559 -0.0076121096 0.66628575
0.012723096 -0.0082680173 0.66791672
0.017840002 -0.0089200009 0.66900009
0.022724763 -0.0091323815 0.66900009
0.027397146 -0.0092385719 0.66900003
0.033131428 -0.0095571438 0.66900003
0.03504286 -0.0095571438 0.66900003
-0.025966669 -0.0006333334 0.66500002
-0.022426289 -0.00088685722 0.66520005
-0.017478574 -0.0023532656 0.66564292
-0.012694404 -0.0025365476 0.66649997
-0.0077579054 -0.0026681274 0.66766667
-0.0028660321 -0.003078413 0.66883343
0.0025485717 -0.0044600004 0.66900003
-0.042116672 0.004116667 0.66500002
-0.037948359 0.0035911112 0.66533333
-0.032633178 0.0030633337 0.66533333
-0.027870351 0.002665651 0.66613334
-0.022872977 0.0025432147 0.66712499
-0.01795868 0.0021053483 0.66800004
-0.013804764 0.0014866668 0.66900009
-0.071601912 0.008871112 0.66533339
-0.066941306 0.0077914968 0.66578573
-0.062137388 0.0088766674 0.66574997
-0.056957692 0.008965035 0.66557145
-0.052001316 0.0088784527 0.66587496
-0.047165163 0.0081448415 0.66624999
-0.042930167 0.0069811116 0.66616666
-0.037881635 0.0062693884 0.66771442
-0.032801773 0.0062706126 0.66785723
-0.028012382 0.0063671437 0.66850007
-0.022554858 0.006244 0.66900009
-0.01975143 0.0057342863 0.66900003
-0.10703334 0.014566667 0.66500002
-0.10262524 0.014148097 0.66516668
-0.097429261 0.014048028 0.66614288
-0.092445649 0.013438355 0.66609091
-0.087478481 0.013566096 0.6656
-0.082341701 0.013759261 0.66677773
-0.077499293 0.012706189 0.66700011
-0.072355896 0.012695299 0.66643751
-0.067346901 0.012707977 0.66712499
-0.062479414 0.012282199 0.6678462
-0.057250243 0.012087542 0.66791666
-0.052413817 0.011832668 0.66790003
-0.047785714 0.01083143 0.66900003
-0.14281668 0.019316668 0.66500002
-0.13680001 0.019633334 0.66500002
-0.13183287 0.019648097 0.66550004
-0.12757492 0.019220954 0.66533339
-0.12289447 0.018512988 0.66609097
-0.11780858 0.018801801 0.66544443
-0.11339541 0.019004922 0.66516668
-0.10773709 0.017745657 0.66543752
-0.1026052 0.017938944 0.6673333
-0.097700693 0.017633062 0.6680001
-0.092884772 0.017814763 0.66799998
-0.087695718 0.017795477 0.66725004
-0.083192021 0.017677143 0.66838473
-0.077731431 0.015928572 0.66900003
-0.072634295 0.016565714 0.66900009
-0.06774953 0.016353335 0.66900009
-0.15615121 0.02285381 0.66649997
-0.15231442 0.022849169 0.66637498
-0.14720942 0.022844287 0.66624999
-0.14233281 0.022876609 0.66718757
-0.13735448 0.022892443 0.66768748
-0.1321172 0.022866488 0.66693747
-0.12723692 0.022904051 0.66799992
-0.12251314 0.022032574 0.66860002
-0.1175416 0.021641906 0.66833341
-0.11294464 0.021535924 0.66785723
-0.10754687 0.021000573 0.66820008
-0.09620858 0.021025715 0.66900003
-0.093660004 0.021025715 0.66900003
-0.087288573 0.021025715 0.66900003
-0.083465718 0.021025715 0.66900003
-0.1561 0.026122859 0.66900003
-0.15270191 0.026760003 0.66900009
-0.14768973 0.026377717 0.66900009
-0.1431023 0.026377717 0.66900009
-0.13698572 0.026632575 0.66900009
-0.13274191 0.026657827 0.66871434
-0.12870286 0.026122859 0.66900003
0.028885717 -0.040440004 0.67400002
-0.066979997 -0.035573334 0.67300004
-0.063227624 -0.035625715 0.67400002
-0.057771433 -0.035304762 0.67400002
-0.052985083 -0.03568032 0.67300004
-0.047428578 -0.035252385 0.67299998
-0.042365719 -0.035304762 0.67400002
-0.03689225 -0.035795107 0.67285717
-0.032017503 -0.035860598 0.67237496
-0.027538368 -0.036138371 0.67242867
-0.02311069 -0.036054604 0.67199999
-0.018307621 -0.035466477 0.67220002
-0.012389366 -0.035671592 0.67283338
-0.0076823821 -0.036491111 0.67216671
-0.0023795918 -0.036879733 0.67257148
0.0025590474 -0.037109286 0.67174995
0.007328866 -0.036945134 0.67146158
0.012783929 -0.03707274 0.67112505
0.018161165 -0.036962859 0.67300004
0.022536669 -0.03649915 0.67230004
0.02713724 -0.037510194 0.67210001
0.030035241 -0.038981907 0.671
-0.12132001 -0.030169528 0.67400002
-0.11686637 -0.030980637 0.67300004
-0.11280763 -0.03076667 0.67299998
-0.10790955 -0.030845037 0.67271435
-0.10247667 -0.031384289 0.67250001
-0.097558968 -0.031278618 0.67272729
-0.092048064 -0.031266402 0.67245454
-0.08733239 -0.031733744 0.67214286
-0.082512744 -0.032143451 0.67162508
-0.078035451 -0.032166667 0.67100006
-0.072791964 -0.032740742 0.67111111
-0.067714289 -0.033218812 0.67075002
-0.063163936 -0.033103213 0.67162502
-0.057460688 -0.03334422 0.67142856
-0.052372504 -0.033212263 0.67062503
-0.047630101 -0.033584002 0.67040008
-0.042816192 -0.033869527 0.671
-0.037024051 -0.033831671 0.67025006
-0.031915955 -0.033831671 0.67025
-0.027466035 -0.033852704 0.67066669
-0.024885716 -0.03381905 0.67000002
-0.015952382 -0.03381905 0.67000002
-0.012780953 -0.033869527 0.671
-0.0080453344 -0.033584006 0.67040002
-0.0031904764 -0.03381905 0.67000002
-0.15639335 -0.026279051 0.67300004
-0.15232 -0.026240002 0.67200005
-0.14762838 -0.026504576 0.67220008
-0.14268272 -0.02670048 0.67283338
-0.13929334 -0.026318097 0.67400002
-0.13077208 -0.027522542 0.67200005
-0.12757176 -0.027522383 0.67199993
-0.12276879 -0.027621696 0.67100006
-0.11744396 -0.028197963 0.67071432
-0.11265049 -0.028185716 0.67042863
-0.10720001 -0.029033337 0.67000002
-0.10209524 -0.029352382 0.67000002
-0.09706191 -0.028735718 0.67050004
-0.092616513 -0.028742861 0.67066669
-0.087844454 -0.029565081 0.67000002
-0.083590478 -0.029990477 0.67000002
-0.07848572 -0.029990477 0.67000002
-0.15712795 -0.024059368 0.67066669
-0.15250477 -0.024885718 0.67000002
-0.14809263 -0.024895001 0.67025
-0.14293334 -0.024885716 0.67000002
-0.13910477 -0.024885716 0.67000002
0.032542862 -0.01084762 0.67000002
0.035733335 -0.01084762 0.67000002
0.0095714293 -0.0057428577 0.67000002
0.012761906 -0.0057428577 0.67000002
0.017876787 -0.0063841669 0.67037505
0.023116479 -0.0067680958 0.67050004
0.028149264 -0.0072542005 0.67036372
0.032229435 -0.0071412991 0.67072731
0.035182543 -0.0070339693 0.67166674
-0.0057428577 -0.00063809525 0.67000002
-0.0015952382 -0.00095714291 0.67000002
0.0025535719 -0.0019145239 0.67025006
0.0076673822 -0.0025541668 0.67087501
0.012795955 -0.0025569049 0.67175001
0.017932205 -0.0025595834 0.67243743
0.022542939 -0.0028827782 0.67308331
0.026950242 -0.0035288096 0.67374992
0.031991538 -0.003633016 0.67333329
0.035732701 -0.0036374605 0.67400002
-0.017228574 0.0044666668 0.67000002
-0.012128859 0.0031922862 0.67030001
-0.0076639294 0.0025558334 0.67062497
-0.0025587501 0.0025618458 0.67181253
0.0024340954 0.0024368891 0.67260003
0.0074422858 0.0016685715 0.6735999
0.01241016 0.0010698414 0.67400002
0.017331429 0.00064190489 0.67400002
-0.041220956 0.0090609528 0.67000002
-0.036839049 0.0087311128 0.6707778
-0.031964049 0.008950239 0.67124999
-0.027486509 0.0089493655 0.67116666
-0.023157924 0.0083000874 0.67036372
-0.017961686 0.0075309174 0.67176926
-0.012796548 0.0063994052 0.67187506
-0.0076859533 0.0070478576 0.67258328
-0.0029527619 0.0060339053 0.67400002
0.00064190483 0.0057771434 0.67400002
-0.061895244 0.014676193 0.67000002
-0.057514288 0.014698097 0.671
-0.051936354 0.01426143 0.67050004
-0.047163453 0.013230698 0.67130774
-0.042235773 0.012801489 0.67193741
-0.037184943 0.012824467 0.67318738
-0.032198224 0.01270108 0.67346668
-0.026870903 0.012046349 0.67355549
-0.022900594 0.011692025 0.67262501
-0.019361908 0.011925715 0.67320007
-0.081038103 0.018504765 0.67000002
-0.07787627 0.018511988 0.67025006
-0.072850958 0.019172145 0.671
-0.067601055 0.018786192 0.67090005
-0.062742151 0.01792893 0.67224997
-0.057678021 0.017305003 0.67291659
-0.052525159 0.017296113 0.67258328
-0.047528066 0.017521614 0.67369229
-0.04245742 0.016597824 0.67400008
-0.03723048 0.016047619 0.67400002
-0.033379048 0.016047619 0.67400002
-0.12211921 0.024466511 0.67016667
-0.11743588 0.024055347 0.67055553
-0.11218488 0.024055343 0.67055559
-0.10756253 0.023535501 0.67118186
-0.10231294 0.022747757 0.67142856
-0.097391948 0.022862129 0.67107689
-0.092250802 0.022655664 0.67111111
-0.087640949 0.022826409 0.67081821
-0.082410149 0.022817073 0.67078573
-0.077123009 0.022325495 0.6726923
-0.072535239 0.022466671 0.67400002
-0.067766808 0.021733066 0.67400008
-0.064832382 0.021182859 0.67400002
-0.15569524 0.028076191 0.67000002
-0.15250477 0.028076191 0.67000002
-0.14803812 0.028395239 0.67000002
-0.14295964 0.028400596 0.67012501
-0.13831389 0.027991163 0.67014295
-0.13234095 0.028459048 0.67000002
-0.12747753 0.027718861 0.67060006
-0.12263297 0.027619636 0.67200005
-0.11756928 0.027400782 0.67190915
-0.11258414 0.027506985 0.67166662
-0.10778062 0.02710598 0.67327267
-0.10297987 0.026134698 0.67400008
-0.097844638 0.026501501 0.67400008
-0.092434295 0.025034288 0.67400002
-0.087299049 0.02535524 0.67400002
-0.081521913 0.025034288 0.67400002
-0.077670485 0.025034288 0.67400002
-0.072535239 0.025034288 0.67400002
-0.15600221 0.031712931 0.67171425
-0.15232004 0.032001909 0.67199993
-0.14744647 0.032149747 0.67200005
-0.1421854 0.031384923 0.67250001
-0.13724573 0.031503551 0.67254543
-0.13247898 0.031478096 0.67200005
-0.12752566 0.031704035 0.67288226
-0.12193128 0.031445876 0.67383331
-0.11746858 0.031025395 0.67400002
-0.11272381 0.030743334 0.67250001
-0.10976572 0.030811429 0.67400002
-0.15598287 0.035304762 0.67400002
-0.15277334 0.035304762 0.67400002
-0.14828001 0.035304762 0.67400002
-0.062726669 -0.040740002 0.67900002
-0.058846671 -0.040740002 0.67900002
-0.053242229 -0.040740006 0.67900008
-0.047614604 -0.041151118 0.67866671
-0.042366944 -0.041260004 0.67842859
-0.037464526 -0.040695004 0.67825001
-0.032322146 -0.040725 0.67875004
-0.027130716 -0.04134167 0.67825001
-0.022158412 -0.041809 0.67766672
-0.017805852 -0.04124286 0.67814291
-0.01290881 -0.04131167 0.67775005
-0.007749524 -0.041326668 0.67800003
-0.002321905 -0.041653533 0.67700005
0.0025763495 -0.041870322 0.67633337
0.0077446038 -0.041942231 0.67750001
0.013185619 -0.041756485 0.67869997
0.01788762 -0.041821301 0.67745459
0.022096885 -0.042263467 0.67700005
0.026684765 -0.041899052 0.67680007
-0.11575334 -0.035566669 0.67900002
-0.11252001 -0.035566669 0.67900002
-0.10799335 -0.035566669 0.67900008
-0.10411334 -0.035566669 0.67900002
-0.09247335 -0.035566669 0.67900008
-0.087700702 -0.03671369 0.67845452
-0.082610801 -0.036789522 0.67766666
-0.077777557 -0.036075789 0.67814291
-0.071823701 -0.036315836 0.67787504
-0.067175105 -0.037874427 0.67728579
-0.062241357 -0.03795024 0.67725009
-0.057623815 -0.037903238 0.67680007
-0.052605242 -0.038294952 0.67690009
-0.047630951 -0.03797619 0.67583346
-0.042470481 -0.037966669 0.67566675
-0.037537038 -0.038395453 0.67566675
-0.032196309 -0.03863655 0.67612505
-0.026914289 -0.038671568 0.67514294
-0.022249145 -0.038711619 0.67519999
-0.017848399 -0.03809775 0.67590922
-0.013124098 -0.038214575 0.67550009
-0.0077178581 -0.039228812 0.67525005
-0.0038571432 -0.039214287 0.67500001
0.0090000005 -0.039214287 0.67500001
0.012866667 -0.039243333 0.67550004
0.018000001 -0.039214287 0.67500001
0.022928573 -0.038785718 0.67500007
0.025714288 -0.039214287 0.67500001
-0.14603953 -0.030370954 0.67850006
-0.14186983 -0.030922042 0.67842859
-0.13712859 -0.031646241 0.67811114
-0.13273509 -0.031498875 0.67745459
-0.12761502 -0.031583101 0.67675006
-0.1223784 -0.032206383 0.67630005
-0.11753953 -0.033330955 0.6762501
-0.11232042 -0.033577826 0.67614293
-0.107595 -0.033503812 0.67650002
-0.10212653 -0.033613879 0.67685717
-0.097180478 -0.033900954 0.67799997
-0.093286298 -0.033935431 0.67740005
-0.087945528 -0.033864763 0.67600006
-0.082928583 -0.034071431 0.67500007
-0.076574937 -0.034105085 0.67566675
-0.16102001 -0.029100003 0.67900002
-0.15777537 -0.028205121 0.676875
-0.15255716 -0.02826735 0.6767143
-0.14754272 -0.028349686 0.67650002
-0.14235622 -0.028514288 0.67533338
-0.13762286 -0.028296432 0.67525011
-0.13326859 -0.02897143 0.67600006
0.023785716 -0.00064285717 0.67500001
0.027287487 -0.0011941498 0.67528576
0.032261908 -0.0011944218 0.67557156
0.036026672 -0.0012861906 0.67550004
0.0045000003 0.0045000003 0.67500001
0.0081449216 0.00407254 0.67516673
0.013120097 0.003473429 0.67530006
0.01801778 0.0028968258 0.67566675
0.022352749 0.0027287183 0.67653859
0.027108753 0.0025836313 0.67768753
0.03228607 0.0025847622 0.67799997
0.036381483 0.0028009526 0.67811114
-0.016714286 0.0096428581 0.67500001
-0.012857144 0.0090000015 0.67500007
-0.0077142864 0.0096428581 0.67500001
-0.0023974893 0.0084792227 0.67536378
0.0027067938 0.0078632375 0.67653346
0.0077451034 0.0074704089 0.67764288
0.012652571 0.00684362 0.67780006
0.017451748 0.0064638099 0.67866671
0.021340003 0.0058200005 0.67900008
0.025220001 0.0058200005 0.67900002
0.032333337 0.0058200005 0.67900002
0.035566669 0.0058200005 0.67900002
-0.030214287 0.014785715 0.67500001
-0.027428573 0.014357144 0.67500007
-0.022255812 0.014280193 0.67540002
-0.017407879 0.013307793 0.67700005
-0.012904347 0.012906368 0.67743748
-0.0077380361 0.012899583 0.67706245
-0.0023976876 0.012639459 0.67800003
0.0025147093 0.011853757 0.67888886
-0.057857148 0.019928573 0.67500001
-0.052714292 0.019928573 0.67500001
-0.047357149 0.019928573 0.67500007
-0.042371538 0.01907799 0.67522228
-0.037531007 0.01822984 0.67555565
-0.031904761 0.017625336 0.67540014
-0.02704913 0.017390082 0.6762501
-0.021955952 0.017437067 0.67808336
-0.018322226 0.017028891 0.67900008
-0.012286668 0.016166668 0.67900002
-0.0097000003 0.016166668 0.67900002
-0.070071436 0.023142859 0.67500001
-0.066906199 0.023803335 0.67550004
-0.062301829 0.022666907 0.67675006
-0.057674862 0.022452002 0.67740005
-0.05292961 0.022592463 0.67775005
-0.047752939 0.0225877 0.6775834
-0.042800266 0.022486843 0.67809087
-0.037125062 0.021818245 0.67838466
-0.032300178 0.021965062 0.6783126
-0.027645187 0.021039471 0.67855555
-0.022633335 0.02004667 0.67900008
-0.10671429 0.028928574 0.67500001
-0.10258164 0.028377555 0.67500007
-0.097091712 0.028016331 0.67514294
-0.092754774 0.027699208 0.67633343
-0.087675415 0.027821388 0.6764546
-0.082315311 0.027506523 0.6764617
-0.077207051 0.027168069 0.67593342
-0.072098352 0.027183814 0.67633349
-0.067098044 0.027099229 0.6774376
-0.06244953 0.026703175 0.6783334
-0.057553343 0.025866669 0.67900002
-0.053242225 0.026082225 0.67899996
-0.048823334 0.025543334 0.67900002
-0.036860004 0.025220003 0.67900008
-0.033626668 0.025220001 0.67900002
-0.14592858 0.034071431 0.67500001
-0.14271429 0.034071431 0.67500001
-0.1376231 0.034084052 0.67524999
-0.13307145 0.034071431 0.67500007
-0.12664287 0.034071431 0.67500001
-0.12259381 0.034197621 0.67750001
-0.1173031 0.033355717 0.67675
-0.1123325 0.03357131 0.67787504
-0.10735131 0.032439049 0.67728585
-0.10268846 0.032197274 0.67699993
-0.097834297 0.031954031 0.67733341
-0.092921816 0.031534571 0.6785
-0.087734737 0.031556882 0.67872727
-0.082763419 0.031682938 0.67891663
-0.077514529 0.031651985 0.67825001
-0.072382152 0.031667858 0.67858332
-0.067684449 0.030824445 0.67900002
-0.063157789 0.030824449 0.67900008
-0.15561715 0.038097143 0.67800009
-0.15212461 0.038031906 0.67683339
-0.14745112 0.037602793 0.67735726
-0.1423883 0.037373725 0.67723536
-0.13781439 0.036683332 0.67810005
-0.1329188 0.036134526 0.67750001
-0.12748511 0.036635764 0.67700011
-0.12278881 0.037050921 0.67884618
-0.11753085 0.037054952 0.67892313
-0.11295112 0.035997786 0.67900002
-0.10695868 0.035825338 0.67900002
-0.10260445 0.035997786 0.67900002
-0.15584667 0.041386671 0.67900002
-0.15250081 0.041141119 0.67850006
-0.14733145 0.041356668 0.6785
-0.14254382 0.041479059 0.67900002
-0.037131432 -0.046577144 0.68400002
-0.032354288 -0.046251431 0.68400002
-0.027360002 -0.046251431 0.68400002
-0.021850888 -0.046771161 0.68342865
-0.017580636 -0.046228893 0.68366671
-0.013014524 -0.046200715 0.68325007
-0.0078109531 -0.04621762 0.68350005
-0.0026049209 -0.046674445 0.68383336
0.0029952384 -0.046498477 0.68380004
0.0078125 -0.0468775 0.68362504
0.013004048 -0.04681715 0.68275005
0.017554287 -0.047462862 0.68266672
0.021976478 -0.047204863 0.6827001
0.026855923 -0.047113612 0.68300015
-0.091492623 -0.041350719 0.68375003
-0.087618902 -0.041424289 0.68316668
-0.082161538 -0.041276574 0.68360007
-0.077520005 -0.041365717 0.68400002
-0.072906666 -0.041661434 0.68350005
-0.068359628 -0.041797716 0.68360007
-0.061601486 -0.042537566 0.68244445
-0.057059638 -0.043059781 0.68261546
-0.052223258 -0.043448653 0.68258345
-0.047704052 -0.043650478 0.68149996
-0.042867146 -0.043844767 0.68200004
-0.037658818 -0.043504208 0.68175006
-0.032460637 -0.043498419 0.68166673
-0.02726512 -0.044144411 0.68162501
-0.022040639 -0.044297781 0.68066669
-0.017523654 -0.044136669 0.68150008
-0.012981906 -0.044136669 0.68149996
-0.0077839294 -0.044112027 0.68112504
-0.0030306352 -0.044373818 0.68183339
0.0025980955 -0.044817146 0.68200004
0.0077942861 -0.044817146 0.68200004
0.012532066 -0.044297781 0.68066669
0.017485715 -0.044685718 0.68000001
0.022688892 -0.044729527 0.68066669
0.026605716 -0.044773336 0.68133342
-0.14700572 -0.035828575 0.68400002
-0.14201143 -0.035828575 0.68400002
-0.13810286 -0.035828575 0.68400002
-0.13158858 -0.035828575 0.68400002
-0.12729415 -0.036357012 0.68342865
-0.12281287 -0.036236674 0.68350005
-0.11856001 -0.035828575 0.68400002
-0.11085144 -0.037963815 0.6833334
-0.10724981 -0.03783229 0.68250006
-0.10290191 -0.037670989 0.68284619
-0.097212292 -0.036780667 0.68230003
-0.092410393 -0.038442083 0.68199998
-0.086970955 -0.039591905 0.68150008
-0.082329527 -0.039543495 0.68066669
-0.077700965 -0.038743287 0.68177783
-0.073153101 -0.038767386 0.68125004
-0.068134606 -0.039582223 0.68133342
-0.16240685 -0.031883623 0.68320006
-0.15714589 -0.031820484 0.68183339
-0.15212683 -0.03236755 0.68284625
-0.14760344 -0.032815795 0.68225002
-0.14248616 -0.033549633 0.68177778
-0.13774739 -0.034113575 0.68225002
-0.13264929 -0.03446262 0.68275005
-0.12758097 -0.034323812 0.68000001
-0.12369525 -0.034323812 0.68000001
-0.15478097 -0.029142858 0.68000001
0.0077714296 0.0097142868 0.68000001
0.013384128 0.0092825405 0.68000001
0.017503493 0.009076192 0.68066669
0.022216339 0.008239341 0.68146157
0.02740781 0.0079265414 0.6819334
0.032539655 0.0076206937 0.68209094
0.036553655 0.0067060324 0.68133342
-0.0038857146 0.014895239 0.68000001
0.0026829937 0.014340137 0.68000001
0.007792918 0.012989465 0.68181252
0.013012026 0.013013573 0.68312508
0.017440287 0.012626002 0.68330008
0.021924658 0.011939261 0.68377781
0.025405716 0.011074287 0.68400002
-0.017053969 0.017701589 0.68000001
-0.013011257 0.017603463 0.67999995
-0.0076087452 0.017639915 0.6813637
-0.0026003181 0.017551586 0.68250006
0.0026016668 0.017558016 0.68275011
0.0067922459 0.01739905 0.6838572
-0.040800001 0.023961907 0.68000001
-0.038857147 0.023961907 0.68000001
-0.026607348 0.023271566 0.68142867
-0.021949012 0.022551209 0.68246162
-0.017550794 0.02145344 0.68255562
-0.013012223 0.021472067 0.68316668
-0.0082028573 0.021355052 0.68360007
-0.0028228574 0.020194288 0.68400002
0.0028228574 0.020194288 0.68400002
-0.060876194 0.028495241 0.68000001
-0.057268035 0.028587759 0.68000001
-0.05245715 0.028495241 0.68000001
-0.047685958 0.027791826 0.68125004
-0.042876069 0.027287502 0.68212509
-0.03785627 0.027756928 0.68261546
-0.032450628 0.027452532 0.68253851
-0.02785302 0.026406668 0.68366671
-0.023451431 0.025405716 0.68400002
-0.095847622 0.034323812 0.68000001
-0.091880336 0.033942543 0.68100011
-0.087685727 0.034424763 0.68200004
-0.082955718 0.03434905 0.68050003
-0.07777001 0.03434905 0.68050003
-0.07282643 0.034462623 0.68274999
-0.067261241 0.03337305 0.68169999
-0.061919849 0.032694608 0.68200004
-0.057105836 0.032449406 0.68137497
-0.052212186 0.032461837 0.68164289
-0.047743049 0.031744193 0.68300003
-0.042994291 0.031920005 0.68400002
-0.038108572 0.031431433 0.68400002
-0.033640321 0.031036511 0.68366671
-0.1369863 0.039268956 0.68040007
-0.13230857 0.038915243 0.68100005
-0.1278324 0.039582223 0.68133342
-0.1232635 0.039504763 0.68000001
-0.11851429 0.039504763 0.68000001
-0.11242668 0.038468573 0.67999995
-0.10782494 0.038379747 0.68090916
-0.10233563 0.038571622 0.68180007
-0.097427391 0.037673928 0.6820001
-0.092426263 0.037752442 0.68343753
-0.087212257 0.037749283 0.68337494
-0.082178295 0.037899051 0.6837334
-0.077936314 0.036610123 0.683375
-0.073208176 0.036371976 0.68371433
-0.069702864 0.035828575 0.68400002
-0.060582861 0.035828575 0.68400002
-0.057325721 0.035828575 0.68400002
-0.053417146 0.035828575 0.68400002
-0.15607621 0.044685718 0.68000001
-0.15261407 0.043806117 0.68141669
-0.14733478 0.04413604 0.68150008
-0.1423998 0.043722119 0.68066669
-0.13783757 0.042912446 0.68268752
-0.13272144 0.042939518 0.68312496
-0.12758617 0.043049403 0.68280005
-0.12234298 0.042770755 0.6822353
-0.11722947 0.043069459 0.68221444
-0.11246905 0.042909767 0.68262506
-0.10790119 0.042610921 0.68346161
-0.10274059 0.042529456 0.68376923
-0.097616196 0.042208057 0.68372732
-0.093480006 0.041365717 0.68400002
-0.087291434 0.041040003 0.68400002
-0.084034294 0.041040003 0.68400002
-0.15230058 0.04725315 0.68340009
-0.14694726 0.047405113 0.68354553
-0.14221092 0.047501069 0.68322229
-0.13781491 0.047398623 0.68345463
-0.13289143 0.046902858 0.68400002
-0.12763381 0.046885952 0.68375003
-0.12244584 0.046894409 0.68387502
-0.11769144 0.046685718 0.68400002
-0.11269715 0.046251431 0.68400002
-0.020341907 -0.050526671 0.68900001
-0.016404763 -0.050526671 0.68900001
0.0045933337 -0.050526671 0.68900001
0.0078671435 -0.050490003 0.68849999
0.012112381 -0.050744765 0.68750006
0.017020319 -0.050841909 0.68733346
0.022470584 -0.051269952 0.6872223
0.026521273 -0.051810376 0.68666673
-0.09252286 -0.045277145 0.68900001
-0.088585719 -0.045277145 0.68900001
-0.083336197 -0.045277145 0.68900001
-0.076774292 -0.045277145 0.68900001
-0.072130002 -0.045244288 0.68850005
-0.067161433 -0.045539528 0.68800002
-0.062872395 -0.045845084 0.68766677
-0.058120601 -0.046825357 0.68762505
-0.052656334 -0.047045719 0.68742859
-0.046714861 -0.046192959 0.6870001
-0.042231433 -0.046816193 0.6875
-0.038561191 -0.047384053 0.68625003
-0.032806288 -0.047445908 0.68620008
-0.02709486 -0.048039239 0.68720001
-0.02228405 -0.048834052 0.68825006
-0.017008692 -0.048408933 0.68687499
-0.01244381 -0.048465401 0.68766677
-0.0082888901 -0.048200324 0.68700004
-0.0032733339 -0.048200324 0.68700004
0.002399524 -0.048430007 0.68716669
0.0078478577 -0.049053572 0.68675005
0.012413334 -0.049000006 0.68600005
0.015026668 -0.049000002 0.68600005
0.022866668 -0.049000002 0.68600005
0.026133336 -0.049000002 0.68600005
-0.11220858 -0.04090254 0.68900001
-0.10730286 -0.041220002 0.68700004
-0.10221524 -0.041280001 0.68800008
-0.097241163 -0.04261196 0.68833339
-0.093111709 -0.042867076 0.68642867
-0.087196194 -0.04338032 0.68666673
-0.082329258 -0.043268032 0.68685716
-0.077386037 -0.04338032 0.68666673
-0.072554611 -0.04379461 0.68633342
-0.067563817 -0.042892791 0.68685728
-0.06430731 -0.042943493 0.68666673
-0.16207907 -0.036090478 0.68900001
-0.1572562 -0.036694288 0.68800008
-0.15288532 -0.036563136 0.68728578
-0.14734249 -0.037328001 0.68760008
-0.1426969 -0.037847895 0.68685728
-0.13782424 -0.037334427 0.68771434
-0.13231 -0.037663814 0.68775004
-0.12746255 -0.038565397 0.68633342
-0.12226491 -0.038261637 0.68757159
-0.11768533 -0.037918784 0.68814296
-0.11291905 -0.038584128 0.68666673
-0.10910667 -0.039853334 0.68600005
-0.1009289 -0.039456513 0.68666673
-0.098159432 -0.039342288 0.68620008
-0.16601621 -0.034778096 0.68900001
-0.16270326 -0.034425911 0.68720001
-0.15745336 -0.03462667 0.68600005
-0.15418667 -0.03462667 0.68600005
0.032448892 0.009800001 0.68600005
0.035933334 0.009800001 0.68600005
0.022866666 0.013720001 0.68600005
0.02765169 0.012547967 0.68681824
0.032742783 0.012443732 0.68758345
0.0092773354 0.017901337 0.68600005
0.012426034 0.017658204 0.68666673
0.017205309 0.017301364 0.68728572
0.021751527 0.016380096 0.68790001
0.027262859 0.015645443 0.68857151
0.033301666 0.01591262 0.68900007
-0.016986668 0.024173334 0.68600005
-0.012413334 0.024173334 0.68600005
-0.0071866675 0.02352 0.68600005
-0.0025651285 0.022692457 0.68676931
0.0023217318 0.022440692 0.68745458
0.0076818182 0.021496713 0.68772733
0.012131428 0.020655241 0.68849999
0.015748572 0.020341907 0.68900001
-0.030706668 0.029400002 0.68600005
-0.02680286 0.028671434 0.68642867
-0.022062996 0.027767893 0.68714303
-0.016977319 0.026866321 0.68800008
-0.012579145 0.027124671 0.68790007
-0.0080449358 0.02675749 0.68827283
-0.0045933337 0.025591429 0.68900001
-0.064680003 0.03462667 0.68600005
-0.05030667 0.03462667 0.68600005
-0.047040004 0.03462667 0.68600005
-0.041856907 0.034664527 0.68675005
-0.03732504 0.033772111 0.68757147
-0.032652225 0.032982066 0.68800008
-0.027539527 0.032130957 0.68850011
-0.022310479 0.031890858 0.68900007
-0.019029524 0.031497143 0.68900001
-0.07681334 0.039293338 0.68600005
-0.071840003 0.039007831 0.68644452
-0.067539647 0.03786945 0.68646163
-0.063121244 0.037772968 0.68653858
-0.057535242 0.037921432 0.68650007
-0.052140385 0.037600573 0.68780005
-0.047324073 0.037206322 0.68754554
-0.042224359 0.036608029 0.68814296
-0.03674667 0.036090478 0.68900001
-0.098653339 0.043773334 0.68600005
-0.092367023 0.042996075 0.686625
-0.087585241 0.042746954 0.68629998
-0.082184948 0.042608485 0.6863637
-0.07732676 0.04259707 0.68808341
-0.072375782 0.04220159 0.6887778
-0.067587622 0.042652387 0.68900007
-0.062806815 0.042277414 0.68900007
-0.058138479 0.040290099 0.68900007
-0.053807624 0.040027622 0.68900001
-0.15288001 0.049000002 0.68600005
-0.14961334 0.049000002 0.68600005
-0.14308001 0.049000002 0.68600005
-0.13524 0.049000002 0.68600005
-0.13211691 0.049053572 0.68675005
-0.12720715 0.049178574 0.68850005
-0.12270763 0.049214289 0.68900001
-0.11744922 0.048683494 0.68766665
-0.11245525 0.048055481 0.68650007
-0.10719313 0.047234293 0.68661547
-0.10234755 0.047357704 0.68741673
-0.097632319 0.04667832 0.68730766
-0.092815936 0.046378534 0.68763649
-0.087812304 0.046528973 0.68808341
-0.083266534 0.045989528 0.68842864
-0.079399049 0.045277145 0.68900001
-0.063650481 0.045277145 0.68900001
-0.15221678 0.052489016 0.68823093
-0.14751723 0.0523468 0.6876002
-0.14261329 0.052254412 0.6875335
-0.13761915 0.051510196 0.68810004
-0.13241926 0.051576581 0.68900007
-0.12795717 0.051276609 0.68900007
-0.12205143 0.050964132 0.68900007
-0.11745811 0.050526671 0.68900001
-0.11335524 0.050781433 0.68800008
-0.10761525 0.050526671 0.68900001
-0.10039715 0.050526671 0.68900001
-0.15026763 0.055776194 0.68900001
-0.14698668 0.055776194 0.68900001
0.023991749 -0.05656762 0.69333339
-0.053096514 -0.050893337 0.69400001
-0.047588572 -0.050893337 0.69400001
-0.042270642 -0.051297303 0.69350004
-0.037620954 -0.051480643 0.69300002
-0.032669719 -0.051773336 0.69160002
-0.027733702 -0.052276123 0.69207692
-0.022591086 -0.052193336 0.69209093
-0.017354498 -0.052505825 0.69200009
-0.012519049 -0.05205873 0.69188887
-0.0079082148 -0.051397502 0.69187504
-0.0025272225 -0.052195475 0.69225001
0.0022810991 -0.052568719 0.69192314
0.0079091676 -0.052734882 0.69212496
0.012788001 -0.052872576 0.69220006
0.017213335 -0.053548567 0.69222224
0.022374287 -0.053964451 0.69099998
-0.11831048 -0.045605719 0.69400001
-0.11170095 -0.045605719 0.69400001
-0.1070743 -0.045605719 0.69400001
-0.10244763 -0.045605719 0.69400001
-0.097576432 -0.046150956 0.69225001
-0.09194532 -0.047339056 0.69171435
-0.087005086 -0.047278948 0.69266671
-0.082460858 -0.046756934 0.69144452
-0.077949099 -0.047210481 0.69166666
-0.072445288 -0.047999226 0.69209087
-0.067419156 -0.048064098 0.69130003
-0.062188577 -0.04837143 0.69100004
-0.056926038 -0.049014293 0.6923334
-0.052375048 -0.049208578 0.69260001
-0.047460124 -0.048780121 0.69212502
-0.042597786 -0.048966669 0.69166672
-0.037493974 -0.049333334 0.69066668
-0.032857146 -0.049285717 0.69000006
-0.028257145 -0.049285721 0.69000006
-0.024314288 -0.049285717 0.69000006
-0.0065757148 -0.049321432 0.69050002
-0.0019714287 -0.049285721 0.69000006
0.0019714287 -0.049285717 0.69000006
-0.16638 -0.041364003 0.69380003
-0.16247715 -0.04095 0.69349992
-0.15729812 -0.040998239 0.69271433
-0.15254687 -0.04147296 0.69339997
-0.14751445 -0.041661751 0.6925
-0.14222366 -0.042006236 0.6916154
-0.137339 -0.041920617 0.69235724
-0.13231735 -0.042234421 0.69213349
-0.12750635 -0.041972183 0.69164294
-0.12252033 -0.042013533 0.69140017
-0.11715148 -0.042124238 0.69106245
-0.11249072 -0.043318339 0.69175005
-0.10764559 -0.043341365 0.69100004
-0.10262548 -0.043419294 0.69075006
-0.099228576 -0.044028573 0.69000006
-0.16627842 -0.037512701 0.69099998
-0.16279063 -0.037856739 0.69042861
-0.15824631 -0.038542289 0.69060004
-0.15215126 -0.03853105 0.69040006
-0.1485143 -0.038771432 0.69000006
-0.14260001 -0.038771432 0.69000006
-0.13646668 -0.038333338 0.69000006
-0.13471429 -0.038771432 0.69000006
-0.16757144 -0.034828573 0.69000006
0.03614286 0.013142858 0.69000006
0.023219049 0.018180955 0.69000006
0.02781905 0.018180953 0.69000006
0.032364286 0.018235715 0.69000006
0.03614286 0.017085714 0.69000006
0.0039428575 0.024314288 0.69000006
0.0082828579 0.02405848 0.69020003
0.012664286 0.02319048 0.69075
0.017309528 0.022673475 0.6914286
0.022410892 0.02241244 0.6920625
0.027525455 0.021650478 0.69263643
0.032675512 0.021001227 0.6921429
0.036865957 0.021067858 0.69125003
-0.017217144 0.029045716 0.69000006
-0.011828572 0.029571431 0.69000006
-0.0074914293 0.029308572 0.69000006
-0.0024989205 0.027759371 0.69066674
0.0026352382 0.027672622 0.69175011
0.0079129161 0.027694706 0.69231248
