# .PCD v0.7 - Point Cloud Data file format
VERSION 0.7
FIELDS x y z
SIZE 4 4 4
TYPE F F F
COUNT 1 1 1
WIDTH 1325
HEIGHT 1
VIEWPOINT 0 0 0 1 0 0 0
POINTS 1325
DATA ascii
-0.062606111 0.037485164 0.62308341
-0.058098286 0.038693335 0.62120003
-0.052110549 0.038346197 0.62078571
-0.048497144 0.036669526 0.62100005
-0.060022861 0.041600004 0.62400001
-0.056539372 0.041893441 0.62344444
-0.053421196 0.041550718 0.62325001
-0.061701909 0.0041933334 0.62900007
-0.057508573 0.0041933334 0.62900001
-0.052529335 0.0039483812 0.62819999
-0.047601774 0.00367415 0.62814295
-0.044311669 0.0035926194 0.62874997
-0.10603143 0.008985715 0.62900001
-0.10243715 0.008985715 0.62900001
-0.096846044 0.008985715 0.62900007
-0.092453025 0.0085863499 0.62900001
-0.088013969 0.0089809531 0.62866664
-0.082668573 0.008985715 0.62900001
-0.077600107 0.0080231437 0.62869996
-0.072625361 0.0071711913 0.62762499
-0.067585655 0.0071245944 0.62670583
-0.062357366 0.0072866669 0.62622231
-0.057246555 0.0071533336 0.62612498
-0.052423179 0.0065519055 0.62550002
-0.047666315 0.005957738 0.62562501
-0.043227274 0.0066686585 0.62645465
-0.11217453 0.012933043 0.62830776
-0.10757218 0.012684962 0.62805271
-0.10269094 0.012397993 0.62631583
-0.097778782 0.011421089 0.62657154
-0.093031526 0.011335586 0.62654549
-0.087559052 0.010738811 0.62650001
-0.082394376 0.011341985 0.62691671
-0.07774362 0.011088002 0.62600005
-0.072817467 0.010119049 0.625
-0.043484475 0.01251055 0.62546158
-0.11167267 0.017003812 0.62800002
-0.10742402 0.017805843 0.6273334
-0.10312699 0.018323598 0.6251111
-0.099404767 0.019642858 0.625
-0.10603143 0.020966668 0.62900001
-0.10258104 0.022551088 0.6277858
-0.097905539 0.022928394 0.62731254
-0.093238734 0.023260318 0.62622231
-0.089880958 0.024404764 0.625
-0.10044032 0.026158415 0.62900007
-0.096994296 0.026943337 0.62866676
-0.092080064 0.027506132 0.62781245
-0.087232381 0.028139051 0.6261819
-0.08310286 0.028892383 0.62550002
-0.08699286 0.030926511 0.62849998
-0.082326591 0.031899571 0.62763643
-0.077731527 0.033024665 0.62590003
-0.072619058 0.033928573 0.625
-0.076735407 0.036076672 0.62783337
-0.07284531 0.037021495 0.62693757
-0.068110317 0.037729371 0.62550002
-0.063988104 0.039583333 0.625
-0.049720954 0.038938098 0.62900001
-0.071267784 0.041123971 0.62883329
-0.067417584 0.041923668 0.62815392
-0.062401637 0.04288191 0.62657148
-0.057829939 0.044034015 0.62600011
-0.052155476 0.043397065 0.62708348
-0.049720954 0.043331113 0.62900007
-0.06110286 0.046126671 0.62900001
-0.057287619 0.047168836 0.62836373
-0.05276807 0.047744315 0.62820005
-0.049720954 0.046126671 0.62900001
-0.056758098 -0.00060380955 0.634
-0.052531432 -0.00060380955 0.634
-0.046457622 -0.00060333335 0.63349998
-0.044008575 -0.00060285721 0.63300002
-0.091529846 0.0038219052 0.63366669
-0.087204605 0.0033187307 0.63366663
-0.081976473 0.003706259 0.63357145
-0.07703498 0.0031243293 0.63327271
-0.072324134 0.0030125396 0.63283336
-0.067476116 0.0030107144 0.63258338
-0.062999241 0.0024078095 0.63239998
-0.057676464 0.0019155847 0.63263637
-0.052627105 0.0016212455 0.63292307
-0.047308255 0.0014045504 0.63233334
-0.041993853 0.0020820515 0.63199997
-0.12653241 0.0086498428 0.63366669
-0.12262763 0.0084461914 0.63349998
-0.11734962 0.0082425401 0.63333333
-0.11268927 0.0081697842 0.6333636
-0.10748249 0.007590096 0.63260001
-0.10228263 0.0072195241 0.63174999
-0.0975416 0.0074201063 0.63177782
-0.092617817 0.0063820006 0.63229996
-0.087543748 0.0067063272 0.6320715
-0.082661763 0.0066198409 0.63200003
-0.077784613 0.005813492 0.63150001
-0.12748198 0.012019709 0.63346148
-0.12286274 0.012045476 0.632375
-0.11791579 0.012031965 0.63168752
-0.11358002 0.011933198 0.63100004
-0.10997429 0.010216191 0.63100004
-0.12659875 0.015497779 0.634
-0.12267321 0.016767686 0.63326669
-0.11774237 0.017411329 0.63263154
-0.1135868 0.01865631 0.63187498
-0.10997429 0.01983143 0.63100004
-0.04519048 0.017474286 0.63266671
-0.042726133 0.017660003 0.63314283
-0.11566953 0.021524129 0.63366669
-0.11200859 0.021919683 0.63344443
-0.10745334 0.023098733 0.63266671
-0.043127488 0.022467623 0.63271427
-0.10566667 0.027171429 0.634
-0.10253976 0.02789183 0.63208336
-0.097354285 0.029446669 0.63100004
-0.043474287 0.025963811 0.634
-0.10135953 0.030770002 0.63349998
-0.097382046 0.031256333 0.6328572
-0.092668317 0.032297555 0.63300002
-0.0880922 0.033335239 0.6318
-0.08383286 0.033953808 0.63100004
-0.087357908 0.037132453 0.63321429
-0.082380511 0.037311714 0.63247061
-0.078245319 0.03787769 0.63128579
-0.04875429 0.039123811 0.63200003
-0.085137151 0.040455241 0.634
-0.081634395 0.041387413 0.6338889
-0.07712131 0.042176198 0.63262498
-0.072766669 0.042831857 0.63144445
-0.069109529 0.043869525 0.63100004
-0.048979685 0.04235683 0.6323334
-0.076080002 0.045285717 0.634
-0.072117686 0.045751706 0.63328576
-0.067378931 0.046888772 0.63280004
-0.063008748 0.047572564 0.63227272
-0.057714529 0.049598336 0.63125002
-0.051080957 0.049879052 0.63100004
-0.048820361 0.047464646 0.63287503
-0.06581524 0.050116193 0.634
-0.062696196 0.050622448 0.63385713
-0.057867389 0.052141361 0.63291663
-0.052289922 0.052673183 0.6326316
-0.048908576 0.051323812 0.634
-0.065725721 -0.005477143 0.63900006
-0.061465722 -0.005477143 0.63900006
-0.057205718 -0.005477143 0.63900006
-0.05213429 -0.005477143 0.63900006
-0.046860002 -0.0057814289 0.63900006
-0.042984128 -0.0058800001 0.63866675
-0.038948573 -0.005477143 0.63900006
-0.09155453 -0.00091261906 0.63875008
-0.087564766 -0.00060809526 0.63850003
-0.082733579 -0.00060833339 0.63875008
-0.077836193 -0.0012166668 0.63849998
-0.073000483 -0.0012169048 0.63875002
-0.067577563 -0.0023561313 0.6378125
-0.062602162 -0.0023873018 0.63653338
-0.05749698 -0.0025329415 0.63629419
-0.052154865 -0.0025515561 0.63726681
-0.047422793 -0.0026897283 0.63721442
-0.042306036 -0.0025471749 0.6364001
-0.038902622 -0.0024314285 0.63824999
-0.13181658 0.0037731433 0.63900006
-0.12800288 0.0042600008 0.63900006
-0.12110572 0.0042600003 0.63900006
-0.11745429 0.0040165717 0.63900006
-0.11252131 0.0030404329 0.63863641
-0.10749386 0.0032257147 0.6382308
-0.10211182 0.0032813333 0.63819999
-0.097114377 0.0028507693 0.6382308
-0.09248209 0.0018164504 0.63618195
-0.087557308 0.0010084128 0.63550007
-0.082531013 0.0014133333 0.63666672
-0.077846102 0.00084723812 0.63560003
-0.072657868 0.00060547621 0.63575006
-0.067733333 0.00060476194 0.63500005
-0.062290482 0.00060476194 0.63500011
-0.059871431 0.00060476194 0.63500005
-0.039110795 0.0010136509 0.63833338
-0.13623619 0.0082280282 0.63657153
-0.13218889 0.0072739897 0.63668752
-0.12776694 0.0066697844 0.63690919
-0.12276997 0.0062679364 0.63711113
-0.11789975 0.0059759184 0.63671434
-0.11220065 0.0058517465 0.63566673
-0.10777549 0.0054492857 0.63575006
-0.1028493 0.0054450002 0.63525003
-0.097971432 0.0054428573 0.63500005
-0.13615112 0.011508573 0.6360001
-0.13202885 0.012142221 0.63533342
-0.13549906 0.015190477 0.63800001
-0.1322363 0.015998838 0.63788897
-0.1278291 0.017452804 0.63677782
-0.1222581 0.019670477 0.63550007
-0.040519051 0.019957144 0.63500005
-0.039309528 0.019957144 0.63500005
-0.1259743 0.020082859 0.63900006
-0.12261444 0.022392457 0.63807702
-0.11798826 0.023276035 0.63750011
-0.11284751 0.024299188 0.63557148
-0.10946191 0.02479524 0.63500005
-0.041371431 0.023188813 0.63650006
-0.039495241 0.023089526 0.63800001
-0.11542573 0.026574289 0.63900006
-0.11228373 0.027782081 0.63790917
-0.108126 0.027963951 0.63628578
-0.10462382 0.029633336 0.63500005
-0.041797504 0.02751131 0.63837498
-0.039557144 0.027385717 0.63900006
-0.11076 0.031037144 0.63900006
-0.10659112 0.031410478 0.63833332
-0.1022459 0.03319931 0.63800007
-0.097998641 0.033706397 0.63685721
-0.094342865 0.03447143 0.63500005
-0.045813337 0.033174861 0.63800007
-0.044402547 0.03264381 0.63866675
-0.10041429 0.03651429 0.63900006
-0.097034186 0.036666773 0.63811111
-0.092453204 0.03778109 0.63685721
-0.088295244 0.039309528 0.63500005
-0.046693735 0.037600081 0.6367501
-0.044425718 0.037122861 0.63900006
-0.091622487 0.041248385 0.63880008
-0.087194897 0.042082168 0.63700008
-0.082965046 0.043515787 0.63585722
-0.046753339 0.042207148 0.63616669
-0.044408336 0.0425831 0.63875008
-0.082338899 0.046036672 0.6388334
-0.077786155 0.047203641 0.63763642
-0.072927296 0.048281383 0.63633341
-0.069547623 0.048985716 0.63500005
-0.046426285 0.047151815 0.63640016
-0.044425718 0.046860002 0.63900006
-0.072585404 0.0508908 0.63866675
-0.06795191 0.051953342 0.63800001
-0.062831074 0.052990366 0.63587511
-0.059871431 0.053823814 0.63500005
-0.047363382 0.051984679 0.6353637
-0.061651435 0.056057908 0.63840002
-0.056932461 0.056590147 0.63692868
-0.052058984 0.057477146 0.63730776
-0.048674021 0.056832388 0.63771427
-0.051728576 0.060248576 0.63900006
-0.090773344 -0.0055200006 0.64400005
-0.086719528 -0.0061290478 0.64350003
-0.082575001 -0.0061169048 0.64225006
-0.077364989 -0.0060462435 0.64188886
-0.072092623 -0.006109762 0.6415
-0.067483813 -0.0067197625 0.64125007
-0.062315717 -0.0070280964 0.64150006
-0.05761905 -0.0071276198 0.64133346
-0.052282386 -0.0067147627 0.64083338
-0.047732301 -0.0077267536 0.64181823
-0.042809885 -0.0079517858 0.64212507
-0.038013052 -0.0070913332 0.64170009
-0.034960002 -0.006746667 0.64400005
-0.13064002 -0.00061333337 0.64400005
-0.12941334 -0.00061333337 0.64400005
-0.12240382 -0.0011390478 0.64400005
-0.11729799 -0.0015667726 0.64333338
-0.11245514 -0.0014280424 0.64211112
-0.10792509 -0.00061206357 0.6426667
-0.10292073 -0.0012259525 0.64325005
-0.097779214 -0.001834762 0.64166671
-0.093024768 -0.0028344591 0.64145464
-0.087977313 -0.0030560321 0.6415
-0.08302477 -0.0030536512 0.64100003
-0.078095362 -0.0036610716 0.64062506
-0.072829425 -0.0037263494 0.64022231
-0.06765715 -0.0042666672 0.64000005
-0.036646988 -0.0028495244 0.6413334
-0.13043717 0.0012238096 0.64300001
-0.1273811 0.0020930616 0.64171433
-0.12255075 0.0023192384 0.64146674
-0.1173788 0.0017197403 0.64099997
-0.11215238 0.00060952385 0.64000005
-0.10738724 0.00085466675 0.64140004
-0.10253382 0.0010166669 0.64083338
-0.098133348 0.00060952385 0.64000005
-0.13322681 0.018385446 0.64042866
-0.12982859 0.018895239 0.64000005
-0.13554667 0.020240001 0.64400005
-0.13210541 0.021558417 0.64366674
-0.12758827 0.022300798 0.6415
-0.12129524 0.024990479 0.64000005
-0.12720536 0.025392001 0.64400005
-0.12240364 0.027109442 0.64290917
-0.11741906 0.027952194 0.64080006
-0.11415906 0.029913336 0.64100003
-0.041512385 0.029913336 0.64100003
-0.039680954 0.029913336 0.64100003
-0.11770001 0.030650478 0.64366674
-0.11244754 0.032996107 0.64263642
-0.1076882 0.033821333 0.64100009
-0.10439143 0.034797147 0.64100003
-0.042383336 0.032930799 0.64033335
-0.039866671 0.031280003 0.64400005
-0.10754097 0.036664218 0.64314288
-0.1028623 0.037823413 0.64225006
-0.097895108 0.039140549 0.64071435
-0.043587621 0.038213909 0.64100003
-0.097381994 0.042465001 0.64308339
-0.09309449 0.043249723 0.64140004
-0.088755719 0.044224765 0.64050007
-0.043366354 0.043366354 0.64133334
-0.092613339 0.046000004 0.64400005
-0.087395653 0.04653633 0.64171433
-0.083136298 0.048389632 0.6413334
-0.078628585 0.049371433 0.64000005
-0.043772705 0.046217144 0.64133334
-0.081632622 0.051613577 0.64325005
-0.077032052 0.052578714 0.64192861
-0.072437622 0.053528104 0.64050001
-0.06765715 0.054247625 0.64000005
-0.046000004 0.053360008 0.64400005
-0.044160001 0.053973336 0.64400005
-0.076053336 0.055813339 0.64400005
-0.072233573 0.056317862 0.64275002
-0.067025319 0.057327617 0.64228576
-0.062665246 0.05814562 0.64129996
-0.058748256 0.058748256 0.64033341
-0.047076195 0.057468578 0.64200008
-0.044773336 0.055813339 0.64400005
-0.061875477 0.061568819 0.64325005
-0.057347119 0.062238924 0.64193338
-0.052629821 0.062677145 0.64084625
-0.04870921 0.061961275 0.64200008
-0.055813339 0.065626673 0.64400005
-0.052654408 0.066125363 0.64287502
-0.049680002 0.066240005 0.64400005
-0.040525716 -0.015840001 0.648
-0.037645716 -0.016045716 0.648
-0.077760011 -0.010491429 0.648
-0.073193155 -0.010738286 0.648
-0.066547617 -0.010475239 0.64700001
-0.062489055 -0.010894763 0.64750004
-0.05798905 -0.011104525 0.64775002
-0.05306441 -0.011106549 0.64787495
-0.04717217 -0.01157196 0.64700001
-0.042278919 -0.012039938 0.64713335
-0.037148576 -0.012214903 0.64694118
-0.033890478 -0.010475239 0.64700001
-0.12648207 -0.0061700009 0.64783335
-0.12229662 -0.006251974 0.64714289
-0.11761849 -0.0055422867 0.64660007
-0.11208108 -0.0061586904 0.64662504
-0.10715512 -0.006158215 0.64662498
-0.1024871 -0.0071331984 0.64714283
-0.097385541 -0.0066651953 0.64681816
-0.092632294 -0.0070225722 0.64669991
-0.087533705 -0.0075396434 0.64612502
-0.08261703 -0.0086320248 0.64737499
-0.077654645 -0.008628929 0.64712495
-0.072641313 -0.0086191678 0.646375
-0.067694135 -0.0088211121 0.64616668
-0.063065723 -0.0089742867 0.64539999
-0.057627305 -0.0088190492 0.64600003
-0.053186264 -0.0087038111 0.6461429
-0.049757145 -0.0092142867 0.64500004
-0.041771431 -0.0092142867 0.64500004
-0.036484763 -0.0088139689 0.64566672
-0.12741008 -0.0025518369 0.64628577
-0.12292895 -0.0033808334 0.64537501
-0.11796512 -0.0036865477 0.64512503
-0.11196318 -0.0034840214 0.64555562
-0.10718771 -0.002972302 0.64558333
-0.10228042 -0.0037753745 0.64528579
-0.097057149 -0.0043000001 0.64500004
-0.1358273 0.022740956 0.64533341
-0.13365929 0.023659289 0.64525002
-0.13545573 0.027095716 0.64649999
-0.13263513 0.027082974 0.64625007
-0.12787096 0.027664859 0.6455
-0.12408572 0.02887143 0.64500004
-0.13515429 0.030240001 0.648
-0.13206857 0.030857144 0.648
-0.12700129 0.030825397 0.64733338
-0.12259497 0.032036737 0.64685714
-0.11812572 0.032915954 0.64599997
-0.11487143 0.033785716 0.64500004
-0.040441908 0.033462226 0.64666671
-0.038448572 0.031664129 0.64766669
-0.12122215 0.035472143 0.64775002
-0.11681248 0.036103718 0.64689994
-0.11250874 0.037429616 0.64618182
-0.1075625 0.039183933 0.64537501
-0.10381429 0.039928574 0.64500004
-0.040114287 0.035177145 0.648
-0.11123429 0.040916514 0.64766669
-0.10725945 0.042534374 0.64724994
-0.10227151 0.042981993 0.64625001
-0.098490477 0.044433337 0.6450001
-0.10614859 0.045051433 0.648
-0.10244572 0.045668572 0.648
-0.09674149 0.047311008 0.64700001
-0.092369914 0.048648976 0.64658332
-0.0879796 0.04913171 0.64600003
-0.043900575 0.049312003 0.64560002
-0.091131434 0.051634293 0.648
-0.087156631 0.05240633 0.64736366
-0.082919896 0.053998217 0.64612502
-0.079242863 0.054671433 0.64500004
-0.044297144 0.051680006 0.64600003
-0.085782863 0.056160003 0.648
-0.082243823 0.056542546 0.64766669
-0.077468589 0.057641335 0.64660001
-0.072627857 0.059086196 0.64625001
-0.069414288 0.058971431 0.64500004
-0.046071433 0.057128575 0.64500004
-0.044228576 0.056514289 0.64500004
-0.072318695 0.061832979 0.64762497
-0.067687713 0.062089443 0.64663637
-0.063222319 0.063574158 0.64628577
-0.059585717 0.064500004 0.64500004
-0.061414294 0.066343181 0.64700001
-0.057826962 0.067584038 0.64646149
-0.052900597 0.068893693 0.64587498
-0.048524976 0.067827202 0.64677781
-0.053074289 0.070971437 0.648
-0.049988575 0.070971437 0.648
-0.082091436 -0.01554762 0.65300006
-0.0769981 -0.015523811 0.65200001
-0.07211262 -0.015541667 0.65275007
-0.068409532 -0.01554762 0.65300006
-0.062190481 -0.01554762 0.65300006
-0.056968994 -0.016504446 0.65255553
-0.052213341 -0.016783493 0.65266669
-0.047217622 -0.016774921 0.65233338
-0.042407051 -0.017237335 0.65100008
-0.036851056 -0.018116193 0.65140003
-0.033289526 -0.017577358 0.65133339
-0.10012668 -0.010572381 0.65300006
-0.096750624 -0.011105443 0.65300012
-0.092006668 -0.011190238 0.65275002
-0.086800113 -0.011808785 0.65255558
-0.082550757 -0.012414696 0.65171427
-0.077626988 -0.013007144 0.6503334
-0.072157003 -0.013021027 0.65100002
-0.067380212 -0.012680205 0.6516428
-0.062227625 -0.013438838 0.65122223
-0.057039052 -0.013640477 0.65100002
-0.051891327 -0.013438625 0.65122223
-0.047716197 -0.013633653 0.65066671
-0.043333337 -0.014238096 0.65000004
-0.033390615 -0.012664356 0.65100002
-0.12261172 -0.0084348312 0.6525715
-0.11761089 -0.0073572807 0.65142864
-0.11257127 -0.0084846048 0.65183336
-0.10796143 -0.0086873816 0.65150005
-0.1018362 -0.0093142865 0.65200001
-0.097806096 -0.0090495246 0.65080005
-0.092965007 -0.0092964293 0.65075004
-0.08852382 -0.0092857145 0.65000004
-0.13301155 0.033563931 0.65262502
-0.12794921 0.033279791 0.65111113
-0.13246574 0.035448574 0.65300006
-0.12709801 0.036438193 0.65290004
-0.12263833 0.037568573 0.65200007
-0.11812335 0.038617305 0.65050006
-0.040238097 0.036523812 0.65000004
-0.039000001 0.035904765 0.65000004
-0.12002762 0.04042381 0.65300006
-0.11652382 0.041623134 0.65228581
-0.11319357 0.042642381 0.65125006
-0.11177143 0.045329526 0.65200001
-0.10747632 0.046838697 0.65137506
-0.10313677 0.047974102 0.65080005
-0.09877643 0.048614047 0.65025008
-0.10510191 0.050374288 0.65300006
-0.10194033 0.051177777 0.65266675
-0.097621754 0.05191429 0.65149999
-0.093238577 0.052814767 0.6505
-0.089142859 0.053857148 0.65000004
-0.095736913 0.055950243 0.65275002
-0.092095934 0.056636199 0.65218186
-0.087596588 0.056952961 0.65140003
-0.083177917 0.058386672 0.65080005
-0.079857148 0.058809526 0.65000004
-0.081771433 0.061173338 0.6525715
-0.077520013 0.062017467 0.65116674
-0.073704451 0.06338191 0.6503334
-0.068714291 0.063761912 0.65000004
-0.075872391 0.065300003 0.65300006
-0.071804196 0.066587441 0.65219998
-0.067191325 0.066900566 0.65147066
-0.062565587 0.068228714 0.65042865
-0.058809526 0.069952384 0.65000004
-0.047154762 0.069491908 0.65150005
-0.066510484 0.070239365 0.65266675
-0.062402319 0.070924498 0.65242863
-0.056796908 0.072468571 0.65175003
-0.052030124 0.073090129 0.65037507
-0.047795556 0.072350696 0.6517778
-0.056261193 0.07553263 0.65275007
-0.05201957 0.076307535 0.6523636
-0.048334528 0.076620966 0.65275002
-0.071440004 -0.020680001 0.65800005
-0.067888901 -0.021097779 0.65800005
-0.063920006 -0.020680001 0.65800005
-0.057026669 -0.020680001 0.65800005
-0.052640002 -0.020680001 0.65800005
-0.04762667 -0.020680001 0.65800005
-0.042613339 -0.020680001 0.65800005
-0.036762998 -0.021557011 0.65742862
-0.032392751 -0.022093847 0.65700006
-0.029363811 -0.020617144 0.65600002
-0.10214667 -0.015666667 0.65800005
-0.097219847 -0.016064288 0.65716672
-0.092561565 -0.016783724 0.65709096
-0.087666668 -0.017534288 0.65749991
-0.082626596 -0.018153733 0.65725011
-0.077588901 -0.018147305 0.65700006
-0.072481833 -0.018121667 0.65608341
-0.067303345 -0.017764425 0.65607148
-0.062476512 -0.018119207 0.65600008
-0.057670757 -0.018629391 0.6551429
-0.05242072 -0.019345477 0.65525007
-0.047409527 -0.019338097 0.65500003
-0.043109845 -0.01936762 0.65600002
-0.031190477 -0.018714286 0.65500003
-0.029408574 -0.019397143 0.65700001
-0.12147465 -0.012039643 0.65662503
-0.1178183 -0.012396444 0.65733343
-0.11281559 -0.011778009 0.65709096
-0.10746504 -0.012387559 0.65680003
-0.10266986 -0.012632383 0.65653336
-0.097671539 -0.013537356 0.65600002
-0.092376314 -0.013732025 0.65537506
-0.088158578 -0.013755715 0.65650004
-0.12111096 -0.0093642864 0.65550005
-0.11727621 -0.0093571432 0.65500003
-0.11415715 -0.0093571432 0.65500003
-0.13536668 0.035557143 0.65500003
-0.13220643 0.038090389 0.65563649
-0.12777065 0.038914129 0.65550005
-0.1241381 0.039300002 0.65500003
-0.13216954 0.041431841 0.65771431
-0.12753654 0.042304564 0.65735716
-0.12269125 0.04264909 0.65660012
-0.11820737 0.043447357 0.65571433
-0.12213874 0.045723494 0.65766668
-0.11744314 0.047407486 0.65742862
-0.11277298 0.047988646 0.65700006
-0.10886192 0.048914608 0.65566671
-0.11280001 0.050760005 0.65800005
-0.10748294 0.052385163 0.6574167
-0.1029106 0.053563692 0.65587503
-0.098561913 0.054271434 0.65500003
-0.10211451 0.056652911 0.6568889
-0.097792707 0.05740032 0.65588892
-0.092571199 0.059420243 0.65675002
-0.088649049 0.059307143 0.65550005
-0.095880009 0.06141334 0.65800005
-0.092507102 0.061601486 0.65777785
-0.087559119 0.062543519 0.6566875
-0.082937382 0.063570239 0.65600008
-0.079223812 0.064252384 0.65500003
-0.086480007 0.065800004 0.65800005
-0.082156673 0.067332864 0.65766668
-0.077742666 0.067824423 0.65678579
-0.073347434 0.068849146 0.65600002
-0.045607623 0.069348574 0.65600002
-0.044425718 0.06945429 0.65700001
-0.077080011 0.070813343 0.65800011
-0.072208576 0.070956387 0.65700001
-0.067543343 0.072860166 0.65666676
-0.062428579 0.073666193 0.65550005
-0.058876194 0.073855244 0.6553334
-0.045857146 0.07259734 0.65600008
-0.04421562 0.072273903 0.65760005
-0.067053348 0.076453343 0.65800005
-0.062271215 0.077298038 0.65738469
-0.05788675 0.07812041 0.65708339
-0.052807432 0.079022668 0.65539998
-0.046405241 0.077969052 0.65625006
-0.044493336 0.076453343 0.65800005
-0.056775998 0.081341334 0.65800005
-0.052397583 0.081867196 0.65709096
-0.048168711 0.081414975 0.65685719
-0.066931434 -0.025888573 0.66300005
-0.056197148 -0.025888573 0.66300005
-0.052735515 -0.026413064 0.66257155
-0.048237965 -0.026418639 0.66271436
-0.042921431 -0.026510239 0.66275007
-0.037771642 -0.026699895 0.66222227
-0.033245243 -0.026628574 0.66175008
-0.028641148 -0.026370287 0.66240007
-0.095345721 -0.020837145 0.66300005
-0.092188574 -0.020837145 0.66300005
-0.087072387 -0.02082143 0.66250002
-0.081677385 -0.021918096 0.6622501
-0.07751663 -0.022058964 0.66172743
-0.072649449 -0.022784367 0.66141671
-0.067638628 -0.023433335 0.66100007
-0.062850483 -0.022826008 0.66146153
-0.057838462 -0.022545569 0.66176939
-0.05290056 -0.023302143 0.66125017
-0.047855556 -0.023299208 0.66116667
-0.04280778 -0.023293493 0.66100013
-0.038368896 -0.023413125 0.6604445
-0.033314288 -0.024514288 0.66000003
-0.028783973 -0.023742702 0.66183341
-0.11632656 -0.016844407 0.661125
-0.11219303 -0.017503874 0.66106671
-0.10721966 -0.017117664 0.66118193
-0.10268944 -0.017137809 0.6615001
-0.098066784 -0.018418454 0.661125
-0.093154304 -0.019234288 0.66000003
-0.11565715 -0.014457144 0.66000003
-0.11179372 -0.014210097 0.66020006
-0.13268627 0.043929532 0.66028577
-0.12885715 0.044628575 0.66000003
-0.13151735 0.046529908 0.66200006
-0.12703483 0.047274634 0.66181821
-0.122402 0.048628315 0.66154557
-0.12179277 0.052377146 0.6626001
-0.11728897 0.053038929 0.66140008
-0.11215049 0.053587716 0.66054553
-0.10874286 0.054685719 0.66000003
-0.11696636 0.056589842 0.66266674
-0.11211499 0.057290744 0.66236377
-0.10722653 0.058000293 0.6613847
-0.10279572 0.059161119 0.66083336
-0.098057151 0.059714291 0.66000003
-0.10608001 0.061248574 0.66300005
-0.10201239 0.062049415 0.66255563
-0.097302191 0.063145243 0.66170013
-0.092736199 0.064298481 0.66060007
-0.096292868 0.066300005 0.66300005
-0.091878273 0.067690566 0.66200018
-0.087835334 0.06815204 0.66090918
-0.084575012 0.068855003 0.66025007
-0.090294294 0.071351431 0.66300005
-0.086614646 0.072100371 0.66262507
-0.082072742 0.072307505 0.66162503
-0.077749424 0.072852485 0.66133338
-0.072778419 0.07361757 0.6606667
-0.069771431 0.074800007 0.66000003
-0.042185597 0.073038936 0.66112506
-0.080822863 0.075771436 0.66300005
-0.076759577 0.075918742 0.66244453
-0.071928099 0.076976672 0.66250008
-0.067632012 0.078462481 0.66120005
-0.064323813 0.079409525 0.66000003
-0.043457784 0.077258423 0.66133344
-0.066232704 0.081373021 0.66233337
-0.062612765 0.082393147 0.66140014
-0.058558375 0.083025865 0.66114295
-0.053225715 0.084682874 0.66060007
-0.047542587 0.083672665 0.66057146
-0.044763811 0.083853342 0.66200006
-0.061248574 0.08524286 0.66300005
-0.057783678 0.085728988 0.66257155
-0.050971434 -0.031220002 0.66900003
-0.047021147 -0.031474859 0.66900009
-0.041988574 -0.031810477 0.6680001
-0.031220002 -0.031857144 0.66900003
-0.028282316 -0.031739458 0.66842866
-0.10622083 -0.027761227 0.66900009
-0.10258001 -0.026122859 0.66900003
-0.092385724 -0.026441431 0.66900003
-0.087892622 -0.026750239 0.66875005
-0.082960144 -0.026624355 0.66785729
-0.077615239 -0.026720952 0.66799998
-0.072303303 -0.027223812 0.6675455
-0.06715256 -0.028468577 0.66690916
-0.062207621 -0.027296349 0.66649997
-0.057206817 -0.028093411 0.66684622
-0.052012146 -0.029177861 0.66600001
-0.047095001 -0.029019525 0.66600001
-0.042822592 -0.029062042 0.66542858
-0.038131434 -0.029255785 0.66571438
-0.032500837 -0.02901393 0.66587496
-0.028056432 -0.02869143 0.66575003
-0.11077954 -0.022284288 0.66850007
-0.10726614 -0.022818374 0.66814291
-0.10252439 -0.022846544 0.66753334
-0.097815864 -0.022868369 0.66692871
-0.092652395 -0.023481429 0.66633332
-0.087531433 -0.023469841 0.66600001
-0.083074152 -0.024007756 0.66585714
-0.077325717 -0.024718571 0.66550004
-0.074100003 -0.024700001 0.66500002
-0.061433338 -0.024700001 0.66500002
-0.058900002 -0.024700001 0.66500002
-0.11083334 -0.019633334 0.66500002
-0.10774668 -0.019648096 0.66550004
-0.10267811 -0.019648097 0.66550004
-0.13183287 0.048803337 0.66550004
-0.12920001 0.048766669 0.66500002
-0.13148476 0.052072704 0.66766673
-0.12771913 0.052020084 0.66608334
-0.12440699 0.053438097 0.66533339
-0.13252573 0.055431433 0.66900003
-0.12581682 0.055800956 0.66833341
-0.12264583 0.056642983 0.66637504
-0.11828129 0.058507305 0.66533339
-0.11463334 0.058900002 0.66500002
-0.11685201 0.061293151 0.66900009
-0.11268581 0.062137075 0.66730767
-0.10821776 0.062786758 0.66590911
-0.10323334 0.063966677 0.66500008
-0.11150001 0.06562572 0.66900003
-0.10726764 0.066507906 0.6687144
-0.10248814 0.067072466 0.66776925
-0.098157145 0.06771715 0.66588891
-0.094508581 0.069137149 0.66600001
-0.097112201 0.071148001 0.66820014
-0.09268824 0.072245121 0.667
-0.088417158 0.073839054 0.66549999
-0.0836 0.074100003 0.66500002
-0.087306194 0.076074138 0.66750002
-0.082677998 0.077597782 0.66722226
-0.077621505 0.07870885 0.66571426
-0.072645724 0.078984775 0.6656
-0.04065524 0.075593337 0.66700006
-0.077230483 0.081261277 0.66833341
-0.072239503 0.082317144 0.66761541
-0.06793163 0.08316686 0.66659999
-0.044966668 0.081700005 0.66500002
-0.012196192 -0.040440004 0.67400002
-0.047500957 -0.035304762 0.67400002
-0.042365719 -0.035304762 0.67400002
-0.036882859 -0.036080956 0.67349994
-0.032101646 -0.036414031 0.67290908
-0.027431963 -0.036268361 0.67333329
-0.023750478 -0.035304762 0.67400002
-0.012196192 -0.039156195 0.67400002
-0.091656193 -0.030766666 0.67300004
-0.087104931 -0.030743655 0.67250001
-0.082299061 -0.031278964 0.67272729
-0.077660486 -0.031219143 0.6717
-0.072977625 -0.032329846 0.67216671
-0.067840636 -0.032642223 0.67200005
-0.062954716 -0.032224555 0.67222226
-0.057821911 -0.031792909 0.67211109
-0.052550055 -0.032784343 0.67199993
-0.047371432 -0.033315107 0.67085719
-0.042225003 -0.033907384 0.67175007
-0.037037462 -0.032568097 0.67050004
-0.032578096 -0.032899763 0.67074996
-0.026751241 -0.033664763 0.67200005
-0.02435524 -0.031406671 0.67300004
-0.11119477 -0.026840478 0.671
-0.10815715 -0.026480956 0.67000002
-0.1023841 -0.027675243 0.67128581
-0.097250305 -0.027514098 0.67180008
-0.093089215 -0.027905716 0.671
-0.088057153 -0.028714288 0.67000002
-0.082569532 -0.028459052 0.67000002
-0.077847622 -0.028714288 0.67000002
-0.072742864 -0.029671431 0.67000002
-0.069552384 -0.029990477 0.67000002
-0.062533341 -0.029990477 0.67000002
-0.025786035 -0.028768893 0.67133343
-0.024234287 -0.027569145 0.67320007
-0.11102858 -0.02424762 0.67000002
-0.10911429 -0.024885716 0.67000002
-0.024533337 -0.02410667 0.67200011
-0.13336192 0.053600006 0.67000002
-0.13215259 0.057795558 0.67177784
-0.12815364 0.057859711 0.671
-0.12327494 0.059401911 0.67066669
-0.13133372 0.061494481 0.67400002
-0.12725763 0.06194381 0.67400002
-0.12247187 0.062314637 0.67327267
-0.11775968 0.063245192 0.6707778
-0.11626667 0.066347942 0.67200011
-0.11253604 0.067988835 0.67172736
-0.10774913 0.069182046 0.67171437
-0.10337143 0.069552384 0.67000002
-0.11104953 0.07125143 0.67400002
-0.10722409 0.071573757 0.67185718
-0.10228628 0.072240718 0.67125005
-0.097364455 0.073929735 0.67111111
-0.093940005 0.074768573 0.671
-0.10142096 0.075102866 0.67400002
-0.09704636 0.076739058 0.67333335
-0.092335768 0.077557407 0.67200005
-0.087901667 0.078313097 0.67125005
-0.084228575 0.07912381 0.67000002
-0.041919328 0.078636073 0.67128581
-0.04224889 -0.041171115 0.67900002
-0.037390754 -0.04126858 0.67857146
-0.032286189 -0.041973021 0.67799997
-0.027122464 -0.041977864 0.67808336
-0.023274129 -0.042023338 0.67883337
-0.012759049 -0.042917527 0.67659998
-0.086653337 -0.035566669 0.67900002
-0.082727984 -0.036193691 0.67862499
-0.077779464 -0.036076058 0.67814285
-0.072015092 -0.035901748 0.6771667
-0.067258537 -0.036885895 0.67727274
-0.06232829 -0.036263909 0.67750001
-0.057332251 -0.036468036 0.67857146
-0.053061988 -0.03698184 0.67753851
-0.047765486 -0.038085006 0.67775005
-0.042528339 -0.038018972 0.67658341
-0.037642024 -0.038446791 0.67562509
-0.03202362 -0.038968764 0.67520005
-0.026380004 -0.038512792 0.67557156
-0.022462666 -0.037181906 0.6778
-0.10712305 -0.031401142 0.67840004
-0.10233722 -0.032178979 0.67764294
-0.097682782 -0.031430993 0.67600012
-0.093352392 -0.032191433 0.67600006
-0.087931961 -0.0333254 0.67722219
-0.082795054 -0.033864766 0.67600006
-0.077142864 -0.034071431 0.67500001
-0.06235715 -0.034071431 0.67500007
-0.05792072 -0.034109287 0.67575008
-0.05464286 -0.034071431 0.67500001
-0.021755761 -0.032431256 0.67736369
-0.10164715 -0.028950002 0.67550004
-0.099642865 -0.028928574 0.67500001
-0.022500001 -0.026357144 0.67500001
-0.1305 0.063642859 0.67500001
-0.12750001 0.063642859 0.67500007
-0.12214287 0.064928576 0.67500001
-0.12674667 0.065313339 0.67900002
-0.12234686 0.067357585 0.67709094
-0.1183335 0.068080485 0.67650002
-0.12185215 0.070784055 0.67875004
-0.11728334 0.071835563 0.67850006
-0.11300021 0.072966486 0.67799997
-0.10808001 0.073661909 0.67550004
-0.037381146 -0.046498477 0.68380004
-0.032535955 -0.046851911 0.68325007
-0.027340002 -0.046869051 0.68350005
-0.022786288 -0.046745524 0.68360007
-0.014960953 -0.04683524 0.68300003
-0.086875618 -0.041288577 0.68380004
-0.082034647 -0.041668933 0.68362498
-0.077214479 -0.041537147 0.68360007
-0.072896585 -0.042046104 0.68340009
-0.06771107 -0.041668933 0.68362504
-0.062026195 -0.04183929 0.68375003
-0.05691088 -0.042385317 0.68291676
-0.05224558 -0.042950891 0.68328577
-0.047620006 -0.042726669 0.68207699
-0.04312953 -0.043779243 0.68200004
-0.037689421 -0.043887939 0.68100005
-0.032452859 -0.044784289 0.68150002
-0.027260479 -0.044784289 0.68150008
-0.021318953 -0.04329 0.68250006
-0.017735649 -0.042987082 0.6824286
-0.014604286 -0.043809049 0.68150002
-0.11123143 -0.036968581 0.68400002
-0.10758988 -0.037600435 0.68390912
-0.10302571 -0.036655981 0.68322229
-0.097272947 -0.036326539 0.68285722
-0.092238478 -0.037286814 0.68315393
-0.087520696 -0.038185805 0.68163645
-0.082721367 -0.038814425 0.68085712
-0.077700965 -0.038743287 0.68177783
-0.072727814 -0.038503051 0.68059999
-0.067352384 -0.039504763 0.68000001
-0.062210076 -0.039032657 0.68142867
-0.057931811 -0.03900991 0.68040007
-0.052457146 -0.039504763 0.68000001
-0.020606097 -0.038491812 0.68040007
-0.01886381 -0.03967905 0.68300003
-0.11530287 -0.033222858 0.68400002
-0.11264255 -0.033858102 0.68366671
-0.10790119 -0.033800479 0.68250006
-0.10457334 -0.034424763 0.68200004
-0.097287625 -0.034374289 0.68100005
-0.092700325 -0.034357466 0.68066669
-0.13334763 0.064397149 0.68300003
-0.13246907 0.067374296 0.68350005
-0.12785549 0.068092734 0.682091
-0.12499049 0.068000004 0.68000001
-0.085960954 -0.045277145 0.68900001
-0.082023822 -0.045277145 0.68900001
-0.077263333 -0.045178574 0.6875
-0.07224112 -0.045834765 0.6875
-0.068094768 -0.045616038 0.6875
-0.062466353 -0.045648895 0.68800008
-0.057894699 -0.04592273 0.68742865
-0.051943652 -0.046489052 0.6875
-0.04707361 -0.047074694 0.68785727
-0.042559527 -0.04714429 0.68750012
-0.037984446 -0.048465401 0.68766677
-0.032809526 -0.049214289 0.68900001
-0.027560003 -0.049214289 0.68900001
-0.02180218 -0.048375793 0.68771434
-0.017825359 -0.046610363 0.6868751
-0.11147477 -0.041517146 0.68650007
-0.10755974 -0.041772522 0.68685716
-0.10258445 -0.04090254 0.68900001
-0.096678734 -0.041996192 0.68900007
-0.092570864 -0.042423438 0.68740004
-0.087863676 -0.043231566 0.68628579
-0.08234977 -0.043789286 0.68625003
-0.078102149 -0.043462623 0.68625009
-0.073173337 -0.043773334 0.68600005
-0.067995243 -0.043805238 0.68650001
-0.063723579 -0.043462623 0.68625009
-0.059453338 -0.043773334 0.68600005
-0.11307431 -0.038562454 0.68628579
-0.10584 -0.039853334 0.68600005
-0.10226329 -0.039131299 0.68642867
-0.097635411 -0.038793176 0.68650007
-0.093426675 -0.039853334 0.68600005
-0.033465717 0.059713338 0.68900001
-0.033903178 0.061463185 0.68900001
-0.061468579 -0.050893337 0.69400001
-0.057502862 -0.050893337 0.69400001
-0.052464951 -0.05114305 0.69380003
-0.047353443 -0.051758312 0.69377786
-0.042250641 -0.05215349 0.69316673
-0.037547618 -0.05204222 0.69166672
-0.032932311 -0.052035801 0.6915834
-0.027669765 -0.052048497 0.69175005
-0.022464985 -0.052287403 0.69223082
-0.017543143 -0.051972099 0.6925
-0.10707429 -0.045605719 0.69400001
-0.10244763 -0.045605719 0.69400001
-0.09743724 -0.046711002 0.69254547
-0.092232786 -0.046777867 0.69175005
-0.087370761 -0.047118768 0.6929
-0.082620583 -0.047835816 0.6918
-0.077721037 -0.048083894 0.69158334
-0.072603077 -0.048574924 0.69233334
-0.066950195 -0.04836943 0.69190007
-0.062444288 -0.048606671 0.69200003
-0.057689261 -0.048656873 0.69171435
-0.052962724 -0.048824493 0.6914286
-0.047556955 -0.049137145 0.69160002
-0.042073097 -0.049303576 0.69025004
-0.017097145 -0.049321428 0.69050002
-0.1112181 -0.044092383 0.69100004
-0.10762554 -0.043867815 0.69160002
-0.10248933 -0.043078672 0.69160002
-0.098376356 -0.043163024 0.69016671
-0.032200001 0.059800003 0.69000006
-0.027255241 -0.060493339 0.69800001
-0.023931429 -0.060493339 0.69800001
-0.062443815 -0.055135719 0.69749999
-0.058499053 -0.055175241 0.69800001
-0.051814765 -0.055135719 0.69749999
-0.047688957 -0.056855243 0.69740003
-0.042737335 -0.057470858 0.69680005
-0.037173335 -0.056423813 0.69700003
-0.032218099 -0.05679667 0.69749999
-0.027688142 -0.057610046 0.69672734
-0.022737579 -0.057601474 0.69663644
-0.017269287 -0.057454526 0.69741666
-0.10569715 -0.05118667 0.69800001
-0.10237334 -0.05118667 0.69800001
-0.095725723 -0.05118667 0.69800001
-0.092401914 -0.051186673 0.69800007
-0.087685719 -0.051814765 0.69749999
-0.082327507 -0.05178703 0.69712502
-0.077125601 -0.052248694 0.69662499
-0.072912857 -0.051703334 0.69600004
-0.06734629 -0.0521021 0.6960001
-0.062480323 -0.052766036 0.69544452
-0.057253201 -0.053091023 0.6955716
-0.052978098 -0.052978098 0.69533342
-0.047524761 -0.054143813 0.69500011
-0.042361908 -0.0549381 0.69500005
-0.037066668 -0.0549381 0.69500005
-0.032433338 -0.0549381 0.69500005
-0.027800003 -0.0549381 0.69500005
-0.022284128 -0.0549381 0.69500005
-0.016829906 -0.054204762 0.69580001
-0.10725382 -0.048330959 0.69516677
-0.10252201 -0.048543528 0.69630009
-0.098207392 -0.049436904 0.69675004
-0.092866197 -0.049750004 0.69650006
-0.087371431 -0.049642861 0.69500005
-0.027880002 0.037837144 0.69700003
-0.051602863 -0.060984448 0.70366669
-0.047480162 -0.061524294 0.70216674
-0.04273393 -0.061432742 0.70112503
-0.037486076 -0.061585601 0.70287502
-0.032339323 -0.06152926 0.70114291
-0.027764494 -0.062116064 0.70128578
-0.022708572 -0.062112626 0.70125008
-0.017362857 -0.061443578 0.70125008
-0.0127327 -0.061654925 0.70366669
-0.097173661 -0.055623174 0.70366669
-0.092363581 -0.055550717 0.70275003
-0.087068342 -0.05626072 0.70325005
-0.082260966 -0.056848049 0.70222223
-0.077553347 -0.056830477 0.70200002
-0.072125807 -0.056789357 0.70300007
-0.067526668 -0.057499692 0.70200008
-0.062844455 -0.058167621 0.70200008
-0.057322949 -0.05754739 0.70258343
-0.052428018 -0.057993732 0.70125008
-0.048000004 -0.059333336 0.70000005
-0.041333336 -0.059333336 0.70000005
-0.037366312 -0.058719408 0.70062506
-0.032943051 -0.058816958 0.70020002
-0.030000001 -0.059333336 0.70000005
-0.020666668 -0.059333336 0.70000005
-0.015333334 -0.059333336 0.70000005
-0.012309729 -0.05726606 0.70150006
-0.10184877 -0.053261716 0.70080006
-0.097781628 -0.053033054 0.70130008
-0.092777625 -0.053397622 0.70083344
-0.088 -0.054000005 0.70000005
-0.082666673 -0.054000005 0.70000005
-0.078666672 -0.054000005 0.70000005
-0.072025485 -0.054019291 0.70025003
-0.068666674 -0.054000005 0.70000005
-0.012291503 -0.052514222 0.70207703
-0.013161271 -0.048405081 0.7026667
-0.027333334 0.039333336 0.70000005
-0.027906099 0.041794479 0.70100009
-0.052594289 -0.065405719 0.708
-0.036136195 -0.065760963 0.70700002
-0.031901911 -0.065824136 0.70766675
-0.027619686 -0.066692062 0.70733339
-0.023168955 -0.066410288 0.70719999
-0.017524764 -0.066056907 0.70775008
-0.012062224 -0.066304766 0.70800006
-0.10046858 -0.060011432 0.708
-0.097097151 -0.060685724 0.70800006
-0.092377149 -0.060011432 0.70800006
-0.088331431 -0.060011432 0.70800006
-0.082185403 -0.061751753 0.70733345
-0.077123575 -0.061632149 0.70725
-0.072771437 -0.061990961 0.70750004
-0.0672381 -0.061860006 0.70599997
-0.062171437 -0.062173888 0.70628566
-0.057671174 -0.06244313 0.70636362
-0.05267778 -0.062991008 0.70611107
-0.047167148 -0.064011909 0.70749998
-0.04242 -0.063966677 0.70700002
-0.037681431 -0.063921437 0.70650005
-0.032228574 -0.063785717 0.70500004
-0.027528573 -0.063785717 0.70500004
-0.021485716 -0.063785717 0.70500004
-0.017480001 -0.063876189 0.70600003
-0.011437144 -0.063234925 0.70633334
-0.0079933349 -0.062117971 0.70785719
-0.10088144 -0.057167463 0.70616668
-0.097495243 -0.057825726 0.70600003
-0.093027629 -0.058059163 0.70611107
-0.087031819 -0.058783051 0.7062
-0.082585722 -0.059757151 0.7050001
-0.077885717 -0.059757147 0.70500004
-0.072917148 -0.059488576 0.70500004
-0.05774286 -0.059757147 0.70500004
-0.010071429 -0.059085719 0.70500004
-0.008425477 -0.056957386 0.70774996
-0.010991747 -0.050923817 0.70666665
-0.0087502385 -0.052499291 0.70675004
-0.011454763 -0.048513815 0.70749998
-0.026857145 0.044985719 0.70500004
-0.026939526 0.047817618 0.70716667
-0.024936829 0.047401588 0.70766675
-0.051000003 -0.070040002 0.71400005
-0.046920002 -0.070946671 0.71400011
-0.041927092 -0.071993336 0.713889
-0.037550356 -0.07255251 0.71362507
-0.032685082 -0.072239585 0.71333337
-0.027172145 -0.072005011 0.71325004
-0.022401145 -0.071823619 0.71280003
-0.017637143 -0.071904525 0.71224999
-0.011938954 -0.072317243 0.71230018
-0.0076697962 -0.07232859 0.71357143
-0.0047600004 -0.070720002 0.71400005
-0.097240008 -0.065960005 0.71400005
-0.08228001 -0.065960005 0.71400011
-0.076840006 -0.065960005 0.71400011
-0.072692707 -0.065898418 0.71333337
-0.06790477 -0.065867625 0.71300006
-0.062048007 -0.066121146 0.71280003
-0.056690887 -0.066772521 0.71228576
-0.052345954 -0.06725572 0.71150005
-0.047372386 -0.067606293 0.71126682
-0.042468339 -0.067772314 0.7115835
-0.038153812 -0.067957953 0.71116674
-0.032774478 -0.068663441 0.71100003
-0.027085718 -0.069745719 0.71100003
-0.022056002 -0.06914591 0.71040004
-0.017587621 -0.068995953 0.71025002
-0.012270069 -0.069082044 0.71014291
-0.0074519841 -0.067755811 0.71141672
-0.004412143 -0.066864051 0.71275002
-0.10142858 -0.061533336 0.71000004
-0.097763501 -0.063447088 0.71122229
-0.092600003 -0.062637143 0.71100003
-0.08743941 -0.063041471 0.71172738
-0.08229696 -0.063859999 0.71180004
-0.077682547 -0.063907944 0.71133339
-0.072454289 -0.064328574 0.71100008
-0.067666203 -0.064283341 0.7105
-0.062915877 -0.064268261 0.71033335
-0.0066283816 -0.06209239 0.71020001
-0.0039767353 -0.062375378 0.71300012
-0.0069873026 -0.058377784 0.71000004
-0.0040766671 -0.059118576 0.71350002
-0.0074695242 -0.050928574 0.71300006
-0.010153572 -0.047382623 0.71074998
-0.0085481908 -0.047898673 0.71240002
-0.010195239 -0.042819373 0.7136668
-0.0088400003 -0.043520004 0.71400005
-0.023800002 0.034680001 0.71400005
-0.025042541 0.042639367 0.71066666
-0.047412388 -0.076358736 0.71800005
-0.042337146 -0.075797148 0.71700001
-0.038294286 -0.075902864 0.71800005
-0.032868572 -0.076008573 0.71900004
-0.027390476 -0.076008573 0.71900004
-0.022845145 -0.076471813 0.71820009
-0.017754287 -0.075797148 0.71700001
-0.01230762 -0.075902857 0.71800005
-0.0075323819 -0.076008573 0.71900004
-0.095732391 -0.070432387 0.71800005
-0.093127623 -0.070530482 0.71900004
-0.076693341 -0.070530482 0.71900004
-0.072584771 -0.070530482 0.71900004
-0.067106672 -0.070530482 0.71900004
-0.06205596 -0.071630239 0.71800005
-0.057224941 -0.071640708 0.71763641
-0.052778222 -0.071910135 0.71737498
-0.048066955 -0.073329806 0.71689999
-0.042975005 -0.074012622 0.71625006
-0.036140956 -0.074327625 0.71600002
-0.032518417 -0.074362233 0.71633339
-0.027285956 -0.074353576 0.71625006
-0.02251024 -0.074012622 0.71625
-0.017729525 -0.074327625 0.71600002
-0.013638096 -0.074327625 0.71600002
-0.006819048 -0.074327625 0.71600002
-0.0041011907 -0.073826909 0.71775007
-0.095974058 -0.067969292 0.71724999
-0.092763469 -0.067539923 0.71763641
-0.087477073 -0.067659304 0.71758336
-0.082333207 -0.068466268 0.71785718
-0.077805124 -0.067909174 0.71662503
-0.07233239 -0.068238579 0.71650004
-0.067555726 -0.068238579 0.71650004
-0.063027486 -0.068287902 0.71600002
-0.058323577 -0.068555482 0.71625006
-0.092057154 -0.064780965 0.71600002
-0.0034142858 -0.06487143 0.71700001
-0.0071664294 -0.046758339 0.71675003
-0.0072404775 -0.042080481 0.71730006
-0.0047866674 -0.043764763 0.71800005
-0.0075142868 -0.038258098 0.71733332
-0.025230478 0.034777146 0.71600002
-0.021835715 0.034801431 0.71650004
-0.022557674 0.037598949 0.71777779
-0.022722859 -0.08056286 0.72300005
-0.090891436 -0.075054288 0.72300005
-0.072300002 -0.075054288 0.72300005
-0.067066856 -0.075329714 0.72300005
-0.062660009 -0.076660953 0.72300005
-0.057840005 -0.076890476 0.72300005
-0.052564498 -0.077127486 0.72214293
-0.048820954 -0.077700958 0.72200006
-0.042542383 -0.077539526 0.72050005
-0.037004001 -0.077447437 0.7222001
-0.032483932 -0.077861078 0.72187507
-0.027485715 -0.078335725 0.72150004
-0.022348572 -0.07873334 0.72200006
-0.017865717 -0.078335725 0.72150004
-0.012364049 -0.077620246 0.72125006
-0.007559048 -0.077665083 0.72166675
-0.0048166672 -0.077067152 0.72250009
-0.095314294 -0.072000004 0.72000003
-0.091986679 -0.072767243 0.7208001
-0.087529145 -0.072004385 0.72140008
-0.082485795 -0.072176918 0.72175002
-0.07750167 -0.072692148 0.72175002
-0.072577015 -0.072775923 0.72185725
-0.067351796 -0.072850361 0.72162509
-0.06251429 -0.074424133 0.72133344
-0.058076192 -0.074551627 0.7208001
-0.052800007 -0.074742869 0.72000003
-0.0061714291 -0.04731429 0.72000003
-0.0048100003 -0.046727147 0.72150004
-0.010778096 -0.021784445 0.72233343
-0.011017144 -0.018132385 0.72300005
-0.025688574 -0.085397147 0.72900003
-0.022448573 -0.085397147 0.72900003
-0.017344762 -0.085685715 0.72850001
-0.012497143 -0.085397147 0.72900003
-0.0076371431 -0.085397147 0.72900003
-0.0030730618 -0.085958794 0.72871435
-0.067345716 -0.081231438 0.72900003
-0.062485717 -0.081231438 0.72900003
-0.057625722 -0.08192572 0.72900003
-0.052729528 -0.081870005 0.72850007
-0.047663338 -0.081675723 0.72883338
-0.04206248 -0.081764579 0.7288
-0.037168477 -0.082241811 0.7281
-0.032525118 -0.082180128 0.72662503
-0.02767667 -0.082339063 0.72649997
-0.022062685 -0.082407281 0.72600001
-0.017277146 -0.082243294 0.7256667
-0.012446351 -0.082281284 0.72600001
-0.0076107946 -0.082331218 0.72644442
-0.002769683 -0.082469046 0.72766674
0.00069428579 -0.083314285 0.72900003
-0.091557145 -0.077195249 0.72500002
-0.08728572 -0.076855943 0.72581816
-0.08257886 -0.076633342 0.72620004
-0.077484369 -0.076794684 0.72641671
-0.072442867 -0.078401536 0.72720003
-0.067759246 -0.078133337 0.72600001
-0.062762864 -0.079391442 0.7274
-0.057744194 -0.07907144 0.72699994
-0.052620955 -0.079623818 0.727
-0.047113813 -0.07967858 0.72750008
-0.042255875 -0.079660326 0.72733343
-0.037312385 -0.079459526 0.72549999
-0.012428572 -0.079404764 0.72500002
-0.0075952387 -0.079404764 0.72500008
-0.0032295245 -0.078701913 0.727
-0.0048400005 -0.049091432 0.72600001
-0.0048333337 -0.03107143 0.72500002
-0.0069428575 -0.025688574 0.72900003
-0.0043866676 -0.027244447 0.72733343
-0.013119048 -0.020023812 0.72500002
-0.0076154768 -0.022155002 0.72691673
-0.0038628581 -0.022880001 0.7280001
-0.010357143 -0.018642858 0.72500002
-0.007623916 -0.017328465 0.7277779
-0.0048533338 -0.015946668 0.72800004
-0.0090257153 -0.014580001 0.72900003
-0.023068573 -0.090177149 0.73400003
-0.014680001 -0.090177149 0.73400003
-0.0076895244 -0.090177149 0.73400009
-0.0034952383 -0.090177149 0.73400009
-0.060817149 -0.085982859 0.73400003
-0.057121146 -0.086168766 0.73320001
-0.052092578 -0.086448386 0.73320001
-0.047311526 -0.08694829 0.73270005
-0.042728812 -0.087029532 0.73250002
-0.037670955 -0.087204292 0.73250008
-0.032404628 -0.086647898 0.73285717
-0.027602043 -0.086796872 0.73242867
-0.022235239 -0.087621912 0.7321111
-0.017419048 -0.087931819 0.73160005
-0.012540001 -0.087780483 0.73149997
-0.0076633338 -0.087780491 0.73150009
-0.0023700956 -0.088234484 0.73180008
0.0018957825 -0.086846806 0.73285717
-0.08796975 -0.081151336 0.73244447
-0.082275838 -0.08088322 0.73212498
-0.077264763 -0.081868969 0.73220003
-0.072494686 -0.082951829 0.73191679
-0.06735345 -0.083322339 0.73244447
-0.062419329 -0.08352571 0.73171437
-0.057837151 -0.084315881 0.73166674
-0.052910481 -0.084239051 0.73100001
-0.046876829 -0.083774924 0.73100007
-0.042815719 -0.08389096 0.73100001
-0.038986668 -0.084239051 0.73100001
-0.032720953 -0.084239051 0.73100001
-0.00069619052 -0.080061913 0.73100001
0.0027881749 -0.082002632 0.73175001
-0.001253143 -0.076998673 0.73100001
0.0028906125 -0.078270756 0.73285717
-0.0076580956 -0.026455238 0.73100001
-0.0041942857 -0.020272382 0.73400003
-0.0044196835 -0.017910479 0.73266673
-0.0080214292 -0.013604286 0.73250002
-0.0090876194 -0.0090876194 0.73400003
-0.026040955 -0.095014289 0.73900002
-0.023929525 -0.095014289 0.73900002
-0.016187619 -0.095014289 0.73900002
-0.012668572 -0.095014289 0.73900002
0.0035190478 -0.095014296 0.73900002
-0.065454289 -0.090791434 0.73900002
-0.06229049 -0.091256194 0.73820001
-0.057634283 -0.091372386 0.73800004
-0.052447814 -0.091256194 0.73820007
-0.047738928 -0.091263935 0.73712504
-0.042640276 -0.091402188 0.73742861
-0.037200958 -0.090545729 0.73700011
-0.031779367 -0.09174931 0.73788887
-0.027383175 -0.09197852 0.73722219
-0.022393422 -0.092067026 0.73690921
-0.017555557 -0.091993026 0.73733342
-0.012436624 -0.092032291 0.73663646
-0.0077241277 -0.092694297 0.73733342
-0.0023077554 -0.092204906 0.73742861
0.0028129367 -0.092106596 0.73825002
0.0071788579 -0.091917537 0.73900002
-0.086509064 -0.086861908 0.73850006
-0.082272075 -0.087194294 0.73833334
-0.077237152 -0.087066442 0.73724997
-0.072311908 -0.087056994 0.73716676
-0.067421682 -0.087789141 0.73741674
-0.062602624 -0.087854534 0.73650002
-0.05757824 -0.088420145 0.73600012
-0.052940242 -0.088700727 0.73625004
-0.048365716 -0.08902096 0.73600006
-0.041356195 -0.08902096 0.73600006
-0.032243814 -0.08902096 0.73600006
-0.028038098 -0.08902096 0.73600006
0.0040681912 -0.088227823 0.73640007
0.0077380957 -0.087647825 0.73859996
0.010557144 -0.086568579 0.73900002
-0.087362103 -0.084277533 0.73620003
-0.082768574 -0.084171914 0.73650002
-0.078506671 -0.084815241 0.73600006
0.0049100006 -0.082768098 0.73650002
0.0077334205 -0.082754903 0.73809099
0.010547621 -0.083676517 0.7383334
0.0021028572 -0.07780572 0.73600006
0.006803493 -0.078592077 0.73900002
-0.0049266671 -0.036598098 0.73900002
-0.0063342862 -0.033782862 0.73900002
-0.0049266671 -0.033782862 0.73900002
-0.003509524 -0.018951429 0.73700005
-0.0070112702 -0.011918573 0.73616672
-0.0049066669 -0.011215239 0.73600006
-0.0075540477 -0.0075514289 0.73775005
-0.0044507938 -0.0072603179 0.73800009
-0.0077419053 -0.0028152382 0.73900002
-0.0082111116 0.0023460321 0.73900002
-0.0077419053 0.0063342862 0.73900002
-0.016982859 -0.10260478 0.74300003
-0.014860001 -0.10118953 0.74300003
-0.0035380954 -0.10118954 0.74300003
-0.065808579 -0.09552858 0.74300003
-0.062270481 -0.09552858 0.74300003
