# .PCD v0.7 - Point Cloud Data file format
VERSION 0.7
FIELDS x y z
SIZE 4 4 4
TYPE F F F
COUNT 1 1 1
WIDTH 1327
HEIGHT 1
VIEWPOINT 0 0 0 1 0 0 0
POINTS 1327
DATA ascii
-0.032754637 -0.008317057 0.66254556
-0.027727623 -0.0081914291 0.66166681
-0.022846149 -0.0083020777 0.66136372
-0.017674668 -0.0084582856 0.66280007
-0.012558243 -0.0079992684 0.66184628
-0.0075127478 -0.007996412 0.66161549
-0.0025221431 -0.0081961118 0.66208339
0.002519524 -0.0081890486 0.6615001
0.0075566676 -0.0075547621 0.66125
0.012602501 -0.0075594047 0.66162497
0.017643452 -0.0075592864 0.66162503
0.022664582 -0.007553156 0.66106254
0.025781192 -0.0075450004 0.66025007
0.01389143 -0.0044200001 0.66300005
0.017469525 -0.0044200001 0.66300005
0.02299143 -0.0038771434 0.66271436
0.025830001 -0.003779524 0.66150004
-0.16717482 -0.027274203 0.6688183
-0.16262683 -0.026635511 0.66814291
-0.15777525 -0.026720952 0.66799998
-0.15262787 -0.026710715 0.66775
-0.14759621 -0.026720952 0.6680001
-0.14245959 -0.026937673 0.66811121
-0.13741714 -0.026720952 0.6680001
-0.13235298 -0.026725836 0.66812515
-0.12766191 -0.026508575 0.6680001
-0.122285 -0.026750239 0.66875005
-0.11735634 -0.026817553 0.66814297
-0.11254156 -0.026865121 0.66762501
-0.10773031 -0.027208921 0.66718191
-0.10247969 -0.027237942 0.66766667
-0.097663499 -0.027048046 0.66733342
-0.092812859 -0.026064288 0.66750008
-0.087465145 -0.027246287 0.66840011
-0.08263278 -0.027334049 0.66741675
-0.078066103 -0.026362097 0.66860008
-0.072634295 -0.026122859 0.66900003
-0.067540012 -0.026946349 0.66833341
-0.062114701 -0.026646668 0.66842872
-0.057091519 -0.027245805 0.668091
-0.052167781 -0.027357783 0.6680001
-0.046889421 -0.026946349 0.66833335
-0.042009529 -0.027371114 0.66833341
-0.037195787 -0.026828708 0.66842872
-0.033716194 -0.026720954 0.66800004
-0.027397145 -0.026441431 0.66900003
-0.023292003 -0.026601335 0.66820014
-0.16741841 -0.022840807 0.66761547
-0.16262098 -0.022868572 0.66699994
-0.15750989 -0.022864288 0.66687489
-0.15237084 -0.022855835 0.66662502
-0.14737524 -0.022868574 0.66699994
-0.14214744 -0.022845179 0.66631252
-0.13733387 -0.022962714 0.66546154
-0.13288988 -0.023084696 0.66535723
-0.12753221 -0.022939049 0.66533333
-0.12283804 -0.022692768 0.66553336
-0.11786631 -0.022813573 0.66537499
-0.11277571 -0.022809289 0.66525006
-0.10786265 -0.023249893 0.6653077
-0.10275715 -0.023694098 0.6652
-0.097606674 -0.02408524 0.66549999
-0.092460327 -0.022958225 0.66586661
-0.087712795 -0.023107624 0.66600001
-0.082797468 -0.024290159 0.66533339
-0.077382863 -0.024737144 0.66600001
-0.071761757 -0.02314651 0.66583329
-0.067318395 -0.023252603 0.66538471
-0.062100638 -0.023896191 0.66611111
-0.057042859 -0.024085239 0.66549999
-0.051971432 -0.024718571 0.66550004
-0.047178373 -0.024178369 0.66557145
-0.0426156 -0.023763929 0.66537499
-0.038256086 -0.023884023 0.66577774
-0.021978097 -0.02426648 0.66700006
-0.0180084 -0.022525284 0.6688183
-0.012637416 -0.021544356 0.66814297
-0.0076142857 -0.022209525 0.66624999
-0.0023655414 -0.022347189 0.66690922
0.00212254 -0.021429528 0.66833347
0.0076342868 -0.020994287 0.6680001
0.012997716 -0.022045147 0.66900009
0.01784 -0.021662859 0.66900009
0.021450479 -0.021450479 0.66900003
-0.16693144 -0.01975143 0.66900003
-0.16191097 -0.019403335 0.66800004
-0.15777525 -0.019084763 0.66799998
-0.15292349 -0.018875664 0.66811121
-0.1475962 -0.019084763 0.66800004
-0.14213158 -0.018149598 0.66784626
-0.13760383 -0.017450159 0.66633332
-0.13232653 -0.017208166 0.66571438
-0.12721023 -0.017588167 0.66642857
-0.12275321 -0.017935922 0.66585714
-0.11777957 -0.01762159 0.66560006
-0.11279655 -0.017742621 0.66537499
-0.1082222 -0.017107334 0.66530001
-0.10386667 -0.015833335 0.66500002
-0.01629651 -0.019259684 0.66666669
-0.014151747 -0.019220956 0.66533339
0.012666667 -0.019633334 0.66500002
0.018004764 -0.019090479 0.66500008
0.021858811 -0.019324049 0.66525006
-0.14080858 -0.014654287 0.66900003
-0.13741049 -0.014654288 0.66900003
-0.1324262 -0.014643334 0.66850007
-0.12749937 -0.013663176 0.66900009
-0.12217954 -0.013362067 0.66816676
-0.1172598 -0.012678977 0.66830778
-0.11254132 -0.012714168 0.66762501
-0.10748123 -0.012740129 0.66673332
-0.1028864 -0.012699729 0.66685718
-0.09759789 -0.0122411 0.66576928
-0.092559382 -0.012044128 0.6656667
-0.087375164 -0.012243739 0.66592306
-0.082661152 -0.011790096 0.6656
-0.077900007 -0.011083334 0.66500002
-0.074100003 -0.010766667 0.66500002
-0.06903334 -0.010766667 0.66500002
-0.11150001 -0.0095571447 0.66900003
-0.10576572 -0.0095571438 0.66900003
-0.10003144 -0.0095571438 0.66900003
-0.097642146 -0.0084421439 0.66900009
-0.092914388 -0.0083935075 0.66863644
-0.087860793 -0.0082763499 0.66850013
-0.082653418 -0.0082638906 0.66758335
-0.077506609 -0.0076210126 0.66706252
-0.072536774 -0.0074921912 0.66693336
-0.067367688 -0.0076236315 0.66731244
-0.061951429 -0.0077600735 0.66638464
-0.057079807 -0.0073369388 0.6659286
-0.052006338 -0.0073376196 0.6659286
-0.047274861 -0.0068434291 0.66539997
-0.04249562 -0.0059619052 0.66600001
-0.037760954 -0.0064287083 0.66557151
-0.033099622 -0.0059601911 0.66580003
-0.027886668 -0.0057042865 0.66549999
-0.022433717 -0.0059567629 0.66540003
-0.017746828 -0.0061265081 0.66550004
-0.012877779 -0.005700001 0.66500008
-0.0078111119 -0.005700001 0.66500008
-0.0025333334 -0.0057000006 0.66500002
0.0025333334 -0.0057000006 0.66500002
-0.075820006 -0.0044600004 0.66900003
-0.072634295 -0.0044600004 0.66900003
-0.067919433 -0.0042051435 0.66900009
-0.06116572 -0.0038228575 0.66900003
-0.057464398 -0.0028898902 0.66869241
-0.052268516 -0.0026691428 0.66766667
-0.047082119 -0.0028162587 0.66807151
-0.041846965 -0.0029841028 0.66807705
-0.037352454 -0.0023969966 0.66823083
-0.032921657 -0.0026674287 0.6673333
-0.027936848 -0.0025379169 0.66668749
-0.022862205 -0.0025381548 0.66681248
-0.017789226 -0.0025391073 0.6670624
-0.012695121 -0.0025373807 0.66649991
-0.0076231551 -0.0025386314 0.6670624
-0.0025410124 -0.0025388692 0.6670624
0.0025407143 -0.0025377385 0.66687495
0.0078020417 -0.0028099322 0.66685718
0.012501227 -0.0022631297 0.66585714
0.017792528 -0.0020953848 0.66538459
0.022592381 -0.0014778838 0.66511112
-0.052882861 0.00063714292 0.66900003
-0.036317147 0.00063714292 0.66900003
-0.032494288 0.00063714292 0.66900003
-0.028246669 0.00063714292 0.66900003
-0.023255717 0.00095571438 0.66900003
-0.017840002 0.00063714292 0.66900003
-0.012813652 0.0014866668 0.66900009
-0.0089200009 0.00063714292 0.66900003
-0.0019114288 0.00095571438 0.66900003
0.0019114288 0.00063714292 0.66900003
0.013116382 0.00089161907 0.66860002
0.017813332 0.0012733334 0.66800004
0.022390716 0.0014307144 0.667
-0.16627163 -0.032385524 0.67200005
-0.16255938 -0.031361274 0.67199993
-0.15755716 -0.031384915 0.67250001
-0.15247113 -0.031392381 0.67266667
-0.14730987 -0.031384923 0.67250001
-0.14235039 -0.031499483 0.67245454
-0.13745397 -0.031377457 0.67233336
-0.13258667 -0.031270478 0.67254543
-0.12754858 -0.03076667 0.67299998
-0.1222022 -0.031257045 0.67249995
-0.11769551 -0.031274892 0.67263633
-0.11258789 -0.031278968 0.67272729
-0.10775274 -0.03149524 0.67236358
-0.10236212 -0.031798519 0.6722222
-0.097288996 -0.031529628 0.67255563
-0.092217401 -0.03138119 0.67241669
-0.087259196 -0.032071978 0.67157149
-0.082206465 -0.031902961 0.67144448
-0.077486753 -0.031594839 0.67241669
-0.072804689 -0.031253852 0.67218184
-0.067848817 -0.031365 0.67208338
-0.062782235 -0.031392381 0.67266667
-0.057879891 -0.031824652 0.67277783
-0.052880194 -0.031626094 0.67220008
-0.047395244 -0.03074429 0.67249995
-0.04222405 -0.031348333 0.67175007
-0.03683769 -0.031537555 0.67185724
-0.0320554 -0.031415716 0.67316663
-0.027312001 -0.031417146 0.67319995
-0.023410954 -0.030468097 0.6735
-0.012196192 -0.030169526 0.67400002
-0.0074888896 -0.030169528 0.67400002
-0.0038514286 -0.030169526 0.67400002
-0.16590478 -0.029990477 0.67000002
-0.16207621 -0.028714288 0.67000002
-0.15697142 -0.028714288 0.67000002
-0.15203595 -0.02874643 0.67075002
-0.14747399 -0.028728575 0.67033339
-0.14314604 -0.02871429 0.67000002
-0.13782859 -0.028714288 0.67000002
-0.13282238 -0.028735718 0.67050004
-0.12732065 -0.028317463 0.67066669
-0.1225143 -0.028714288 0.67000002
-0.11740953 -0.028714288 0.67000002
-0.11294287 -0.02871429 0.67000002
-0.10592382 -0.029352382 0.67000002
-0.10209525 -0.029671431 0.67000002
-0.096636012 -0.028978098 0.67020005
-0.092570484 -0.028090164 0.67033339
-0.088440001 -0.029224766 0.67000002
-0.082952388 -0.029990477 0.67000002
-0.077590622 -0.028173473 0.67014295
-0.072770007 -0.028086904 0.67025
-0.0674254 -0.02871429 0.67000002
-0.062935434 -0.02846762 0.67020005
-0.057428576 -0.029671431 0.67000002
-0.052323811 -0.029990477 0.67000002
-0.047857147 -0.02871429 0.67000002
-0.042114288 -0.029990477 0.67000002
-0.03729048 -0.02926735 0.67014295
-0.031952385 -0.028757146 0.671
-0.027445907 -0.028212382 0.67020005
-0.022750614 -0.028051842 0.67157143
-0.017990477 -0.027095029 0.67200005
-0.012642773 -0.027442256 0.67290908
-0.0076973019 -0.027582385 0.6735
-0.0025610318 -0.027531669 0.67224997
0.0025618256 -0.02753881 0.67241669
0.0077425116 -0.027419917 0.67236364
0.012788969 -0.027497225 0.6714167
0.017734287 -0.027134502 0.67299992
0.022209907 -0.026061336 0.67400002
0.028029844 -0.027173972 0.67400002
-0.016909525 -0.024566669 0.67000002
-0.012845504 -0.024059262 0.67066669
-0.0080987308 -0.024509525 0.67133331
-0.0025540479 -0.024895001 0.67025006
0.0028089525 -0.023872001 0.67020005
0.0076609533 -0.023621907 0.67033339
0.012336509 -0.024460319 0.67000002
0.017884405 -0.024270596 0.67062503
0.023096299 -0.023096511 0.67155558
0.026220478 -0.023023335 0.67150003
-0.16757275 -0.017169785 0.67227274
-0.16267066 -0.017008001 0.67140001
-0.15734573 -0.016509525 0.67042863
-0.15226886 -0.016512929 0.67057151
-0.14782806 -0.01668871 0.67028576
-0.14442223 -0.016377779 0.67000002
-0.17010477 -0.013480001 0.67400002
-0.16809493 -0.014328573 0.67366672
-0.16278149 -0.013588747 0.67363626
-0.15744168 -0.013349922 0.67291659
-0.15250841 -0.013577145 0.67309093
-0.14729637 -0.012806254 0.67243737
-0.14263088 -0.012585955 0.67208332
-0.13736866 -0.012436124 0.67221427
-0.13226138 -0.012138836 0.6708889
-0.12760995 -0.011583811 0.67042863
-0.12256072 -0.010851667 0.67025006
-0.11950191 -0.01086381 0.671
-0.13672572 -0.0096285734 0.67400002
-0.13207431 -0.008481482 0.67355561
-0.12744598 -0.0083244164 0.67245454
-0.12257399 -0.0083269849 0.67266667
-0.11761698 -0.0084368829 0.67218184
-0.11277885 -0.0078869853 0.67155558
-0.10746113 -0.0078443307 0.67127275
-0.10244738 -0.0075434935 0.67146671
-0.097007439 -0.0060066674 0.671
-0.092350677 -0.0060032387 0.67060006
-0.087463185 -0.0057457145 0.67033339
-0.08295238 -0.0057428577 0.67000002
-0.063809529 -0.0057428577 0.67000002
-0.101207 -0.0040653972 0.67400002
-0.097254731 -0.0030054946 0.67284614
-0.092212029 -0.0025592858 0.67237496
-0.087425724 -0.0025610887 0.67285711
-0.08218953 -0.002687302 0.67246658
-0.077702396 -0.0025557145 0.67150009
-0.072824538 -0.001915635 0.67075002
-0.067482263 -0.0017984419 0.67018193
-0.062974304 -0.0021271429 0.67016673
-0.056818098 -0.0010638096 0.67033339
-0.050409526 -0.00063809525 0.67000002
-0.047219053 -0.00063809525 0.67000002
-0.042752385 -0.00063809531 0.67000002
0.0063809529 -0.00063809525 0.67000002
-0.087940961 0.00064190483 0.67400002
-0.076386675 0.00064190489 0.67400002
-0.072161429 0.00096238102 0.6735
-0.067671962 0.0014954498 0.67244446
-0.062759131 0.0019229365 0.67241669
-0.057453204 0.0022893879 0.67242855
-0.05248991 0.0026932068 0.67266667
-0.047373753 0.002563512 0.67218751
-0.042232387 0.0025625001 0.67187494
-0.037199121 0.002998828 0.67076921
-0.032306667 0.0033207617 0.67040008
-0.027887225 0.0028746827 0.67058337
-0.022882223 0.0030871429 0.67049998
-0.017875874 0.0031926984 0.67033339
-0.012675648 0.0039216336 0.67028576
-0.007476463 0.0028268031 0.67014289
-0.0027661114 0.0030857937 0.67025012
0.0027023447 0.0029972896 0.67053849
0.0076714293 0.0025588092 0.67124999
0.012604329 0.0033118618 0.67090911
0.017869644 0.0038294052 0.67012501
0.022602288 0.0039588576 0.67040002
-0.041402861 0.0060980958 0.67400002
-0.037203811 0.0064147622 0.67350006
-0.032036427 0.0064078579 0.67275
-0.027176604 0.0066808173 0.67257148
-0.023066288 0.0067927628 0.6728
-0.017973334 0.0064190482 0.67400002
-0.01281131 0.0064072623 0.67262495
-0.0074269534 0.0067884773 0.67229998
-0.0027743916 0.0066141807 0.67199999
0.0025651189 0.0064089289 0.67287505
0.0077028573 0.0064190482 0.67400002
0.012823096 0.0064126193 0.67324996
0.017942976 0.0064094053 0.67287505
0.021589844 0.0061993655 0.67333335
-0.16640978 -0.03612167 0.67725003
-0.16263779 -0.036405612 0.67855555
-0.15787855 -0.036723383 0.67863637
-0.15217212 -0.036680005 0.67781818
-0.1471633 -0.036689874 0.67800003
-0.14245363 -0.036098506 0.67857146
-0.13731253 -0.03629075 0.67871433
-0.1332244 -0.035793908 0.67839998
-0.12765202 -0.035825338 0.67900002
-0.12282191 -0.03620024 0.67874998
-0.1180954 -0.035989054 0.67883337
-0.11206611 -0.035804387 0.67860001
-0.10726763 -0.03618715 0.6785
-0.10229499 -0.036723383 0.67863637
-0.097431079 -0.036517028 0.67862499
-0.092764504 -0.036091026 0.67842859
-0.087897986 -0.036193691 0.67862499
-0.082712382 -0.036187142 0.6785
-0.079422861 -0.035514288 0.67800003
-0.066773176 -0.035971593 0.67850006
-0.062470905 -0.036651433 0.67777777
-0.057848584 -0.036076061 0.67814291
-0.052973017 -0.035962861 0.6783334
-0.048130479 -0.036120959 0.67900002
-0.042587623 -0.036120959 0.67900002
-0.037493102 -0.03620024 0.67874998
-0.032308575 -0.036186669 0.6785
-0.027160002 -0.036213335 0.67899996
-0.023280002 -0.035566669 0.67900002
-0.1652143 -0.034071431 0.67500001
-0.16205929 -0.034084052 0.67524999
-0.15708953 -0.034121908 0.67600006
-0.15193906 -0.034121908 0.67600006
-0.1473597 -0.034105085 0.67566675
-0.14287359 -0.034109287 0.67575008
-0.13772358 -0.034109287 0.67575008
-0.13223734 -0.033864766 0.67600006
-0.12756857 -0.033504289 0.67650008
-0.12281962 -0.033895053 0.6766001
-0.11675297 -0.033854671 0.67580009
-0.11202286 -0.034121908 0.67600006
-0.10746382 -0.034105085 0.67566675
-0.10300954 -0.034121908 0.67600006
-0.097415246 -0.033844572 0.67560005
-0.092740715 -0.034134526 0.67625004
-0.087817147 -0.03422286 0.67800003
-0.082470007 -0.034147147 0.67650008
-0.077365719 -0.034172382 0.67700005
-0.07229358 -0.034210239 0.67774999
-0.066954762 -0.034121908 0.676
-0.062451433 -0.034121908 0.67600006
-0.057920717 -0.034109287 0.67575008
-0.052493338 -0.033556465 0.67571437
-0.047693573 -0.033516191 0.67675006
-0.042554289 -0.033528574 0.67700005
-0.037396193 -0.033743814 0.67700005
-0.032236192 -0.034172386 0.67700005
-0.026710287 -0.033935431 0.67740005
-0.022175524 -0.032880854 0.67690009
-0.018083373 -0.031761609 0.67630768
-0.013009715 -0.031815242 0.67620003
-0.0077886782 -0.031939369 0.67522234
-0.0023160002 -0.031795811 0.67580009
0.0025819051 -0.031626508 0.67766678
0.0077425409 -0.031618886 0.67750001
0.01290492 -0.031619046 0.67750001
0.017676571 -0.03148514 0.67740005
0.022090822 -0.031703815 0.67681819
0.026430689 -0.031590268 0.67688894
-0.017785717 -0.028928574 0.67500007
-0.014785715 -0.028928574 0.67500001
0.0070714289 -0.028928574 0.67500001
0.018642858 -0.028928574 0.67500007
0.022928573 -0.028071431 0.67500007
0.026228575 -0.027385717 0.67500013
-0.17035715 -0.01157143 0.67500001
-0.16707143 -0.011785715 0.67500007
-0.16200002 -0.010928572 0.67500001
-0.15843557 -0.011362541 0.67533338
-0.15312858 -0.011185715 0.67500001
-0.14078572 -0.010928572 0.67500001
-0.16772065 -0.0083847623 0.67733335
-0.16263923 -0.00838889 0.67766678
-0.15742043 -0.0083859526 0.67741668
-0.1521643 -0.008057937 0.67700005
-0.14761798 -0.0077319732 0.67685723
-0.14264233 -0.0077254167 0.67618763
-0.13774079 -0.0074004768 0.6758334
-0.13298796 -0.0062200008 0.67566675
-0.12747429 -0.0057942863 0.67600006
-0.12259668 -0.0058071432 0.67750001
-0.11726144 -0.0057985722 0.67650008
-0.1125562 -0.0057885721 0.67533338
-0.10864287 -0.0057857148 0.67500007
-0.14187868 -0.0042680004 0.67900002
-0.13719641 -0.0032300535 0.67844445
-0.13271438 -0.0029303301 0.67823082
-0.12811649 -0.0030319423 0.67861539
-0.12259018 -0.0034913335 0.67889994
-0.11737354 -0.0028597964 0.67821431
-0.11243886 -0.0024504131 0.67773342
-0.10753386 -0.0025334607 0.67720014
-0.10301282 -0.0023972297 0.67563647
-0.09840636 -0.00064317463 0.67533338
-0.085500002 -0.00064285717 0.67500001
-0.084214292 -0.00064285717 0.67500001
-0.11618446 0.0010777779 0.67900008
-0.10168027 0.0020568836 0.67845458
-0.097282067 0.0027337731 0.67784613
-0.09294799 0.0021365569 0.67738467
-0.087662041 0.002711683 0.67713338
-0.082461491 0.0025793458 0.6764375
-0.077440888 0.0030243227 0.6763078
-0.072385721 0.0034790484 0.67620009
-0.067818291 0.0039897147 0.67559999
-0.063000001 0.0045000003 0.67500001
-0.059142862 0.0045000003 0.67500001
-0.097215563 0.0058200005 0.67900008
-0.087946676 0.0058200005 0.67900002
-0.082773335 0.0064666672 0.67899996
-0.077571906 0.0064645242 0.67874998
-0.072373331 0.0064623822 0.6785
-0.066814929 0.0072104773 0.67783344
-0.062144406 0.0078012464 0.67807698
-0.057751846 0.0075556468 0.67700011
-0.052846253 0.0077362508 0.67668766
-0.047689945 0.0077364882 0.6766876
-0.042891037 0.0082800798 0.67725003
-0.037451431 0.0090400008 0.67800003
-0.03223905 0.009027143 0.67700005
-0.027310615 0.0091040833 0.67585725
-0.022210002 0.0093352385 0.67600006
-0.018025478 0.0090138093 0.67600006
-0.012896667 0.0090271439 0.67700005
-0.0081473021 0.0092190485 0.67533344
-0.0022960545 0.0090938788 0.67514294
0.0025733334 0.0090071438 0.67550009
0.0077292863 0.0090173809 0.67625004
0.012866667 0.0090071438 0.67550009
0.018000001 0.0090000005 0.67500007
0.02281619 0.0082257148 0.67588896
0.025108574 0.0064380961 0.67600006
-0.060140003 0.010993334 0.67900002
-0.057230003 0.011316668 0.67900002
-0.053457782 0.011424446 0.67900002
-0.047853336 0.010993334 0.67900002
-0.042680006 0.011424446 0.67900002
-0.037434813 0.011855558 0.67899996
-0.032333333 0.01164 0.67899996
-0.026889622 0.012023144 0.67869997
-0.022470476 0.012399239 0.67799997
-0.017798234 0.011528572 0.67785722
-0.012926549 0.01163393 0.67862499
-0.0074877152 0.012006572 0.67770004
-0.0023975512 0.012637147 0.67785716
0.0025852383 0.012927023 0.67862499
0.0076276204 0.012799682 0.67873335
0.013051874 0.012795111 0.67846668
0.017776191 0.012713742 0.67700011
0.021768574 0.012970131 0.67772728
0.018753335 0.016166668 0.67900002
0.020693336 0.016166668 0.67900002
-0.16692871 -0.042763818 0.68377781
-0.16282898 -0.042823501 0.6833334
-0.1574831 -0.042487331 0.68307704
-0.15207826 -0.042487331 0.68307698
-0.14704302 -0.042292386 0.68316674
-0.14237863 -0.042302437 0.6833334
-0.13789566 -0.041868154 0.6833334
-0.13259239 -0.042070292 0.68380004
-0.12738381 -0.04218572 0.68336374
-0.12259348 -0.041546673 0.6831429
-0.11716409 -0.041598372 0.68400007
-0.11251577 -0.04218477 0.68377781
-0.10776763 -0.041564088 0.68342865
-0.10254118 -0.041841276 0.68288898
-0.097642869 -0.042312544 0.68350005
-0.092249095 -0.042496119 0.68323082
-0.087740749 -0.042026673 0.68355554
-0.082080007 -0.041040003 0.68400002
-0.077302866 -0.041908573 0.68400002
-0.072960004 -0.04147429 0.68400002
-0.067298263 -0.041464292 0.68383336
-0.062219195 -0.041572656 0.68357152
-0.057216089 -0.041881915 0.6835556
-0.05229757 -0.041881911 0.6835556
-0.047484767 -0.040980004 0.68300003
-0.042652931 -0.041538101 0.68300003
-0.037747979 -0.041653935 0.68337506
-0.0324581 -0.041572656 0.68357152
-0.027621636 -0.041572656 0.68357152
-0.022800002 -0.041040003 0.68400002
-0.16652212 -0.039068002 0.6814
-0.16300343 -0.039033145 0.68080008
-0.15772231 -0.039268956 0.68040007
-0.15322669 -0.039245721 0.68000001
-0.14778668 -0.039245721 0.68000001
-0.14239852 -0.038679581 0.68066669
-0.13749716 -0.038915243 0.68100005
-0.13216737 -0.038395245 0.68118185
-0.12797786 -0.0384431 0.68125004
-0.12276658 -0.038954925 0.68044442
-0.11734638 -0.038554959 0.68150002
-0.11296657 -0.038306769 0.68170011
-0.10766286 -0.038915243 0.68100005
-0.10199429 -0.039268952 0.68040007
-0.097048588 -0.039024353 0.68128574
-0.092148937 -0.038936552 0.68137497
-0.086938813 -0.038928814 0.6812501
-0.082152113 -0.039080817 0.68228585
-0.077736676 -0.037708234 0.68264288
-0.072866917 -0.037735835 0.68312496
-0.067841627 -0.038599905 0.68230003
-0.061877307 -0.039160162 0.68150008
-0.057095006 -0.038929291 0.68125004
-0.052734766 -0.038457148 0.68150008
-0.047722969 -0.038654186 0.68022221
-0.042843603 -0.038667094 0.68044442
-0.037679173 -0.038978692 0.68212509
-0.03249881 -0.039000481 0.6825
-0.02725393 -0.038936552 0.68137503
-0.021897417 -0.037952926 0.68200004
-0.017559579 -0.037072804 0.68288893
-0.013189935 -0.037436061 0.68271434
-0.0079323826 -0.037584953 0.68273342
-0.0026032655 -0.037465718 0.68328577
0.0026020838 -0.037725899 0.6829375
0.0078493347 -0.037599053 0.68300003
0.012482425 -0.037211433 0.68327284
0.017312573 -0.036318291 0.68340009
0.026057145 -0.035828575 0.68400002
-0.016838096 -0.034323812 0.68000001
-0.012952382 -0.034323812 0.68000001
-0.0077714291 -0.034323812 0.68000001
-0.0025928572 -0.03434905 0.68050003
0.0025904765 -0.034323812 0.68000001
0.0077809528 -0.034374289 0.68100005
0.012963334 -0.03434905 0.68050003
0.017485715 -0.034323812 0.68000001
0.022067145 -0.034399524 0.68150008
0.025980953 -0.034424763 0.68200004
-0.16757715 -0.0058457148 0.68200004
-0.16243978 -0.0058478573 0.68225002
-0.15712835 -0.0058435719 0.68175006
-0.15283811 -0.005828572 0.68000001
-0.16763137 -0.0027883681 0.68335718
-0.16273811 -0.0026028568 0.68349993
-0.15747346 -0.0026020242 0.68325001
-0.15229717 -0.0024692065 0.68280011
-0.14739493 -0.0025947622 0.68178582
-0.14283153 -0.0019460003 0.68170011
-0.13784687 -0.00090742868 0.68080002
-0.13405715 -0.00064761908 0.68000001
-0.12711811 -0.00064857147 0.68099999
-0.12339316 -0.0011668572 0.68120003
-0.11916191 -0.00064761908 0.68000001
-0.15569144 0.00065142859 0.68400002
-0.15178287 0.0015200002 0.68400002
-0.14712688 0.0015198942 0.68388891
-0.14201145 0.0013028572 0.68400002
-0.13715076 0.0015812247 0.68342865
-0.13246408 0.0024724447 0.68246675
-0.12751582 0.0026039288 0.68312502
-0.12225662 0.0026022026 0.68281251
-0.1175121 0.0031176191 0.68170011
-0.11288662 0.0025574605 0.68199998
-0.10782096 0.0026004761 0.68199992
-0.10338382 0.0037620959 0.68100005
-0.091961913 0.0045333337 0.68000001
-0.13224003 0.0058628577 0.68400002
-0.12963429 0.0058628577 0.68400002
-0.12094858 0.0062971432 0.68400002
-0.11719322 0.0065110722 0.68362504
-0.11161144 0.0062971432 0.68400002
-0.10730346 0.007001786 0.68387502
-0.10247593 0.0076202732 0.68285728
-0.097423166 0.0082504041 0.68230778
-0.092362307 0.0079273675 0.68199998
-0.087213345 0.0085634654 0.68199998
-0.082329527 0.0090755569 0.68066669
-0.077858344 0.0090835709 0.68125004
-0.072533332 0.0090666674 0.67999995
-0.068323813 0.0093904771 0.68000001
-0.064114287 0.0097142868 0.68000001
-0.10227429 0.011074288 0.68400002
-0.09771429 0.011074287 0.68400002
-0.091133818 0.011066191 0.68350005
-0.086723454 0.011878215 0.683375
-0.082174502 0.012569966 0.68353844
-0.077329613 0.01284009 0.68336374
-0.07272362 0.012881334 0.68300003
-0.067527436 0.012867238 0.68219995
-0.062618032 0.012846007 0.68215388
-0.057333142 0.013880572 0.68099999
-0.051954001 0.013899143 0.68190008
-0.047667529 0.01350981 0.68190002
-0.042868577 0.013901335 0.6820001
-0.037702046 0.014358913 0.68085724
-0.032428574 0.014269524 0.68100005
-0.0276454 0.014470795 0.68033332
-0.021383239 0.014385906 0.68040007
-0.017511431 0.014269525 0.68100011
-0.012966905 0.014264048 0.68075001
-0.0082079377 0.014470795 0.68033338
-0.0038857146 0.014895239 0.68000001
0.0097142868 0.014895239 0.68000001
0.011009525 0.014895239 0.68000001
-0.071005717 0.016285716 0.68400002
-0.05602286 0.016285716 0.68400002
-0.052075244 0.016273811 0.68350005
-0.047293719 0.016806858 0.68400002
-0.043385148 0.016546287 0.68400002
-0.037650481 0.016827075 0.68328577
-0.032535799 0.017570082 0.68325007
-0.027296748 0.017548492 0.6824168
-0.022274895 0.017431431 0.68245465
-0.017575717 0.016925238 0.68350005
-0.012756764 0.017313525 0.68340003
-0.0082864296 0.017058335 0.68225002
-0.0026003178 0.01755254 0.6825
0.0025948416 0.01752373 0.68141669
0.0077752387 0.017494921 0.68033332
0.012967858 0.017506111 0.68075001
0.017361667 0.017688096 0.68150008
0.020769048 0.01817381 0.68150008
-0.031268574 0.020194286 0.68400002
-0.027360003 0.020194286 0.68400002
-0.022800002 0.020194288 0.68400002
0.0032571431 0.020194288 0.68400002
0.0078078583 0.020172145 0.68325007
0.013024048 0.020186905 0.68375003
0.017588574 0.020194288 0.68400002
0.020845715 0.020194286 0.68400002
-0.16596985 -0.046891749 0.68700004
-0.16202419 -0.046481073 0.68737501
-0.15738489 -0.046464168 0.68712497
-0.1537012 -0.045457385 0.68675005
-0.14759845 -0.045903176 0.68744451
-0.14253104 -0.045764495 0.68785727
-0.13760002 -0.045867618 0.68800008
-0.1323581 -0.045867622 0.68800008
-0.12739675 -0.045961365 0.68800002
-0.12327287 -0.045244288 0.68850005
-0.11744826 -0.04562699 0.68766677
-0.11278979 -0.046367627 0.68745458
-0.10767746 -0.046086352 0.68800008
-0.1021987 -0.045859408 0.68787503
-0.097559534 -0.045834765 0.68750012
-0.093207911 -0.045903947 0.68714291
-0.088280641 -0.0456708 0.68833339
-0.0822035 -0.045692705 0.68866676
-0.077403061 -0.045447625 0.68760008
-0.071744196 -0.045513339 0.6886
-0.067344628 -0.046177015 0.68842864
-0.062972151 -0.045916907 0.68875003
-0.057640482 -0.045851193 0.6877501
-0.052379765 -0.045834288 0.6875
-0.04721 -0.045244288 0.68850005
-0.041903332 -0.045506667 0.6875
-0.037698913 -0.045745719 0.68757159
-0.033144955 -0.045460768 0.68780005
-0.027538573 -0.045244288 0.68850005
-0.02226048 -0.045178574 0.6875
-0.14177334 -0.043773334 0.68600005
-0.13698223 -0.043773334 0.68600005
-0.13197334 -0.043773334 0.68600005
-0.12254154 -0.04355029 0.68660009
-0.11780001 -0.043537527 0.68640012
-0.11106668 -0.043773334 0.68600005
-0.10714667 -0.043773334 0.68600005
-0.10322668 -0.043773334 0.68600005
-0.086063825 -0.043359052 0.68633336
-0.082350239 -0.043135952 0.68624997
-0.077420004 -0.043446671 0.68600005
-0.072336517 -0.043359052 0.68633342
-0.068116955 -0.043276194 0.68640012
-0.06314934 -0.043537527 0.68640012
-0.057711117 -0.043773334 0.68600005
-0.051613342 -0.043773334 0.68600005
-0.047065359 -0.043143932 0.68637502
-0.04246667 -0.043773334 0.68600005
-0.037893333 -0.043773334 0.68600005
-0.032797337 -0.043512005 0.68600005
-0.027055431 -0.043524768 0.68620008
-0.022008678 -0.042930372 0.68644452
-0.017027978 -0.041913219 0.68762505
-0.012439525 -0.041905563 0.6875
-0.0078560719 -0.041898213 0.68737495
-0.002619881 -0.041913696 0.68762505
0.0023975663 -0.042079896 0.68677789
0.0078578573 -0.041905716 0.68750012
0.012467621 -0.041340001 0.68900001
0.023622859 -0.040027622 0.68900001
-0.017640002 -0.039853334 0.68600005
-0.01176 -0.039853334 0.68600005
-0.0058800005 -0.039853334 0.68600005
-0.0026133335 -0.039853334 0.68600005
0.0071866671 -0.039853334 0.68600005
0.013066668 -0.039853334 0.68600005
0.016123176 -0.038566034 0.68633342
0.022258971 -0.037318654 0.68741673
0.026247621 -0.038059052 0.68900001
-0.16748065 0.0024899051 0.6874668
-0.16239543 0.0026214877 0.68756258
-0.15766498 0.0022567199 0.68755573
-0.15288392 0.002677836 0.68681812
-0.14780873 0.0040152385 0.68628573
-0.14247859 0.0039216671 0.68624997
-0.13766938 0.0041388897 0.68616676
-0.15158002 0.0063431747 0.68900001
-0.14742762 0.0065533342 0.68800008
-0.14224692 0.0067121433 0.68750012
-0.13735567 0.0075809527 0.6877144
-0.13235812 0.0085199997 0.68800008
-0.1273832 0.0080517698 0.68792874
-0.12294977 0.0081919851 0.68791676
-0.117369 0.0090571446 0.68628573
-0.11271629 0.0087614292 0.68650007
-0.10717319 0.0093668271 0.68616676
-0.12008286 0.011155238 0.68900001
-0.11719563 0.01168019 0.68900007
-0.11272506 0.011713062 0.68871439
-0.10732356 0.012336539 0.68827277
-0.1023498 0.01317973 0.68700004
-0.097451672 0.01308167 0.68674999
-0.093100004 0.012594605 0.68788892
-0.088850483 0.013441905 0.68850005
-0.10223448 0.015354857 0.68900007
-0.09698496 0.015354857 0.68900007
-0.09252286 0.015092383 0.68900001
-0.08757025 0.015907142 0.68875009
-0.082590722 0.016060239 0.68825006
-0.077090569 0.017036114 0.68791676
-0.072295621 0.017944764 0.68760008
-0.067756712 0.017313251 0.68709087
-0.062664129 0.016522752 0.68777782
-0.057791162 0.017515514 0.68842864
-0.052304763 0.018307146 0.68650007
-0.047432002 0.018685335 0.68600005
-0.042486988 0.018302541 0.68633342
-0.03803524 0.01869086 0.68620008
-0.020253334 0.018946668 0.68600005
-0.016986668 0.018946668 0.68600005
-0.013720001 0.018946668 0.68600005
-0.0068600005 0.018620001 0.68600005
-0.05183905 0.020341907 0.68900001
-0.046840835 0.02112893 0.68787503
-0.041959055 0.021636575 0.68840009
-0.0376454 0.021336405 0.68811119
-0.032875001 0.022282463 0.68808341
-0.027753621 0.02264962 0.68730003
-0.022554697 0.021993879 0.68785727
-0.017036192 0.020968573 0.68800008
-0.01225973 0.02124558 0.68785727
-0.0078637144 0.02136524 0.68810004
-0.0025609527 0.021502772 0.68790913
0.0021301194 0.021947738 0.68787503
0.0081448993 0.0221898 0.68814296
0.012449525 0.02227905 0.68800008
0.016759321 0.0221898 0.68814296
0.021654289 0.021216828 0.68900001
-0.16259429 -0.050893337 0.69400001
-0.15730667 -0.050893337 0.69400001
-0.1513581 -0.050893337 0.69400001
-0.14739239 -0.051554292 0.69400001
-0.14268894 -0.051526789 0.69362509
-0.13787469 -0.05115772 0.69400001
-0.1321905 -0.050893337 0.69400001
-0.12723334 -0.051223814 0.69400001
-0.12293714 -0.050893337 0.69400001
-0.11764953 -0.050893337 0.69400001
-0.11280763 -0.050795563 0.69266671
-0.10754553 -0.050805338 0.69280005
-0.10310858 -0.050893337 0.69400001
-0.097160004 -0.050893337 0.69400001
-0.091872387 -0.050893337 0.69400001
-0.087245725 -0.050893337 0.69400001
-0.082619056 -0.050893337 0.69400001
-0.07799238 -0.050893337 0.69400001
-0.072484456 -0.050893337 0.69400001
-0.068078101 -0.050893337 0.69400001
-0.062129531 -0.050893337 0.69400001
-0.05744826 -0.050844453 0.69333339
-0.05485905 -0.050893337 0.69400001
-0.040739369 -0.051309526 0.6936667
-0.036986195 -0.051517628 0.69350004
-0.033035003 -0.050875004 0.69375002
-0.029742859 -0.050893337 0.69400001
-0.16256383 -0.048990481 0.69200009
-0.15696621 -0.049026191 0.69250005
-0.15228193 -0.048348386 0.69160002
-0.14719145 -0.048626535 0.69128579
-0.14257716 -0.0488449 0.69171441
-0.13768905 -0.048753574 0.69175005
-0.13239537 -0.048744641 0.691625
-0.12744042 -0.048626535 0.69128579
-0.12245056 -0.048060399 0.69125009
-0.11765631 -0.048544407 0.69112504
-0.11204286 -0.048957147 0.69000006
-0.10755634 -0.048753064 0.69042861
-0.10266191 -0.048700005 0.69100004
-0.097468577 -0.048735715 0.69150001
-0.09221632 -0.048744403 0.691625
-0.087171748 -0.048381906 0.6916666
-0.083005711 -0.048196614 0.69111109
-0.077636287 -0.0481878 0.69136369
-0.072636366 -0.048207272 0.6916365
-0.06733048 -0.048875514 0.6921429
-0.062232658 -0.048865311 0.69200009
-0.057582457 -0.048565309 0.69042867
-0.053074129 -0.048469052 0.69083345
-0.047365956 -0.047366433 0.69075
-0.042319924 -0.048188139 0.69136369
-0.037538573 -0.048735719 0.69150007
-0.032746669 -0.048194632 0.69145465
-0.027864762 -0.047611009 0.69111115
-0.022564158 -0.047942169 0.69127274
-0.017299458 -0.047102995 0.69100016
-0.012345835 -0.046586789 0.69137502
-0.0079057952 -0.046776906 0.69175005
-0.0026364289 -0.046799447 0.69208336
0.0026384131 -0.046816826 0.6923334
0.0079144463 -0.046828099 0.6925
0.012530159 -0.046823923 0.69244438
0.01690924 -0.046630196 0.69349998
0.023463812 -0.045936197 0.69400001
-0.017085716 -0.044028573 0.69000006
-0.012485716 -0.044028573 0.69000006
-0.007885715 -0.044028573 0.69000006
-0.0026285718 -0.044028573 0.69000006
0.0032857144 -0.044028573 0.69000006
0.007885715 -0.044028573 0.69000006
0.012485716 -0.043371435 0.69000006
0.017299188 -0.042401366 0.69100016
0.022204287 -0.042433131 0.69150007
0.026284222 -0.041925587 0.69242865
0.018400002 -0.038771432 0.69000006
-0.17020001 0.0046000001 0.69000006
-0.15771429 0.0046000001 0.69000006
-0.17162277 0.0076427618 0.69150001
-0.16767825 0.0077560442 0.69169235
-0.16271923 0.0072494382 0.69172734
-0.15747531 0.007453627 0.69184619
-0.15285373 0.0083043817 0.69180006
-0.14736074 0.0092107151 0.69075
-0.14290458 0.0093342867 0.69020003
-0.13931429 0.0098571433 0.69000006
-0.17184763 0.011236191 0.69400001
-0.16986477 0.011236191 0.69400001
-0.15188687 0.011764953 0.69400001
-0.14764817 0.01179347 0.69342864
-0.14219287 0.012269048 0.69250005
-0.13743734 0.012651811 0.69180006
-0.1326336 0.012373334 0.69036371
-0.12754729 0.012492381 0.69033337
-0.12245637 0.01261065 0.69027281
-0.11736572 0.013537143 0.69000006
-0.11270001 0.013471429 0.69000006
-0.10974286 0.013800001 0.69000006
-0.13700494 0.01563889 0.69383335
-0.13236491 0.01575592 0.69342864
-0.12710737 0.016325578 0.69357151
-0.1225694 0.017022094 0.69266665
-0.1173313 0.017140836 0.69212496
-0.11246902 0.01728645 0.69184613
-0.10770275 0.016964829 0.69040012
-0.10266781 0.017879743 0.69063646
-0.097458802 0.01788944 0.69100004
-0.092203818 0.01786736 0.69018191
-0.087838106 0.018180955 0.69000006
-0.082552664 0.01850177 0.6902858
-0.078857146 0.019057143 0.69000006
-0.065057144 0.019057143 0.69000006
-0.062757142 0.018728573 0.69000006
-0.058485717 0.019057143 0.69000006
-0.12095429 0.020489525 0.69400001
-0.11831048 0.020489525 0.69400001
-0.11170096 0.020489525 0.69400001
-0.10747778 0.020440321 0.6923334
-0.10300954 0.020910477 0.69333333
-0.097589433 0.021680521 0.69363648
-0.092088498 0.021779051 0.69290912
-0.087243319 0.022572322 0.69293338
-0.082693204 0.022287769 0.69292313
-0.077782743 0.022414526 0.69212496
-0.072448522 0.022395777 0.69156247
-0.067240536 0.022415774 0.69218743
-0.062123891 0.022556385 0.69246662
-0.057578176 0.022273408 0.69246161
-0.052852459 0.022855535 0.69169229
-0.04766893 0.023506073 0.69037503
-0.042451438 0.024051432 0.69000006
-0.037457146 0.023985717 0.69000006
-0.033514287 0.024314288 0.69000006
-0.026285715 0.024314288 0.69000006
-0.021695558 0.023668572 0.69033337
-0.017098095 0.023674764 0.69050002
-0.012752572 0.02379562 0.69020003
-0.007885715 0.02387619 0.69000006
-0.0027600003 0.024051432 0.69000006
0.0030228575 0.024051432 0.69000006
0.0074914293 0.024051432 0.69000006
0.012485716 0.02431429 0.69000006
0.017490668 0.024065524 0.69040006
0.021886943 0.023390615 0.69042861
-0.085262865 0.025777144 0.69400001
-0.082619056 0.025777144 0.69400001
-0.078275651 0.026343677 0.69400001
-0.072264135 0.026217779 0.69400001
-0.067196824 0.026658414 0.69400007
-0.062790491 0.02653252 0.69400001
-0.057502862 0.025777144 0.69400001
-0.052867025 0.026433451 0.69387507
-0.047199175 0.026570596 0.69312501
-0.042194366 0.027032778 0.69225013
-0.037450384 0.027298955 0.69230002
-0.032895625 0.027540322 0.69173336
-0.027691728 0.02769566 0.6923126
-0.02255721 0.027572069 0.69253349
-0.01701848 0.027574286 0.69260001
-0.012534445 0.027709048 0.69266665
-0.0079579055 0.027569083 0.69246674
-0.0026355558 0.027016355 0.69183338
0.0026350596 0.027680419 0.69193757
0.0079014292 0.027657149 0.69137496
0.012643725 0.027506236 0.69209099
0.017146608 0.027700063 0.69243753
0.021759367 0.027695559 0.69233334
-0.035030477 0.031064764 0.69400001
-0.031064764 0.031064764 0.69400001
0.0039657145 0.031064764 0.69400001
0.0099142864 0.031064764 0.69400001
0.011236191 0.031064764 0.69400001
0.017845716 0.031064764 0.69400001
-0.16528858 -0.055096194 0.69700003
-0.16208479 -0.055135716 0.69749999
-0.15754859 -0.055175241 0.69800007
-0.15278669 -0.055135716 0.69749999
-0.14747144 -0.055800475 0.69749999
-0.14207689 -0.055901095 0.69757146
-0.13750716 -0.055800479 0.69750011
-0.13280977 -0.055115957 0.69725001
-0.12829906 -0.055175241 0.69800007
-0.12032191 -0.055175241 0.69800001
-0.11899239 -0.055175241 0.69800001
-0.092357785 -0.055148896 0.69766665
-0.087653577 -0.055115957 0.69725001
-0.076447621 -0.055175241 0.69800001
-0.071794286 -0.055175241 0.69800001
-0.067805722 -0.055175241 0.69800001
-0.035897143 -0.055175241 0.69800001
-0.032573339 -0.055175241 0.69800007
-0.16528858 -0.053768575 0.69700003
-0.16274491 -0.052923955 0.69585723
-0.15776001 -0.053029526 0.6960001
-0.15255693 -0.052766033 0.69544458
-0.14760476 -0.053614289 0.69500005
-0.14283906 -0.053879052 0.69500011
-0.13744885 -0.053068981 0.69528586
-0.13252454 -0.05301024 0.69575006
-0.12738927 -0.053135108 0.69614291
-0.12229933 -0.053146128 0.69628584
-0.11767987 -0.052923951 0.69585729
-0.11272596 -0.053048808 0.69625008
-0.1074634 -0.053021502 0.6971429
-0.10211948 -0.052867621 0.69677782
-0.097485609 -0.052687097 0.69633335
-0.092766911 -0.052678809 0.69575006
-0.087433338 -0.052990958 0.69550008
-0.08220917 -0.053039167 0.69612509
-0.077190891 -0.053135104 0.69614297
-0.072695956 -0.05266 0.69550008
-0.067380004 -0.05280032 0.695889
-0.062353343 -0.053068098 0.69650006
-0.057253659 -0.052833974 0.69633341
-0.05249048 -0.051162224 0.69766665
-0.047450859 -0.051437911 0.69779998
-0.042792507 -0.052580122 0.69662499
-0.03757124 -0.053503811 0.69700003
-0.032480005 -0.05302953 0.69600004
-0.027935769 -0.052261274 0.69655561
-0.0228498 -0.051672656 0.69685721
-0.017239762 -0.051058333 0.69625002
-0.012630477 -0.05118667 0.69800001
-0.0073123812 -0.051186673 0.69800007
-0.0023729254 -0.051725041 0.69757146
0.0027920001 -0.051452577 0.69800001
0.0079771429 -0.05118667 0.69800001
0.011284763 -0.051113337 0.69700003
0.022601906 -0.05118667 0.69800001
0.026590478 -0.05118667 0.69800001
-0.051701911 -0.04971429 0.69600004
-0.047727622 -0.04971429 0.6960001
-0.027138097 -0.049642861 0.69500005
-0.02051905 -0.049642861 0.69500005
-0.015931429 -0.049785718 0.69700003
-0.01293119 -0.049401194 0.69625008
-0.0079657147 -0.049785718 0.69700003
-0.0026552384 -0.049785718 0.69700003
0.0026552384 -0.049785718 0.69700003
0.0079657147 -0.049785718 0.69700003
0.012614287 -0.049785718 0.69700003
0.017692382 -0.049320638 0.69666672
0.022197857 -0.048262306 0.69575012
0.027184289 -0.047738578 0.69616675
0.027800001 -0.044347622 0.69500005
-0.16680002 0.009928572 0.69500005
-0.16282858 0.009928572 0.69500005
-0.15819526 0.009928572 0.69500005
-0.17059906 0.012612382 0.69700003
-0.16709918 0.012163281 0.69655555
-0.1628558 0.012236464 0.6971429
-0.15764131 0.012480261 0.69627279
-0.15275334 0.013465399 0.69533342
-0.14760476 0.013900001 0.69500005
-0.14429525 0.013900001 0.69500005
-0.15621907 0.015954286 0.69800001
-0.15255229 0.016163493 0.69744444
-0.1476942 0.016337622 0.69730002
-0.14222434 0.017313557 0.69707698
-0.13765858 0.01805762 0.69575012
-0.13216032 0.0183127 0.69500011
-0.12774764 0.018533338 0.69500011
-0.13760573 0.02060762 0.69800007
-0.13290501 0.020600239 0.69774997
-0.12698154 0.020832194 0.69660002
-0.12285887 0.021338478 0.69580001
-0.11718652 0.021669369 0.69650006
-0.11261715 0.021357337 0.69640005
-0.10727248 0.023096368 0.69645464
-0.10228263 0.023707144 0.69625008
-0.097961918 0.024159525 0.69500005
-0.093328588 0.023960954 0.69500011
-0.10170858 0.025925716 0.69800007
-0.096861377 0.027228437 0.69728577
-0.092801429 0.026514767 0.6960001
-0.087434195 0.027158577 0.69550008
-0.082314573 0.028500477 0.69590014
-0.077084288 0.02901143 0.69625008
-0.072929636 0.028628046 0.69544452
-0.067797974 0.02921837 0.69500011
-0.061762441 0.028784236 0.69566673
-0.057419624 0.028644955 0.69620007
-0.052733202 0.029065989 0.69585723
-0.04805667 0.029001191 0.6960001
-0.042361904 0.029785717 0.69500005
-0.03839048 0.029785717 0.69500005
-0.033757146 0.029785717 0.69500005
-0.02051905 0.029785717 0.69500005
-0.01919524 0.029785717 0.69500005
-0.0072809528 0.029785717 0.69500005
-0.002647619 0.029785717 0.69500005
0.011252382 0.029785717 0.69500005
-0.072425082 0.031228891 0.69766665
-0.068126857 0.031473909 0.6972
-0.062189531 0.031807214 0.69785714
-0.057431027 0.031800821 0.69771427
-0.052516192 0.031243812 0.69800007
-0.047181431 0.032229766 0.69774997
-0.042514443 0.03255064 0.69749999
-0.0373413 0.032635327 0.69672728
-0.032633815 0.032635242 0.69575006
-0.027849128 0.032493412 0.69625008
-0.022558413 0.032512702 0.69666672
-0.017255399 0.032520473 0.69683337
-0.012602541 0.032502223 0.69644445
-0.0079580955 0.032496832 0.69633341
-0.0026560319 0.032542698 0.69733334
0.0023840952 0.032740667 0.69590014
0.0077706496 0.032589003 0.69572735
0.012760715 0.032646433 0.69600004
0.017015766 0.03292815 0.6961112
0.021863811 0.032465715 0.69566673
-0.031908572 0.035232384 0.69800001
0.0059828577 0.035232384 0.69800001
0.017948573 0.035232387 0.69800007
0.023045082 0.035675559 0.69800007
-0.16211109 -0.061629411 0.70337504
-0.15774022 -0.061515052 0.70360011
-0.15488002 -0.061013337 0.70400006
-0.14728127 -0.061013337 0.70400012
-0.14415239 -0.061013337 0.70400006
-0.13074286 -0.061013337 0.70400006
-0.12739047 -0.061013337 0.70400006
-0.12202667 -0.061013337 0.70400006
-0.11733335 -0.061013337 0.70400012
-0.11233022 -0.061575655 0.70385724
-0.10720001 -0.061640482 0.70350003
-0.10325334 -0.061013337 0.70400006
-0.097889528 -0.061013337 0.70400006
-0.092525721 -0.061013337 0.70400006
-0.067047618 -0.061013337 0.70400006
-0.063695244 -0.061013337 0.70400006
-0.043580957 -0.061013337 0.70400012
-0.030841907 -0.061683815 0.70400006
-0.027814526 -0.06132691 0.70375001
-0.024137145 -0.061013337 0.70400006
-0.16600001 -0.056666672 0.70000005
-0.16282159 -0.058055874 0.70066667
-0.15750152 -0.058063105 0.70075005
-0.15251715 -0.058251522 0.70154548
-0.14743185 -0.058954839 0.70228583
-0.1423787 -0.05882512 0.70187509
-0.13719964 -0.058491316 0.70187503
-0.13231431 -0.058140635 0.70166671
-0.12736452 -0.058061823 0.70218194
-0.12286654 -0.057428852 0.70114297
-0.11744548 -0.057589214 0.7014668
-0.11218084 -0.057427026 0.70112509
-0.10739756 -0.057368182 0.70041674
-0.10278495 -0.057401367 0.70081246
-0.097489893 -0.057427738 0.70112497
-0.092408061 -0.05826658 0.70172739
-0.087430716 -0.05821627 0.70258343
-0.08262682 -0.057127621 0.70184624
-0.077613465 -0.05764496 0.70213348
-0.072184421 -0.057769049 0.7017858
-0.067315429 -0.057834476 0.70120013
-0.062794462 -0.057453752 0.70143759
-0.057532448 -0.057535779 0.70243752
-0.052176788 -0.057530366 0.70237511
-0.047480009 -0.057513177 0.70216674
-0.042750124 -0.057448212 0.70137507
-0.03763422 -0.057792589 0.70207155
-0.032122225 -0.058222704 0.7026667
-0.027604543 -0.057320733 0.7016924
-0.023031021 -0.057342596 0.70242864
-0.017748334 -0.056428097 0.70325005
-0.011721191 -0.055925481 0.70325005
-0.007707858 -0.055965006 0.70375001
-0.0031269842 -0.05607016 0.70366669
0.00067047623 -0.055649526 0.70400006
0.011398096 -0.055649526 0.70400006
-0.10866667 -0.054000005 0.70000005
-0.056666672 -0.054000005 0.70000005
-0.052000009 -0.053333342 0.70000005
-0.047600005 -0.053466674 0.70000005
-0.04466667 -0.054000005 0.70000005
-0.026666669 -0.054000005 0.70000005
-0.022272574 -0.053748764 0.70020002
-0.01735393 -0.053400602 0.7008751
-0.01196485 -0.052899573 0.70145464
-0.0073476201 -0.053435877 0.7013334
-0.0030708574 -0.053825911 0.70120001
0.0025786397 -0.0535498 0.70157152
0.0073563503 -0.053500161 0.70216674
0.012303906 -0.053093817 0.7021001
0.017399367 -0.052869216 0.70266676
0.022737335 -0.053101908 0.70220006
0.026742859 -0.053486668 0.70200002
-0.17133336 0.014000001 0.70000005
-0.16733333 0.014000001 0.70000005
-0.16200003 0.014000001 0.70000005
-0.17145906 0.017311022 0.70285726
-0.16741739 0.017439051 0.70207703
-0.16253266 0.017328955 0.70153344
-0.15773864 0.017648574 0.70045465
-0.15248112 0.018893493 0.7001667
-0.14710878 0.018805524 0.70020002
-0.14466667 0.019333335 0.70000005
-0.16202524 0.021760954 0.70300001
-0.15682682 0.021450751 0.70071441
-0.1521121 0.022244835 0.70123088
-0.14758044 0.022458356 0.70290917
-0.1427584 0.022633197 0.70185727
-0.13743144 0.023350477 0.70050013
-0.13207883 0.023347858 0.70041668
-0.12759097 0.023517383 0.70050001
-0.1227543 0.024017621 0.70050001
-0.11743822 0.024021788 0.70062506
-0.11228573 0.024095243 0.70000011
-0.15085715 0.027489526 0.70400006
-0.1495162 0.027489526 0.70400006
-0.14281145 0.026148573 0.70400012
-0.13746601 0.02665347 0.70214295
-0.13272542 0.026545716 0.7026667
-0.12724301 0.026712658 0.70371431
-0.12213462 0.02746455 0.70333338
-0.11759317 0.027315931 0.70263642
-0.11218795 0.027379528 0.70116675
-0.10740191 0.027351117 0.70044446
-0.1028889 0.027777782 0.70000005
-0.098888896 0.027777782 0.70000005
-0.092666678 0.028666668 0.70000005
-0.090000004 0.028666668 0.70000005
-0.12068573 0.03017143 0.70400006
-0.11695691 0.030831192 0.70375001
-0.11323096 0.030820478 0.70350003
-0.10774271 0.032124288 0.70266676
-0.10259928 0.031733774 0.70200014
-0.097550191 0.03207387 0.70156258
-0.092413343 0.032233905 0.70213348
-0.087511294 0.032068163 0.70142865
-0.082663581 0.032377221 0.70091677
-0.077351436 0.032674767 0.7001667
-0.072315656 0.033442453 0.70028579
-0.067381434 0.033357307 0.70050001
-0.063085154 0.03374305 0.70020002
-0.05693334 0.033733334 0.70000005
-0.052018575 0.033345476 0.70025003
-0.048666671 0.033333335 0.70000005
-0.075656198 0.035484765 0.70300001
-0.072308578 0.035484765 0.70300001
-0.067462228 0.035965398 0.70366669
-0.06222678 0.036802441 0.70255554
-0.057406742 0.03733753 0.70253348
-0.052148663 0.03681637 0.70281827
-0.047493506 0.037279315 0.70236373
-0.042769819 0.037425902 0.70168751
-0.037453689 0.037455834 0.70225006
-0.032406431 0.037976589 0.70158339
-0.027786668 0.037244361 0.70185727
-0.023048097 0.037300348 0.70292872
-0.01706413 0.036920011 0.70266676
-0.01203893 0.037456077 0.70225006
-0.0073523819 0.037433498 0.70183343
-0.0026730953 0.037415475 0.70150006
0.0026711314 0.037398871 0.70118755
0.0074670999 0.037580695 0.70118189
0.012027501 0.037422501 0.70162505
0.017211651 0.037867475 0.70130771
0.021883216 0.038256314 0.70162499
-0.030841906 0.040899049 0.70400006
-0.028160002 0.040899049 0.70400006
-0.0071070478 0.041435432 0.70400006
-0.0024574604 0.041773651 0.70366669
0.0024975759 0.042091519 0.70354551
0.0073723821 0.040879689 0.70366669
0.012466858 0.041155621 0.70380002
0.017416548 0.041532975 0.70337504
0.02209365 0.042180851 0.70300007
-0.16250287 -0.065405719 0.708
-0.15036573 -0.065405719 0.708
-0.14766859 -0.065405719 0.70800006
-0.14294858 -0.065405719 0.708
-0.053268574 -0.065405719 0.708
-0.16520001 -0.064057149 0.708
-0.16242637 -0.064026996 0.70766664
-0.15711239 -0.063519053 0.70700002
-0.15238278 -0.062676661 0.70609999
-0.14770287 -0.06284643 0.70574999
-0.1423066 -0.062630743 0.70572728
-0.13764611 -0.062703423 0.70640004
-0.13297687 -0.062524281 0.70589995
-0.12748967 -0.063121773 0.70614296
-0.12243822 -0.063238695 0.70637506
-0.11740042 -0.06336531 0.70671439
-0.11307834 -0.063608341 0.70675004
-0.10788572 -0.064057149 0.708
-0.10224033 -0.063050486 0.70677781
-0.097208582 -0.06336531 0.70671439
-0.092331432 -0.062765725 0.70559996
-0.087203123 -0.062394816 0.70581824
-0.082468681 -0.062432706 0.7065556
-0.077691846 -0.061751436 0.70585716
-0.072652072 -0.062562853 0.70633334
-0.067540281 -0.063121773 0.70614284
-0.062244385 -0.061976578 0.7058
-0.057706099 -0.062281717 0.70620006
-0.05267014 -0.062459227 0.70654553
-0.047320008 -0.062572703 0.7064445
-0.042778578 -0.062488101 0.70550007
-0.03764024 -0.061837863 0.70574999
-0.03276572 -0.062751025 0.70628583
-0.027569529 -0.062980965 0.70600003
-0.022416033 -0.062097944 0.70616668
-0.017302383 -0.061345562 0.70783341
-0.012586668 -0.060910478 0.70800006
-0.0074171438 -0.06068572 0.70800006
-0.002697143 -0.060348574 0.708
0.0033714287 -0.060011432 0.70800006
0.0074171438 -0.060011432 0.70800006
0.012137143 -0.060011432 0.708
0.01753143 -0.060011432 0.708
0.021577146 -0.060011432 0.708
-0.082585722 -0.059757147 0.70500004
-0.020814287 -0.059085719 0.70500004
-0.017383268 -0.058870614 0.70585716
-0.011964383 -0.058078486 0.7058
-0.0071297153 -0.057976574 0.70620006
-0.0025941499 -0.058317699 0.70614284
0.0028767099 -0.057349619 0.70690912
0.0073946035 -0.057144657 0.70588887
0.012239335 -0.05743077 0.70609999
0.017486509 -0.057167143 0.70616668
0.022885 -0.057214525 0.70675004
