# .PCD v0.7 - Point Cloud Data file format
VERSION 0.7
FIELDS x y z
SIZE 4 4 4
TYPE F F F
COUNT 1 1 1
WIDTH 1332
HEIGHT 1
VIEWPOINT 0 0 0 1 0 0 0
POINTS 1332
DATA ascii
-0.0074021434 -0.01542262 0.64775002
-0.002057143 -0.015840001 0.648
0.0018514286 -0.015737144 0.648
0.0080228578 -0.017280001 0.648
-0.092098109 -0.012526984 0.6468333
-0.087729841 -0.013733335 0.64566672
-0.082105316 -0.01361143 0.6454286
-0.077444889 -0.013522501 0.64537501
-0.07228668 -0.01361456 0.64557147
-0.067623332 -0.013525002 0.6455
-0.063115716 -0.013730001 0.64550006
-0.05774286 -0.014128572 0.64500004
-0.052646264 -0.013623402 0.64600009
-0.047989525 -0.013535715 0.64600003
-0.043614291 -0.014128572 0.6450001
-0.035628572 -0.014128572 0.64500004
-0.031942859 -0.014128572 0.64500004
-0.026660001 -0.013882858 0.64500004
-0.022382317 -0.013605172 0.64514291
-0.017334288 -0.01389162 0.64540005
-0.012285714 -0.014128572 0.64500004
-0.0069734929 -0.01374397 0.64616674
-0.0022585185 -0.013342964 0.64655554
0.0022597883 -0.013351853 0.64700001
0.0078055561 -0.013354128 0.64716673
0.011429333 -0.01216686 0.64520001
-0.091945343 -0.0079998104 0.64620006
-0.089071438 -0.005528572 0.64500004
-0.08862929 -0.0030778572 0.64625007
0.013719048 -0.0010238097 0.6450001
0.017070651 -0.001957922 0.64636368
-0.086637147 0.0028329527 0.64700001
0.0092142867 0.0043000001 0.64500004
0.012646301 0.0027954578 0.64646161
0.016657569 0.0018510055 0.6477778
-0.085844383 0.0070207627 0.64660007
-0.083691813 0.0082339058 0.64520001
0.0038926988 0.0088095246 0.64533341
0.0075887321 0.0075892061 0.64600003
0.011472002 0.0060445722 0.64760005
-0.085782863 0.011108572 0.648
-0.083122961 0.012465974 0.64563638
-0.00061428576 0.014128572 0.64500004
0.0027931137 0.01263326 0.64584619
0.0061685718 0.011720002 0.64766669
-0.082321577 0.017293163 0.64636362
-0.0023353649 0.017335873 0.64546669
0.0019525399 0.016946033 0.64700001
-0.0067602126 0.022877252 0.64533335
-0.0027275512 0.022005241 0.64692855
0.00061714288 0.020365715 0.648
-0.080845721 0.026537145 0.648
-0.078410961 0.027882857 0.64700001
-0.011065715 0.028279526 0.6455
-0.007430478 0.026976889 0.64666671
-0.0035780952 0.026035622 0.64780003
-0.077208571 0.031899761 0.64725006
-0.016950613 0.033288848 0.64557147
-0.012311837 0.032014694 0.64642859
-0.0088409539 0.030635877 0.64766669
-0.074328579 0.039928574 0.64500004
-0.020586429 0.039022621 0.64525002
-0.01756132 0.036592383 0.64615387
-0.013696191 0.036153715 0.64780003
-0.073251754 0.043088578 0.64633334
-0.021858618 0.042881306 0.64572734
-0.018620381 0.041063812 0.64740008
-0.072711438 0.04621429 0.64700001
-0.02683943 0.048510861 0.64639997
-0.022834286 0.045668576 0.648
-0.071199052 0.051501911 0.64633334
-0.068868577 0.052360386 0.64680004
-0.031260531 0.053562965 0.64644444
-0.028153336 0.0519927 0.64733338
-0.066680551 0.057344496 0.64742863
-0.064650007 0.059108101 0.64649999
-0.036872644 0.058696885 0.64627272
-0.032869939 0.057016604 0.64771438
-0.064388573 0.063154288 0.648
-0.046142861 0.064600006 0.64600003
-0.042225599 0.06332083 0.64633334
-0.037831273 0.062402859 0.64766663
-0.063565716 0.066034287 0.648
-0.047009535 0.06811633 0.64666665
-0.042788833 0.067128569 0.64772725
-0.061002862 0.071478099 0.64700001
-0.058685239 0.072834574 0.64590001
-0.052303392 0.073226996 0.64611113
-0.04869739 0.072739139 0.64725
-0.057350717 0.076775476 0.64750004
-0.053643271 0.076546669 0.64742863
-0.049371433 0.075908579 0.648
-0.095151432 -0.020522859 0.65300006
-0.093285725 -0.020522859 0.65300006
-0.075250484 -0.020522859 0.65300006
-0.071708426 -0.020932226 0.6528334
-0.068409532 -0.020522859 0.65300006
-0.050374288 -0.020522859 0.65300006
-0.047264766 -0.020522859 0.65300006
-0.043533336 -0.020522859 0.65300006
-0.035448574 -0.020522859 0.65300006
-0.031924449 -0.020937463 0.65300012
-0.027363813 -0.020522859 0.65300006
-0.024254287 -0.020522859 0.65300006
-0.095858261 -0.017805558 0.65216666
-0.092454553 -0.017499749 0.65153337
-0.087346517 -0.01800905 0.65200007
-0.082639374 -0.018266246 0.65133339
-0.077276938 -0.018544236 0.65144444
-0.072788768 -0.018724382 0.65100002
-0.067476191 -0.019190477 0.65000004
-0.061693884 -0.018676737 0.65057153
-0.057007506 -0.018589884 0.65062499
-0.051757555 -0.018668301 0.65028584
-0.047065005 -0.019197859 0.65025002
-0.042158574 -0.019220002 0.65100002
-0.037229527 -0.019234763 0.65149999
-0.031848192 -0.018960573 0.65060008
-0.027285121 -0.018604171 0.65112501
-0.022577433 -0.017989621 0.65130001
-0.017849168 -0.018315835 0.65187502
-0.012413811 -0.017381191 0.65175009
-0.0073867543 -0.017873161 0.65118188
-0.0027257146 -0.018211622 0.6504001
0.0026857941 -0.017870877 0.65075004
0.0065742866 -0.017367432 0.6512
-0.09610001 -0.01364 0.65100002
-0.094714291 -0.013 0.65000004
0.0061904769 -0.014238096 0.65000004
-0.092663817 -0.0055971434 0.65300006
-0.09191753 -0.003109524 0.65300006
-0.089440644 -0.0010323811 0.65066671
0.017952383 -0.0030952382 0.65000004
-0.090521753 0.0020715874 0.65250003
-0.088830248 0.0024854764 0.65224999
0.01609524 0.0043333336 0.65000004
-0.090176195 0.0055971434 0.65300006
-0.08799734 0.007323429 0.65160006
0.0092857145 0.0092857145 0.65000004
0.012658763 0.0079429531 0.65150005
0.01657388 0.0064710211 0.65142858
-0.086859368 0.012645397 0.65300006
0.0081837159 0.012770954 0.65090007
0.01105981 0.011557334 0.65240002
-0.085200958 0.018035239 0.65300006
0.0040254765 0.018269287 0.65025002
0.0072755115 0.017121226 0.65200007
-0.00061904767 0.023523811 0.65000004
0.0020022225 0.02187545 0.65211117
0.0055971434 0.020522859 0.65300006
-0.08154954 0.028284764 0.6503334
-0.0068095243 0.02909524 0.65000004
-0.0021073336 0.027664855 0.65130007
-0.080786198 0.031691905 0.65250003
-0.078989536 0.032525241 0.65050006
-0.01052381 0.034047622 0.65000004
-0.0073834639 0.03241048 0.65100008
-0.0033560002 0.030952191 0.65260005
-0.015896827 0.038607307 0.6503334
-0.012060952 0.037426457 0.65133339
-0.0089139696 0.03586318 0.65300006
-0.075250484 0.043533336 0.65300006
-0.016878096 0.042447437 0.65160006
-0.013881906 0.040817782 0.65266675
-0.022174291 0.047567885 0.65172732
-0.018331431 0.04567524 0.65250009
-0.026111024 0.052666124 0.65057147
-0.023226572 0.051920481 0.65210003
-0.070653975 0.058222227 0.65266675
-0.068407312 0.05848667 0.65100002
-0.031094858 0.058102477 0.6504001
-0.027495034 0.056856137 0.6519286
-0.023632381 0.055349529 0.65300006
-0.06713783 0.06163824 0.6518572
-0.035698414 0.063349217 0.65000004
-0.032587625 0.061695613 0.6513077
-0.029229525 0.060324766 0.65300006
-0.065488771 0.067478478 0.65240008
-0.063810959 0.068147153 0.65050006
-0.041240957 0.068983056 0.65020007
-0.037164547 0.067127779 0.65123075
-0.033772703 0.065681279 0.65266675
-0.065300003 0.070897147 0.65300006
-0.063108578 0.072213978 0.65177774
-0.045947623 0.072862186 0.65071434
-0.042090993 0.072478406 0.65215385
-0.0387454 0.070653975 0.65266675
-0.061696101 0.076961443 0.65170002
-0.057586513 0.079258576 0.65016675
-0.052130479 0.078575768 0.65077782
-0.046909094 0.07739377 0.65200007
-0.043425176 0.076461099 0.65271437
-0.060565956 0.082308337 0.65225005
-0.057098895 0.082544923 0.65166664
-0.052142933 0.082158171 0.65238464
-0.04763791 0.080474488 0.65300006
-0.05659334 0.085200958 0.65300006
-0.051582702 -0.026522381 0.6578334
-0.049038734 -0.026084445 0.65733337
-0.030706668 -0.025693335 0.65800005
-0.10089334 -0.021306667 0.65800005
-0.097631082 -0.021591786 0.65712506
-0.092047945 -0.021450793 0.65600002
-0.087582514 -0.021270834 0.65687507
-0.082306772 -0.021641048 0.65670007
-0.07764139 -0.021981645 0.65600014
-0.073139809 -0.022631241 0.65640002
-0.067346357 -0.022033121 0.6567778
-0.062708579 -0.022091724 0.65692312
-0.057565719 -0.02190127 0.65700006
-0.052659307 -0.022641018 0.65666664
-0.047511198 -0.023132306 0.65641671
-0.042560324 -0.022533176 0.65716672
-0.037543006 -0.022354288 0.65615392
-0.032732666 -0.023363907 0.65590006
-0.027517144 -0.023141429 0.65666676
-0.022635719 -0.022324448 0.65716672
-0.017402193 -0.021785811 0.65730006
-0.01253131 -0.021302737 0.65787506
-0.0075147622 -0.021290714 0.65750003
-0.0028172224 -0.022019129 0.65741676
-0.10089334 -0.019426668 0.65800005
-0.098713338 -0.017493334 0.65600002
-0.021833334 -0.019338097 0.65500003
-0.015595239 -0.019338097 0.65500003
-0.012476191 -0.019338097 0.65500003
-0.0081095239 -0.019338097 0.65500003
-0.096984766 -0.011886191 0.65700006
-0.095770724 -0.0075121429 0.65725005
-0.094410956 -0.0062528579 0.65649998
-0.09580715 -0.0025038098 0.65750003
-0.093543962 -0.0020503402 0.65542865
-0.095880017 0.0027155557 0.65800011
-0.093454294 0.0027523811 0.65680003
-0.095880009 0.0062666675 0.65800005
-0.092340253 0.0072954763 0.65658343
-0.089204766 0.008733334 0.65500003
0.01434762 0.0093571432 0.65500003
0.017485399 0.0089507941 0.65566671
-0.091424294 0.010645239 0.65750003
-0.088844627 0.012769798 0.65628576
0.013113077 0.012886408 0.65563649
0.017495181 0.012496606 0.6560626
-0.087809645 0.017312065 0.65700001
0.008733334 0.019338097 0.65500003
0.012332858 0.017247146 0.65678579
0.017535318 0.016909923 0.65758336
-0.086315937 0.022271838 0.65742862
-0.083825983 0.022764763 0.65614289
0.0035376195 0.0235154 0.65550005
0.0072968262 0.022307303 0.65666676
0.010653334 0.020680001 0.65800005
-0.085722864 0.025654288 0.65700001
-0.083782867 0.02626048 0.65649998
-0.00062380958 0.02931905 0.65500003
0.00210684 0.026917404 0.65727276
-0.081844769 0.032799523 0.65600002
-0.0056142863 0.033685714 0.65500003
-0.0022480001 0.032987621 0.65600008
-0.080778576 0.036319524 0.65750003
-0.079128578 0.036537465 0.65766668
-0.010612858 0.038706191 0.65550005
-0.0071635903 0.037845351 0.65638471
-0.0040700003 0.036632858 0.65750003
-0.077716194 0.042844769 0.65675002
-0.015595239 0.044290479 0.65500003
-0.012163225 0.042841181 0.65630782
-0.0088958098 0.04172362 0.65780008
-0.076572172 0.047362439 0.65722227
-0.074460007 0.048805717 0.65700001
-0.020585716 0.049280956 0.65500003
-0.017181512 0.048009288 0.65608346
-0.013567145 0.046547465 0.65750003
-0.07639572 0.050721433 0.65750003
-0.072709143 0.052935433 0.65700001
-0.02102286 0.052870795 0.65566671
-0.017789049 0.052388098 0.65707147
-0.070979372 0.056408577 0.65566671
-0.026219524 0.059307143 0.65550005
-0.022860318 0.057328258 0.6566667
-0.019426668 0.055773336 0.65800005
-0.070544288 0.06118048 0.65550005
-0.068557717 0.063562296 0.65560001
-0.03101429 0.063901916 0.65566671
-0.027524358 0.062558919 0.65685719
-0.067578375 0.067221366 0.65614295
-0.035557143 0.069242865 0.65500003
-0.032307226 0.067743741 0.65658337
-0.029453335 0.065800004 0.65800005
-0.067333601 0.072901227 0.65627283
-0.037632763 0.072767243 0.65640008
-0.033840001 0.070813335 0.65800005
-0.06714493 0.076109059 0.65683341
-0.064252384 0.076728575 0.65500003
-0.046785716 0.079223812 0.65500003
-0.041623499 0.078036204 0.6566667
-0.038447719 0.077397622 0.65750003
-0.050528575 0.084214292 0.65500003
-0.047516476 0.083157249 0.65650004
-0.042571075 0.081389412 0.65737504
-0.039480001 0.080840006 0.65800005
-0.060601909 0.085592389 0.65600002
-0.053561755 0.086492553 0.65650004
-0.053590484 -0.030893337 0.66200006
-0.10189261 -0.027427547 0.66261548
-0.097147986 -0.026495356 0.66237509
-0.092484199 -0.026117716 0.66240007
-0.087137148 -0.025888573 0.66300005
-0.082137145 -0.026370287 0.66240007
-0.077524386 -0.025841713 0.66180009
-0.072206542 -0.026413063 0.66257155
-0.06746123 -0.026750749 0.66200012
-0.062816091 -0.026682118 0.66177785
-0.057977814 -0.026847333 0.66170007
-0.053815875 -0.028204445 0.66133338
-0.047076385 -0.026630668 0.66260004
-0.043061558 -0.027007883 0.66227281
-0.038006324 -0.02700061 0.66209102
-0.03270328 -0.026962752 0.66177779
-0.027980668 -0.026847525 0.66170007
-0.02312794 -0.026283178 0.66233343
-0.012347076 -0.026407486 0.66242868
-0.0082023814 -0.026500478 0.66250008
-0.10635949 -0.022366459 0.66255563
-0.10261291 -0.023064332 0.66100001
-0.097691983 -0.023996737 0.66057146
-0.092591561 -0.023936072 0.66137505
-0.087519169 -0.023927262 0.66112506
-0.083148196 -0.024025908 0.66040009
-0.077942863 -0.024514288 0.66000003
-0.072832011 -0.024277715 0.66040009
-0.067802288 -0.024277717 0.66040003
-0.062228575 -0.024514288 0.66000003
-0.057828575 -0.024514288 0.66000003
-0.041516669 -0.024532858 0.66050005
-0.038372859 -0.024532858 0.66050005
-0.021580955 -0.024095241 0.66000003
-0.017809525 -0.023885718 0.66000009
-0.012575715 -0.023894999 0.66025001
-0.0075446432 -0.023890361 0.66012502
-0.0031428575 -0.024514288 0.66000003
-0.10608001 -0.01831143 0.66300011
-0.10277022 -0.0174613 0.66127276
-0.10544858 -0.010734286 0.66300005
-0.10142644 -0.012145715 0.66250008
-0.099074766 -0.012580001 0.66050005
-0.10139906 -0.0086250808 0.66266674
-0.098169051 -0.007550715 0.66075003
-0.097797632 -0.0025233335 0.66250002
-0.097094297 0.00126 0.66200006
-0.095345721 0.0082085719 0.66300005
-0.093799055 0.0094428575 0.66100001
-0.09222082 0.012865716 0.66128576
-0.091480561 0.017540954 0.66114295
-0.089885719 0.0176 0.66000003
0.013828572 0.019485716 0.66000003
0.0176 0.019485716 0.66000003
-0.088347867 0.023580715 0.66025007
0.0090142861 0.024106987 0.6603334
0.01273397 0.022820318 0.66186678
0.01738313 0.02251837 0.66200006
-0.08641874 0.028386986 0.66233343
-0.084523186 0.029153652 0.6606667
0.003397143 0.029066859 0.66060007
0.0075575598 0.027708039 0.66118753
0.011573493 0.027144922 0.66283339
0.016627621 0.026309526 0.66300005
-0.085620962 0.031345401 0.66266674
-0.083632633 0.033454049 0.66275007
-0.00062857149 0.034571432 0.66000003
0.0023961274 0.032642987 0.66166675
0.0073038097 0.031467892 0.66271436
-0.082782634 0.037683811 0.66225004
-0.079889052 0.039000481 0.66050005
-0.0019932543 0.038101509 0.66125005
0.0012620238 0.037849881 0.66237509
-0.081208579 0.042807624 0.66100001
-0.079514287 0.042114288 0.66000003
-0.0069219926 0.043196972 0.66081822
-0.0032796194 0.042520575 0.66240013
0.0012628572 0.041042861 0.66300005
-0.080802485 0.048028387 0.66180009
-0.079098485 0.047660004 0.66020006
-0.011951144 0.048437051 0.66050005
-0.0081940265 0.047509182 0.6619091
-0.0044200001 0.046094287 0.66300005
-0.080191433 0.051145718 0.66300005
-0.076895252 0.052171431 0.66000003
-0.074514061 0.053449292 0.66025001
-0.01572619 0.054098576 0.66050005
-0.012725398 0.052797914 0.66153342
-0.0091521433 0.052073576 0.66275007
-0.075055003 0.058026433 0.66225004
-0.07323461 0.057916831 0.66100001
-0.021528954 0.059050102 0.66100007
-0.017853811 0.057766035 0.66166675
-0.01389143 0.056197148 0.66300005
-0.075140007 0.06188 0.66300005
-0.072535977 0.063022122 0.66100001
-0.02577143 0.064742863 0.66000003
-0.023021467 0.062671877 0.66161549
-0.019574286 0.061248574 0.66300005
-0.072590165 0.067119695 0.66277784
-0.069930002 0.068040475 0.66150004
-0.030800002 0.069771431 0.66000003
-0.027572131 0.068115249 0.66100001
-0.023702724 0.067144088 0.66242868
-0.070720002 0.071351431 0.66300005
-0.069982864 0.071243815 0.66200006
-0.035828575 0.073542863 0.66000003
-0.032686498 0.072873861 0.66118181
-0.028389528 0.072011575 0.66242862
-0.024625717 0.070088573 0.66300005
-0.068514287 0.077314287 0.66000003
-0.036170002 0.077687152 0.66050005
-0.032955326 0.076516367 0.66200018
-0.044628575 0.083600007 0.66000003
-0.10512858 -0.031220002 0.66900003
-0.10215525 -0.031220002 0.66900003
-0.097384453 -0.03118889 0.66833341
-0.092840195 -0.031456195 0.66860008
-0.087925717 -0.031220002 0.66900003
-0.082786359 -0.031629212 0.66866678
-0.077615246 -0.031810477 0.6680001
-0.07252571 -0.031810477 0.66799998
-0.067410953 -0.031798813 0.66775006
-0.062393814 -0.031196669 0.66850007
-0.056451432 -0.031080002 0.66600001
-0.046511434 -0.031220002 0.66900003
-0.041958574 -0.031150002 0.66750008
-0.03504286 -0.031220002 0.66900003
-0.032239433 -0.031729717 0.66900009
-0.028444763 -0.031629212 0.66866678
-0.10646572 -0.027029907 0.6662001
-0.10413016 -0.029359367 0.66533339
-0.097588226 -0.029150121 0.66537499
-0.092432737 -0.0286594 0.66600007
-0.087564848 -0.028554685 0.66624999
-0.082559243 -0.028788766 0.66579998
-0.077382863 -0.028544126 0.66600001
-0.072048888 -0.028947093 0.66555554
-0.067085996 -0.029242998 0.66542858
-0.062520638 -0.029359369 0.66533339
-0.057956386 -0.029295815 0.66580003
-0.050221432 -0.029244289 0.66750002
-0.047250617 -0.029293608 0.66657144
-0.042148098 -0.029472383 0.66550004
-0.037653718 -0.029540194 0.6656
-0.033397306 -0.029381748 0.66583335
-0.027464289 -0.029366827 0.66550004
-0.022599813 -0.028824002 0.66659999
-0.01790343 -0.02780959 0.66660005
-0.012922435 -0.029020002 0.66722232
-0.0095000006 -0.028500002 0.66500002
-0.10774811 -0.024718571 0.66550004
-0.10576668 -0.015833335 0.66500002
-0.10592572 -0.01205143 0.66600001
-0.10384273 -0.012946669 0.66542858
-0.10196667 -0.0073888898 0.66500008
-0.10107858 -0.0038128574 0.66750002
-0.099620238 -0.0025364286 0.66624999
-0.10003144 0.00063714292 0.66900003
-0.095920958 0.0095285717 0.66700006
-0.09620858 0.011468573 0.66900003
-0.094792388 0.012724763 0.66800004
-0.093240008 0.019029524 0.66600001
-0.090975247 0.022268575 0.6680001
-0.089434288 0.02093143 0.66600001
-0.091536194 0.029520955 0.66900003
-0.08886715 0.028563654 0.66650003
0.01330581 0.028259907 0.66530001
0.016161906 0.028521907 0.66550004
-0.092067152 0.031538572 0.66900003
-0.087777548 0.033206906 0.66625005
0.0044333334 0.034833334 0.66500002
0.0076090479 0.033922143 0.66575003
0.012486985 0.031958733 0.66666681
-0.087342121 0.036926035 0.66722226
-0.08296667 0.039900001 0.66500002
0.0038025002 0.038021788 0.66537499
0.007136086 0.037086565 0.66755563
-0.085928582 0.04179905 0.66833341
-0.083894283 0.04215873 0.66733336
-0.0012666668 0.043700002 0.66500002
0.002609418 0.042645823 0.66611117
0.0061476193 0.040483497 0.66766679
-0.086014293 0.045237146 0.66900003
-0.08380077 0.046159621 0.66760004
-0.0061250804 0.048368894 0.66533339
-0.0025382859 0.047615431 0.66659999
0.0010609524 0.045594286 0.6680001
-0.08091715 0.052882861 0.66900003
-0.07882905 0.053400476 0.66750008
-0.0068366146 0.052098837 0.66622221
-0.004141429 0.051290005 0.66900003
-0.078041829 0.057013948 0.66718179
-0.015833335 0.058900002 0.66500002
-0.012271516 0.057673424 0.66545457
-0.0089878924 0.056926403 0.6672858
-0.07703048 0.062147759 0.66685718
-0.020900002 0.063966669 0.66500002
-0.017418977 0.062509671 0.6660769
-0.013904763 0.061711848 0.66800004
-0.076577246 0.067177817 0.66670001
-0.074100003 0.06903334 0.66500002
-0.021465579 0.067478105 0.66571426
-0.018442944 0.06701421 0.66781825
-0.075979054 0.070899688 0.66666669
-0.072605722 0.072480962 0.66640002
-0.027003814 0.073660195 0.6656
-0.02311781 0.071899153 0.6669001
-0.01975143 0.070722863 0.66900003
-0.071781911 0.075593337 0.66700006
-0.032383494 0.078942865 0.66666669
-0.028734971 0.076419607 0.66628575
-0.085373342 -0.035304762 0.67400002
-0.082377784 -0.035732701 0.67400002
-0.078526363 -0.035732701 0.67400002
-0.072535247 -0.035304762 0.67400002
-0.067941912 -0.035252385 0.67300004
-0.064832382 -0.035946667 0.67400002
-0.032737143 -0.035304762 0.67400002
-0.11136763 -0.030567622 0.67333335
-0.10776754 -0.032081474 0.67245454
-0.10231644 -0.032985955 0.67249995
-0.097659051 -0.033051752 0.67166674
-0.092883252 -0.033439428 0.67260003
-0.087520383 -0.032838475 0.67080003
-0.082346678 -0.033494607 0.67200005
-0.077362552 -0.033886351 0.67133331
-0.072851427 -0.033869527 0.671
-0.067765005 -0.033882145 0.67124999
-0.063114934 -0.033051115 0.67166674
-0.058425911 -0.032090671 0.67119998
-0.051561911 -0.032696601 0.67314285
-0.047581911 -0.033072911 0.67211109
-0.042232264 -0.033275358 0.671875
-0.037274983 -0.032740608 0.6716364
-0.032400381 -0.03368495 0.67240006
-0.026211431 -0.033035558 0.67133343
-0.023014048 -0.031965476 0.67125005
-0.017902263 -0.031971309 0.67137504
-0.013443334 -0.032009684 0.67216671
-0.11112335 -0.027861431 0.67250001
-0.10838115 -0.028212383 0.67020005
-0.015952382 -0.029990477 0.67000002
-0.1071981 -0.014121906 0.67400002
-0.10384572 -0.0067100003 0.671
-0.1030031 -0.0025588097 0.67175001
-0.10203576 0.0023872729 0.67227268
-0.099101596 0.0031980954 0.67133331
-0.10142096 0.0057771434 0.67400002
-0.098894291 0.0083361911 0.67340004
-0.097701371 0.013164445 0.67244446
-0.096194021 0.017698232 0.67400008
-0.096285731 0.022466671 0.67400002
-0.09305191 0.023023095 0.67149997
-0.092841096 0.027165176 0.6722858
-0.089333341 0.026161907 0.67000002
-0.091953814 0.033206195 0.67050004
0.012761906 0.03381905 0.67000002
-0.091520004 0.035200004 0.67200005
0.0092559531 0.03798119 0.67025006
0.012677143 0.037004638 0.67220002
0.016475556 0.03872826 0.67400002
-0.087733723 0.041881528 0.67240006
-0.084866673 0.042752385 0.67000002
0.0044666668 0.044028573 0.67000002
0.0073590484 0.042224288 0.67175001
0.011340319 0.04086794 0.67400002
-0.09050858 0.046859052 0.67400002
-0.087360717 0.047521196 0.67199999
-0.084525727 0.048756197 0.67066669
-0.00063904765 0.04920667 0.671
0.0025609524 0.047375429 0.67220002
0.0061993655 0.045958102 0.67333335
-0.086208574 0.050956193 0.67300004
-0.082788579 0.052422144 0.67125005
-0.0057428577 0.0542381 0.67000002
-0.0020244445 0.052787464 0.6718334
0.001069524 0.052183177 0.67366672
-0.081727467 0.057189368 0.67216671
-0.07988096 0.059431434 0.671
-0.0066087828 0.057786141 0.67166668
-0.0029922226 0.056232225 0.67350006
0.00064190483 0.055845719 0.67400002
-0.080238104 0.064832382 0.67400002
-0.07848572 0.063809529 0.67000002
-0.011851429 0.063092917 0.67066669
-0.0093518104 0.062392574 0.67260003
-0.080238104 0.066116191 0.67400002
-0.07848572 0.067000002 0.67000002
-0.016467622 0.068552196 0.67020005
-0.01315392 0.067551285 0.6725384
-0.022343811 0.073842868 0.67033339
-0.018300954 0.071715243 0.67033339
-0.048476197 -0.040720001 0.67866677
-0.1156681 -0.036187146 0.67850006
-0.11217652 -0.036387935 0.67822218
-0.10726964 -0.036791146 0.67769998
-0.10284762 -0.036788058 0.67763638
-0.097429529 -0.036134765 0.67750007
-0.092607774 -0.036031164 0.67728585
-0.08769796 -0.037275244 0.67746156
-0.082401909 -0.038300764 0.67700005
-0.077137619 -0.037604447 0.67683333
-0.072300769 -0.036472574 0.6766001
-0.067101911 -0.03710191 0.67750001
-0.062172201 -0.036505725 0.67720002
-0.05745874 -0.036801171 0.67788887
-0.052715003 -0.036901668 0.67775005
-0.047707919 -0.037395898 0.67693764
-0.042681772 -0.037153613 0.67757148
-0.037396196 -0.036753975 0.67700005
-0.031992067 -0.037146352 0.67633337
-0.026978984 -0.037111092 0.67678577
-0.02237286 -0.037004605 0.67766666
-0.017455399 -0.036204606 0.67883337
-0.013580001 -0.036213338 0.67900002
-0.11584287 -0.031808574 0.67700005
-0.1128417 -0.032659471 0.67533338
-0.10928572 -0.034071431 0.67500001
-0.10350001 -0.034071431 0.67500001
-0.096428573 -0.034071431 0.67500001
-0.090642862 -0.034071431 0.67500001
-0.088115565 -0.034088258 0.67533338
-0.061714292 -0.034071431 0.67500001
-0.057540007 -0.033854671 0.67580003
-0.054214291 -0.033642858 0.67500007
-0.027642861 -0.034071431 0.67500007
-0.022511113 -0.034088258 0.67533338
-0.018044049 -0.034159765 0.67675
-0.013560001 -0.034222864 0.67800009
-0.11577296 -0.027490288 0.67760003
-0.11310787 -0.026547145 0.67575008
-0.11612763 -0.023483811 0.67866677
-0.11305698 -0.022116538 0.67763638
-0.11108651 -0.017616352 0.67683333
-0.10955366 -0.018222224 0.67533338
-0.11090255 -0.014428254 0.6783334
-0.10912572 -0.012911906 0.67799997
-0.10777219 -0.0077445717 0.67760003
-0.10662191 -0.0025847622 0.6785
-0.10573366 0.0019387304 0.6783334
-0.10350001 0.0045000003 0.67500001
-0.10241789 0.0079446565 0.67633337
-0.099642865 0.0070714289 0.67500001
-0.1019112 0.012900238 0.67725003
-0.099642865 0.013500001 0.67500001
-0.10112906 0.017770479 0.67850006
-0.098644927 0.017584287 0.67550009
-0.10008572 0.020017143 0.67800003
-0.098502867 0.021243811 0.67600006
-0.096069537 0.026437145 0.67700005
-0.094500005 0.027000003 0.67500001
-0.091794863 0.038343433 0.6778
-0.089357145 0.038571432 0.67500001
0.014785715 0.039214287 0.67500001
-0.091045722 0.041973334 0.67799997
-0.089267381 0.043184049 0.67675006
0.0091285724 0.043328576 0.67500001
0.01323143 0.042864546 0.67638475
0.016751431 0.04252572 0.67650008
-0.090642862 0.049500003 0.67500001
-0.089401275 0.04780826 0.67533338
0.0040714289 0.049071431 0.67500007
0.0077945455 0.047876626 0.67681825
0.011635954 0.046543099 0.67875004
-0.087381542 0.052944411 0.67587507
-0.084214292 0.05464286 0.67500001
0.0034788575 0.053066481 0.67620009
0.0062482543 0.05257016 0.67866671
-0.08629448 0.057143997 0.67720002
-0.083986431 0.057599291 0.67575008
-0.002314667 0.058774859 0.6752001
0.0024045892 0.057586938 0.6766364
-0.085880004 0.060051434 0.67800003
-0.082238883 0.062072128 0.67700005
-0.0069249999 0.062657863 0.67650002
-0.0030677386 0.062184889 0.67837495
0.001937143 0.060051434 0.67800003
-0.081886671 0.066086672 0.67700005
-0.010928572 0.06878572 0.67500001
-0.0079579372 0.066906676 0.67766666
-0.0045266668 0.065313339 0.67900002
-0.11660572 -0.041040003 0.68400002
-0.11204572 -0.041040003 0.68400002
-0.10713088 -0.041525152 0.68340009
-0.10316477 -0.041240577 0.68300003
-0.097256683 -0.041464292 0.68383336
-0.092065409 -0.042400479 0.68316674
-0.087424621 -0.042576991 0.68250006
-0.082881592 -0.041912276 0.68166667
-0.077955127 -0.041577976 0.68212503
-0.073193341 -0.04157266 0.68357152
-0.067699768 -0.04166143 0.68350005
-0.062259048 -0.041434288 0.6833334
-0.056822062 -0.041424293 0.68316674
-0.052349124 -0.041750208 0.68342865
-0.047509208 -0.041868575 0.6833334
-0.042908221 -0.041608691 0.68262506
-0.037679475 -0.041875243 0.6834445
-0.032530598 -0.041638695 0.68312502
-0.02683723 -0.042176455 0.68127275
-0.022383098 -0.042281516 0.68125004
-0.018386032 -0.041313019 0.68133342
-0.1205143 -0.036480002 0.68400002
-0.11767437 -0.038122687 0.68263644
-0.11290573 -0.038934607 0.68133342
-0.10776229 -0.039292194 0.68080008
-0.10153525 -0.039032385 0.68080008
-0.09739311 -0.038958337 0.68175
-0.092415377 -0.039023813 0.6812858
-0.088723816 -0.039504763 0.68000001
-0.075771436 -0.039504763 0.68000001
-0.072640009 -0.038915243 0.68099999
-0.06781619 -0.039056469 0.68185723
-0.061876349 -0.039160162 0.68150008
-0.057033814 -0.039533813 0.68050003
-0.053320639 -0.03907302 0.68000001
-0.04209524 -0.039504763 0.68000001
-0.037617147 -0.039562859 0.68099999
-0.032430477 -0.039562859 0.68100005
-0.027847622 -0.039504763 0.68000001
-0.02072381 -0.038857147 0.68000001
-0.017494923 -0.038876511 0.68033338
-0.013923811 -0.038533337 0.68000001
-0.12045556 -0.033207305 0.68366671
-0.11831494 -0.03287778 0.6813333
-0.1203381 -0.027970478 0.68300003
-0.11842878 -0.028146857 0.68100005
-0.11592381 -0.02137143 0.68000001
-0.11530287 -0.016285716 0.68400002
-0.11377779 -0.017554924 0.68266672
-0.11530288 -0.01281143 0.68400002
-0.11267652 -0.012486667 0.68211108
-0.11530287 -0.0084685721 0.68400002
-0.11219066 -0.0079679666 0.68163639
-0.10944763 -0.005828572 0.68000001
-0.11167184 -0.0028767351 0.68228585
-0.10901588 -0.0021587303 0.68000001
-0.10556191 0.0045333337 0.68000001
-0.10622843 0.0073544453 0.68150008
-0.10457334 0.0097428579 0.68200004
-0.10631358 0.012030715 0.68274999
-0.10480334 0.013020476 0.68350005
-0.10337525 0.017556828 0.68266672
-0.1016416 0.021673337 0.68266672
-0.099668577 0.024102859 0.68400002
-0.098872393 0.02601905 0.68300003
-0.09445715 0.039737146 0.68400002
-0.095760003 0.041040003 0.68400002
-0.09339229 0.043120105 0.68255562
-0.095760003 0.047554288 0.68400002
-0.092951909 0.046800956 0.6825
0.0097142868 0.04921905 0.68000001
0.013627024 0.047698218 0.68137503
0.016747428 0.04712991 0.68160003
0.0088048987 0.052730892 0.68114293
0.011933652 0.051855773 0.6834445
-0.087428577 0.058933336 0.68000001
0.0045333337 0.058933336 0.68000001
0.0078033349 0.057213269 0.682643
0.011074287 0.055371433 0.68400002
-0.087184928 0.062462069 0.68316674
-0.084838107 0.062819049 0.68000001
-0.0016195239 0.063837618 0.68050003
0.0019513096 0.062412031 0.68262506
0.0058628577 0.060582861 0.68400002
-0.0062603182 0.068863496 0.68000001
-0.0024657783 0.067681268 0.68200016
0.00065142859 0.065794289 0.68400002
-0.12139525 -0.045277145 0.68900001
-0.11745811 -0.045277145 0.68900001
-0.11352096 -0.045277145 0.68900001
-0.10236572 -0.045277145 0.68900001
-0.097316884 -0.045989528 0.68842864
-0.092648819 -0.046325713 0.6875
-0.087484092 -0.045942046 0.68771434
-0.082618579 -0.045244288 0.68850005
-0.076774299 -0.045277145 0.68900001
-0.071997695 -0.04578327 0.68814296
-0.067489527 -0.045867622 0.68800008
-0.062827624 -0.045513339 0.68860006
-0.057621196 -0.045833815 0.6875
-0.052611705 -0.045697693 0.68685728
-0.04721 -0.045244288 0.68850005
-0.041996192 -0.045605242 0.68900001
-0.037691433 -0.045735788 0.68742865
-0.032527242 -0.046300765 0.68860012
-0.027830072 -0.046008304 0.68871439
-0.12533239 -0.040683813 0.68900001
-0.1222498 -0.042716864 0.68790007
-0.11781429 -0.04287238 0.68725002
-0.11245524 -0.043151908 0.68650007
-0.10778705 -0.043614101 0.68760008
-0.1022849 -0.043249801 0.68657148
-0.098159432 -0.043263432 0.68620008
-0.094733343 -0.043773334 0.68600005
-0.081072859 -0.043805242 0.68650007
-0.077205718 -0.043837145 0.68700004
-0.072245717 -0.043478575 0.68650007
-0.067946672 -0.043773334 0.68600005
-0.062983975 -0.043369688 0.68650001
-0.057957463 -0.043359052 0.68633342
-0.052266672 -0.043773334 0.68600005
-0.046976957 -0.043575816 0.6870001
-0.042508572 -0.043815877 0.68666673
-0.038111113 -0.043773334 0.68600005
-0.032678336 -0.043789286 0.68625003
-0.028746668 -0.043773334 0.68600005
-0.12533239 -0.038059048 0.68900001
-0.12250667 -0.038176764 0.68640006
-0.12253973 -0.03280912 0.68700004
-0.12008286 -0.025591429 0.68900001
-0.11890668 -0.026133336 0.68600005
-0.11821938 -0.020759685 0.68833339
-0.11713001 -0.017389048 0.68900001
-0.11564001 -0.013720001 0.68600005
-0.11564001 -0.009800001 0.68600005
-0.1108962 0.0019685715 0.68900001
-0.10836381 0.0029457146 0.68750006
-0.10589175 0.017648891 0.68633342
-0.10582732 0.02073016 0.68733335
-0.10353868 0.023169145 0.68720007
-0.10198297 0.027152067 0.68788898
-0.096757472 0.039094608 0.68800008
-0.097022675 0.042028002 0.68740004
-0.096460007 0.045933336 0.68900001
-0.094733343 0.04638667 0.68600005
0.018307146 0.049035717 0.68650007
0.013720001 0.052920006 0.68600005
0.017001849 0.052309588 0.68656254
0.009800001 0.059453338 0.68600005
0.012545975 0.057733864 0.68672729
0.016613076 0.056984168 0.68772745
0.0039222226 0.063404456 0.68633336
0.00719932 0.062184636 0.68728584
0.01181143 0.06102572 0.68900001
-0.11831048 -0.050893337 0.69400001
-0.11302286 -0.050893337 0.69400001
-0.091872387 -0.050893337 0.69400001
-0.087474711 -0.051428445 0.69357145
-0.061698295 -0.051128007 0.69360006
-0.058300003 -0.051260006 0.69300002
-0.12687321 -0.046624497 0.69228572
-0.12250882 -0.04775469 0.69158334
-0.11721184 -0.048071988 0.69141674
-0.11226312 -0.04796182 0.69154549
-0.10788916 -0.04729512 0.69160008
-0.10270048 -0.04740072 0.69125003
-0.097516045 -0.048539527 0.69183338
-0.092177793 -0.04894286 0.69133341
-0.087168172 -0.048804089 0.69114292
-0.082891703 -0.048011523 0.69227272
-0.07763508 -0.047589529 0.69136369
-0.072568685 -0.048551958 0.69200003
-0.067034766 -0.048424523 0.69175005
-0.062296297 -0.048390053 0.69177777
-0.057618782 -0.048595924 0.69085717
-0.052312572 -0.047833715 0.69180006
-0.047504529 -0.047503814 0.6927501
-0.042124886 -0.047722023 0.69112504
-0.037345398 -0.048771434 0.69200009
-0.033027433 -0.048817147 0.69080007
-0.028914288 -0.047971431 0.69000006
-0.13020763 -0.041640006 0.69400001
-0.12735125 -0.042405911 0.69140005
-0.12705068 -0.037523434 0.69120002
-0.12616524 -0.033349369 0.69116676
-0.12456001 -0.031632382 0.69200003
-0.12260896 -0.026733145 0.69139999
-0.12069582 -0.022242477 0.69100004
-0.11894286 -0.023000002 0.69000006
-0.12095429 -0.019167621 0.69400001
-0.11842938 -0.017327461 0.69083345
-0.1119245 0.0027263949 0.69071442
-0.10974286 0.0028476194 0.69000006
-0.11158024 0.0066030957 0.69325
-0.10974286 0.0059142862 0.69000006
-0.11037906 0.012558096 0.69400001
-0.10905715 0.012558096 0.69400001
-0.11153572 0.017680477 0.69400001
-0.10872991 0.016778287 0.69360006
-0.1074402 0.022597907 0.69380003
-0.10655096 0.02770929 0.6927501
-0.10353739 0.028596431 0.69025004
-0.10228028 0.031955924 0.69285715
-0.099372387 0.037511431 0.69100004
-0.10054287 0.040085718 0.69000006
-0.099516198 0.040862858 0.69200003
-0.098410957 0.04623381 0.69350004
0.017749287 0.059164524 0.69025004
-0.066476196 -0.055175241 0.69800001
-0.064481907 -0.055175241 0.69800001
-0.13095811 -0.05118667 0.69800001
-0.1271935 -0.051693339 0.6971429
-0.1223245 -0.051830616 0.6964286
-0.11757445 -0.05171635 0.69616669
-0.11290731 -0.051703811 0.6960001
-0.10749644 -0.051095001 0.69675004
-0.101857 -0.051593181 0.69750011
-0.096939847 -0.051790006 0.69716668
-0.092400327 -0.05261334 0.69633341
-0.08702343 -0.053380381 0.69540006
-0.08249376 -0.051974822 0.69666672
-0.077210583 -0.052434076 0.69688892
-0.072723031 -0.052239917 0.6959092
-0.067644134 -0.052392703 0.69633341
-0.063046515 -0.053092539 0.69683337
-0.05118667 -0.05118667 0.69800001
-0.047862858 -0.05118667 0.69800001
-0.042293176 -0.051593181 0.69749999
-0.036970157 -0.05202413 0.6973334
-0.032526668 -0.051113337 0.69700003
-0.13134028 -0.047510888 0.69700009
-0.12780952 -0.049004763 0.69533342
-0.10524286 -0.049642861 0.69500005
-0.10259524 -0.049642861 0.69500005
-0.097961918 -0.049642861 0.69500005
-0.080090478 -0.049642861 0.69500005
-0.078766674 -0.049642861 0.69500005
-0.066852383 -0.049642861 0.69500005
-0.055175241 -0.049857147 0.69800001
-0.052491751 -0.049833339 0.69766665
-0.047761433 -0.049750004 0.69650006
-0.043023817 -0.049642861 0.69500005
-0.036404766 -0.049642861 0.69500005
-0.13268879 -0.042409845 0.69700003
-0.13185486 -0.038200408 0.69671434
-0.12919526 -0.036438417 0.69566673
-0.12962858 -0.033902861 0.69800001
-0.12522 -0.027162861 0.69566673
-0.12564 -0.024596192 0.69800001
-0.12338695 -0.022630479 0.69600016
-0.12230934 -0.017661717 0.6972
-0.11859461 -0.012586987 0.69566673
-0.11766286 -0.0069800001 0.69800001
-0.11683143 -0.0026557143 0.69700003
-0.11450953 -0.00066190481 0.69500005
-0.11613335 0.0022579047 0.69680005
-0.11450954 0.0019857145 0.69500005
-0.11500382 0.0059828577 0.69800001
-0.11182363 0.008886477 0.69640011
-0.10921429 0.0092666671 0.69500005
-0.11146039 0.012589145 0.69580013
-0.10921429 0.013900001 0.69500005
-0.1112 0.01522381 0.69500005
-0.11136096 0.020548573 0.69600004
-0.10896191 0.023515239 0.69550002
-0.10583296 0.032188002 0.69540006
-0.10391905 0.033757146 0.69500005
-0.10037906 0.043209527 0.69800001
-0.098907627 0.044475242 0.69700003
-0.10037906 0.045868576 0.69800001
-0.095976196 0.049642861 0.69500005
-0.096998736 0.051483177 0.6960001
-0.13677715 -0.055649526 0.70400006
-0.13278955 -0.056017466 0.70300007
-0.12730001 -0.055610001 0.70350003
-0.12269714 -0.055649526 0.70400006
-0.11733334 -0.055649526 0.70400006
-0.11264001 -0.055649526 0.70400006
-0.10682849 -0.056832671 0.70370001
-0.102302 -0.057391346 0.70290917
-0.097926997 -0.056437679 0.70266676
-0.092362151 -0.056221195 0.70275009
-0.086904965 -0.055838671 0.70300007
-0.082059734 -0.05646028 0.70214295
-0.077746585 -0.056716286 0.70209098
-0.072187833 -0.056428898 0.7025556
-0.068764769 -0.056080006 0.70100003
-0.055570479 -0.055570479 0.70300001
-0.051978376 -0.056190345 0.7035715
-0.047576386 -0.056154288 0.70360011
-0.042592119 -0.056685459 0.70172733
-0.037578654 -0.056811985 0.70041668
-0.033380955 -0.055412386 0.70100003
-0.13648596 -0.052187622 0.70250005
-0.13258708 -0.052501358 0.70075005
-0.12745397 -0.054051436 0.70066667
-0.12292953 -0.05411572 0.70150006
-0.11741715 -0.054038577 0.70050001
-0.11168747 -0.053619843 0.70083332
-0.10741001 -0.053371906 0.70050001
-0.10311111 -0.053555559 0.70000005
-0.097733341 -0.053733338 0.70000005
-0.094000004 -0.054000005 0.70000005
-0.08200001 -0.054000005 0.70000005
-0.079333335 -0.054000005 0.70000005
-0.056229342 -0.052758098 0.70120001
-0.052319527 -0.052987147 0.70069999
-0.047367148 -0.053371914 0.70050001
-0.042899527 -0.053568423 0.7001667
-0.038000003 -0.054000005 0.70000005
-0.032690004 -0.053371906 0.70050001
-0.13625938 -0.047422856 0.7013334
-0.134 -0.047333341 0.70000005
-0.13619477 -0.044063814 0.70100003
-0.134 -0.04466667 0.70000005
-0.13116744 -0.032020763 0.70340008
-0.12865454 -0.031076429 0.70175004
-0.12831526 -0.027842859 0.70328581
-0.12466668 -0.030000001 0.70000005
-0.12721048 -0.022763811 0.70300007
-0.12672001 -0.01944381 0.70400006
-0.1240297 -0.016670318 0.7001667
-0.1227769 -0.012010357 0.70062506
-0.11950382 -0.010014286 0.70100003
-0.12235006 -0.0073536509 0.70200008
-0.11933334 -0.0066666668 0.70000005
-0.12145843 -0.0031212699 0.70200008
-0.11937596 -0.002667381 0.70025003
-0.12118382 0.00066952384 0.70300001
-0.11850272 0.0029549664 0.70071441
-0.11692967 0.0073508853 0.70157152
-0.11400001 0.0086666672 0.70000005
-0.11421715 0.011357462 0.7013334
-0.11138636 0.023345081 0.70033336
-0.10733334 0.034000002 0.70000005
-0.10647322 0.037333932 0.70312506
-0.10066667 0.04466667 0.70000005
-0.10144921 0.04838445 0.70233339
-0.099475242 0.048736192 0.70100003
-0.1168762 -0.060910486 0.70800006
-0.1125527 -0.062005401 0.70766675
-0.10804328 -0.061862867 0.70714289
-0.095748574 -0.060011432 0.708
-0.092040002 -0.060348574 0.708
-0.087657146 -0.060011432 0.708
-0.084285721 -0.061360005 0.708
-0.074845716 -0.061360005 0.708
-0.066754289 -0.060011432 0.708
-0.061360005 -0.060011432 0.708
-0.057988577 -0.060011432 0.708
-0.051920004 -0.060011432 0.708
-0.047200002 -0.06068572 0.708
-0.042435478 -0.061631672 0.70725
-0.1408262 -0.056600481 0.70749998
-0.1377918 -0.057709169 0.70662498
-0.13216588 -0.058118578 0.70683336
-0.12770763 -0.057682864 0.70700002
-0.1224124 -0.057504203 0.70700008
-0.11716117 -0.057945933 0.70655549
-0.11259715 -0.057924759 0.70583332
-0.10810002 -0.059085719 0.70500004
-0.10407144 -0.059757147 0.70500004
-0.097449213 -0.058469526 0.70566672
-0.092920005 -0.058580004 0.70700002
-0.087453477 -0.057886135 0.70557147
-0.082516834 -0.059422538 0.70633334
-0.077042863 -0.059548572 0.70650005
-0.072727762 -0.059278507 0.70614284
-0.067507148 -0.058761433 0.70649999
-0.06203429 -0.057314292 0.70800006
-0.057452742 -0.057452742 0.70762503
-0.052908577 -0.058294863 0.70680004
-0.04706572 -0.058722228 0.70600003
-0.043002382 -0.059463814 0.70550001
-0.14150049 -0.052557148 0.70749998
-0.13898572 -0.052371431 0.70500004
-0.060685717 -0.054617148 0.708
-0.057867147 -0.054501433 0.70650005
-0.14160001 -0.04922286 0.708
-0.13931429 -0.047782224 0.70666665
-0.13428572 -0.035585716 0.70500004
-0.13591716 -0.032576196 0.70766675
-0.13353077 -0.031966399 0.70557147
-0.13553144 -0.027645716 0.708
-0.13248117 -0.027571537 0.70611107
-0.13247153 -0.023178956 0.70749998
-0.12931716 -0.022425715 0.70500004
-0.13081142 -0.018880002 0.708
-0.12824823 -0.017503215 0.70687497
-0.12732002 -0.012798732 0.70733333
-0.12585399 -0.0074025407 0.70666671
-0.12349524 -0.0024685715 0.70600003
-0.11760676 0.011924678 0.70636368
-0.1148143 0.014100001 0.70500004
-0.11581334 0.015486668 0.70700002
-0.10892572 0.037654288 0.70599997
-0.10658192 0.042713717 0.70740002
-0.10358029 0.043292928 0.70557147
-0.10359335 0.047430672 0.70539999
-0.077520005 -0.065960005 0.71400005
-0.061200004 -0.065960005 0.71400005
-0.14620002 -0.060520004 0.71400005
-0.14276832 -0.061909612 0.71290922
-0.13749447 -0.061637495 0.71118182
-0.13260235 -0.061529785 0.71136373
-0.12742224 -0.06167905 0.71166676
-0.12230953 -0.06234413 0.71150005
-0.11824334 -0.063189998 0.71150005
-0.11443715 -0.064328574 0.71100003
-0.10631143 -0.062974289 0.71100003
-0.10263567 -0.062033124 0.71055555
-0.097780421 -0.062640406 0.71157146
-0.092266031 -0.063195981 0.71177787
-0.087275341 -0.06288562 0.71150005
-0.082273662 -0.062855236 0.71133339
-0.077458449 -0.063163891 0.71172732
-0.072700009 -0.062873334 0.71175003
-0.067423098 -0.06217286 0.71150005
-0.062243745 -0.062343605 0.71150011
-0.057252988 -0.062926412 0.71181828
-0.05302814 -0.062146064 0.71136367
-0.04779774 -0.06305369 0.71187508
-0.043952383 -0.062885717 0.71000004
-0.14620003 -0.057800006 0.71400011
-0.14332287 -0.05777429 0.71128577
-0.1278 -0.058828574 0.71000004
-0.062209528 -0.0574762 0.71000004
-0.14456955 -0.052712381 0.71266669
-0.14162239 -0.047431909 0.71150005
-0.13997144 -0.045304764 0.71000004
-0.14076 -0.044200003 0.71400005
-0.13620144 -0.025748096 0.71150005
-0.13513048 -0.021050477 0.71300006
-0.13475144 -0.022345716 0.71100003
-0.13532001 -0.019720001 0.71400005
-0.1320705 -0.017318916 0.7111429
-0.1310562 -0.014260001 0.71300006
-0.12895468 -0.011771811 0.71040004
-0.13124001 -0.0088400003 0.71400005
-0.12868778 -0.0074493657 0.71116674
-0.13068858 -0.0033857145 0.71100003
-0.12641287 -0.003046667 0.71075004
-0.12580001 0.00068000006 0.71400005
-0.12333216 0.0032219051 0.71249998
-0.12619463 0.0065698419 0.71366668
-0.12250298 0.0072858338 0.71162504
-0.11968572 0.0087904772 0.71000004
-0.12120858 0.010157144 0.71100003
-0.11762846 0.018491566 0.71157151
-0.11701797 0.022201365 0.7125715
-0.11443715 0.023022858 0.71100003
-0.11675888 0.026233524 0.71360004
-0.11337811 0.027531812 0.71200001
-0.11251777 0.032299668 0.71292865
-0.11169493 0.03738191 0.7136668
-0.1089178 0.04261937 0.71033335
-0.098605722 -0.070530482 0.71900004
-0.093127623 -0.070530482 0.71900004
-0.060943812 -0.070530482 0.71900004
-0.052041911 -0.070530482 0.71900004
-0.1475662 -0.066079527 0.71900004
-0.14221469 -0.066932768 0.71860003
-0.13822429 -0.066375718 0.71850008
-0.13317963 -0.066658869 0.71860003
-0.12736572 -0.066421911 0.71900004
-0.12234636 -0.066298738 0.71766675
-0.11781552 -0.066863678 0.71742862
-0.11287969 -0.066360325 0.71833342
-0.10750763 -0.065737143 0.71900004
-0.10188899 -0.067111574 0.71800005
-0.097541802 -0.067484021 0.71733332
-0.092697896 -0.067342542 0.71744454
-0.087527633 -0.067014292 0.71799999
-0.082366675 -0.067124769 0.71814293
-0.077499054 -0.067113534 0.71760005
-0.073509052 -0.066671908 0.71800005
-0.06779144 -0.065600194 0.71900004
-0.062728211 -0.067857742 0.71787494
-0.057400718 -0.066967621 0.71750003
-0.052652702 -0.067698635 0.71800005
-0.04900248 -0.067019626 0.71660006
-0.1478039 -0.06277933 0.71650004
-0.1425181 -0.064780965 0.71600002
-0.13779263 -0.064803571 0.71625006
-0.13233501 -0.064803578 0.71625
-0.12763493 -0.06484127 0.7166667
-0.12478858 -0.064780958 0.71600002
-0.11251429 -0.064780965 0.71600002
-0.10761462 -0.06484127 0.7166667
-0.1030162 -0.06481111 0.71633339
-0.094784766 -0.064780958 0.71600002
-0.089329533 -0.064780958 0.71600002
-0.082510479 -0.064780958 0.71600002
-0.070918098 -0.064780958 0.71600002
-0.06487143 -0.06487143 0.71700001
-0.051824763 -0.064780958 0.71600002
-0.04977905 -0.064780958 0.71600002
-0.1482573 -0.057411842 0.71642864
-0.14735238 -0.052827761 0.71771437
-0.14647238 -0.049096383 0.71800005
-0.14382921 -0.047184765 0.71800005
-0.142167 -0.042376515 0.71766675
-0.13959597 -0.041298814 0.71675003
-0.1412892 -0.037661906 0.71900004
-0.13916592 -0.037828762 0.71700001
-0.1403762 -0.034922861 0.71900004
-0.13900667 -0.026020955 0.71900004
-0.13738191 -0.022555239 0.71766675
-0.13579382 -0.017741431 0.71650004
-0.13461667 -0.016398571 0.71750003
-0.13241163 -0.012433334 0.71740007
-0.13238239 -0.0075061908 0.71650004
-0.13042572 -0.0047800005 0.71700001
-0.12658192 0.0037538097 0.71650004
-0.12125024 0.018785477 0.71725005
-0.12125025 0.02220024 0.71725005
-0.11933334 0.023184763 0.71600002
-0.12103429 0.025985716 0.71800005
-0.11879212 0.028013337 0.71742862
-0.11723357 0.032811906 0.71775001
-0.1138781 0.034777146 0.71600002
-0.11373548 0.037913099 0.71725005
-0.14184573 -0.070922859 0.72300005
-0.13840288 -0.070922866 0.72300005
-0.13289431 -0.070922859 0.72300005
-0.12669715 -0.070922859 0.72300005
-0.12256572 -0.070922859 0.72300005
-0.11774572 -0.070922866 0.72300005
-0.11251258 -0.071198285 0.72300005
-0.10741715 -0.070922859 0.72300005
-0.10250318 -0.070857465 0.72233343
-0.096000008 -0.070628576 0.72000003
-0.081251428 -0.070922859 0.72300005
-0.077808581 -0.070922866 0.72300005
-0.066102862 -0.070922859 0.72300005
-0.063402861 -0.071185723 0.72100008
-0.057071432 -0.07151334 0.72200006
-0.054321911 -0.072201908 0.72200006
-0.15170561 -0.066873237 0.72222227
-0.14729922 -0.068793073 0.72128588
-0.14300232 -0.068824008 0.72120011
-0.13770859 -0.068806812 0.72142863
-0.13252668 -0.068667635 0.72100008
-0.12780859 -0.068714775 0.7215001
-0.12254477 -0.068779334 0.72114295
-0.11715858 -0.069058575 0.72150004
-0.11248815 -0.068501905 0.72166675
-0.107424 -0.068274677 0.72120011
-0.1031816 -0.068864129 0.72066677
-0.096000008 -0.069257148 0.72000003
-0.090765715 -0.069449529 0.72200006
-0.087367944 -0.069481596 0.72233343
-0.082484528 -0.069425479 0.72175002
-0.076932624 -0.069377385 0.72125006
-0.072160006 -0.068037719 0.72160006
-0.067484446 -0.068554506 0.72222233
-0.057600003 -0.069257148 0.72000003
-0.15243049 -0.062813334 0.72160006
-0.15188792 -0.057707492 0.72257155
-0.15048429 -0.05222572 0.72150004
-0.14653113 -0.046550795 0.72233343
-0.14571849 -0.042793147 0.72240013
-0.14400002 -0.042514287 0.72000003
-0.14528859 -0.038560003 0.72300005
-0.14335848 -0.036971815 0.72160006
-0.14194287 -0.034971431 0.72000003
-0.1393289 -0.022649527 0.72066677
-0.13536716 -0.01374143 0.72150004
-0.13390002 -0.010985715 0.72100008
-0.13408573 -0.0089390483 0.72200006
-0.13014001 -0.00068857148 0.72300005
-0.12822857 -0.0006857143 0.72000003
-0.13014001 0.001377143 0.72300005
-0.12822857 0.002057143 0.72000003
-0.11862858 0.034971431 0.72000003
-0.14094001 -0.075677149 0.72900003
-0.13746858 -0.075677149 0.72900003
-0.13260858 -0.075677149 0.72900003
-0.12770501 -0.075651199 0.72875005
-0.12358287 -0.075677149 0.72900003
-0.11733429 -0.075677149 0.72900003
-0.11235929 -0.07559929 0.72825003
-0.10830858 -0.075677149 0.72900003
-0.10437429 -0.076140009 0.72900003
-0.090951435 -0.075677149 0.72900003
-0.089562863 -0.075677149 0.72900003
-0.07058572 -0.076140009 0.72900003
-0.068687141 -0.076319531 0.72850001
-0.1610743 -0.07012286 0.72900003
-0.15745938 -0.072371759 0.72833335
-0.15247405 -0.072810143 0.72681814
-0.14742044 -0.072675511 0.72672725
-0.14250705 -0.072984889 0.72637504
-0.13739648 -0.072996475 0.72600007
-0.13256048 -0.072847344 0.72570002
-0.12776297 -0.073132269 0.726125
-0.1228494 -0.073237151 0.72642857
-0.11746191 -0.073241428 0.72549999
-0.11288629 -0.073369339 0.72540009
-0.10786191 -0.07329239 0.72600007
-0.10335582 -0.073194295 0.72640008
-0.096543632 -0.073552765 0.72720003
-0.09221302 -0.072833128 0.72677779
-0.0874594 -0.072854385 0.72727281
-0.082854532 -0.072825015 0.72650003
-0.077458262 -0.072617941 0.72616667
-0.072700642 -0.072702341 0.72700006
-0.068235554 -0.072687201 0.72533333
-0.061452385 -0.072500005 0.72500008
-0.057769846 -0.072960325 0.72500008
-0.15696773 -0.067629524 0.72663641
-0.15351589 -0.069277786 0.72500008
-0.07180953 -0.069738097 0.72500002
-0.15706617 -0.062510312 0.72709095
-0.1539762 -0.061452385 0.72500002
-0.15655544 -0.057825148 0.72800004
-0.154047 -0.057335239 0.72533339
-0.15339193 -0.053894289 0.72549999
-0.15004002 -0.047017146 0.72600001
-0.14898096 -0.048124447 0.72533339
-0.15066001 -0.04096286 0.72900003
-0.14836746 -0.042456031 0.72683334
-0.1473262 -0.03735048 0.72624999
-0.14614716 -0.032978576 0.72900003
-0.1433578 -0.032496195 0.72600001
-0.14510572 -0.029854288 0.72900003
-0.13878572 -0.015880954 0.72500002
-0.13694447 -0.011968254 0.72500002
-0.13690287 -0.0089885723 0.72600001
-0.13202648 0.0020748572 0.72580004
-0.12688001 0.018720001 0.72800004
-0.1249762 0.018642858 0.72500002
-0.12636 0.020134287 0.72900003
-0.15029524 -0.080390483 0.73400003
-0.16190939 -0.077124089 0.73142856
-0.15739295 -0.07730405 0.73124999
-0.15254031 -0.077598378 0.73270011
-0.14769551 -0.077305719 0.7324546
-0.1424875 -0.077169672 0.73185718
-0.13720876 -0.078026675 0.73280001
-0.1324356 -0.078067265 0.731875
-0.12749001 -0.078027152 0.73150003
-0.12231809 -0.077598669 0.73140001
-0.11715858 -0.078107379 0.73225003
-0.1121889 -0.077347629 0.73166674
-0.10763524 -0.07698191 0.73150003
-0.10236334 -0.077239208 0.73283333
