# .PCD v0.7 - Point Cloud Data file format
VERSION 0.7
FIELDS x y z
SIZE 4 4 4
TYPE F F F
COUNT 1 1 1
WIDTH 1337
HEIGHT 1
VIEWPOINT 0 0 0 1 0 0 0
POINTS 1337
DATA ascii
-0.047541652 0.017032728 0.66236371
-0.042836607 0.017638871 0.66143763
-0.037757389 0.017620595 0.66075015
-0.033188455 0.018718215 0.66062498
-0.041463815 0.021258097 0.66300005
-0.037861008 0.022717206 0.66256255
-0.032791428 0.022702377 0.66212499
-0.027717443 0.02268018 0.66143751
-0.022680001 0.022682384 0.66150004
-0.018676193 0.0237127 0.66100007
-0.001257143 0.024514288 0.66000003
0.00062857149 0.024514288 0.66000003
-0.032202862 0.025888573 0.66300005
-0.027151432 0.025888573 0.66300005
-0.022731431 0.026520003 0.66300005
-0.017345795 0.027226746 0.6622501
-0.012733849 0.028129453 0.66084617
-0.0075507751 0.027687442 0.66068745
-0.0025173218 0.027698273 0.66093749
0.0023908573 0.027818037 0.6608001
0.0059735719 0.028611191 0.66025001
0.014457144 0.02954286 0.66000003
0.017825715 0.028448576 0.66055554
0.021751905 0.028685238 0.66200006
-0.012353062 0.031467896 0.66271436
-0.0075747622 0.031559762 0.66275007
-0.002796327 0.031481225 0.66300005
0.0027953745 0.03147456 0.66285723
0.0077309962 0.032018792 0.66154552
0.012637272 0.032876767 0.66126668
0.01750578 0.032619938 0.66120017
0.020774286 0.030846668 0.66100001
0.013256872 0.036705308 0.66285723
0.017141819 0.037668057 0.66218191
0.017048573 0.041042861 0.66300005
-0.072361231 -0.031766128 0.66900009
-0.06737747 -0.032027621 0.66811115
-0.06237651 -0.031613655 0.66833341
-0.057555243 -0.031220002 0.66900003
-0.052208096 -0.031196669 0.66850007
-0.046786401 -0.031705584 0.66771436
-0.042377975 -0.032222502 0.66662502
-0.03778531 -0.031805716 0.66600007
-0.032777525 -0.032144573 0.667
-0.027711008 -0.031942964 0.66633332
-0.022881312 -0.0330525 0.66737503
-0.018220318 -0.033050478 0.6673333
-0.01268143 -0.031702861 0.66574997
-0.0072514289 -0.031408381 0.66759998
-0.0019026668 -0.031851619 0.66619998
0.0025385716 -0.031726908 0.66624999
0.0073408168 -0.031812385 0.66614288
0.011400001 -0.032300003 0.66500002
0.018136954 -0.032593716 0.66580003
0.021799367 -0.032805718 0.66666669
-0.14272001 -0.026122859 0.66900003
-0.13762286 -0.026122859 0.66900003
-0.13208134 -0.02631524 0.66740006
-0.12723714 -0.026508575 0.6680001
-0.12233143 -0.026759999 0.66900009
-0.11740723 -0.02682871 0.66842866
-0.11231344 -0.027038945 0.6671111
-0.10734139 -0.027510332 0.66692317
-0.10251773 -0.027500737 0.66669232
-0.097565874 -0.027410001 0.66666669
-0.092466749 -0.027826013 0.66746157
-0.087736972 -0.02797721 0.66756237
-0.083003819 -0.027953019 0.66700006
-0.077549472 -0.028082926 0.66706669
-0.072363034 -0.028565085 0.66649997
-0.06752643 -0.029008335 0.66575003
-0.062143974 -0.029381748 0.66583335
-0.057536513 -0.02940413 0.66633338
-0.052392762 -0.029558098 0.66600007
-0.048133336 -0.029766669 0.66500002
-0.03166667 -0.029766669 0.66500002
-0.029766669 -0.029766669 0.66500002
-0.0088800006 -0.029811431 0.66600001
-0.14705257 -0.022937147 0.66900009
-0.14237417 -0.022881787 0.66737497
-0.13710918 -0.022851903 0.66650003
-0.13218905 -0.023014221 0.66592854
-0.12758338 -0.022779686 0.66560006
-0.1231828 -0.022881981 0.66592306
-0.11817267 -0.024178369 0.66557145
-0.11273334 -0.024700001 0.66500002
-0.10893334 -0.024700001 0.66500002
-0.14590572 -0.01975143 0.66900003
-0.14208287 -0.018932857 0.66825008
-0.13716266 -0.018074354 0.66764289
-0.13220426 -0.017650604 0.66673332
-0.12764214 -0.01789883 0.66576922
-0.12356191 -0.017248679 0.66533333
-0.13139874 -0.013797462 0.66866672
-0.12713547 -0.013167403 0.66823089
-0.12260208 -0.012887793 0.66763639
-0.11781494 -0.012807302 0.66579998
-0.11339131 -0.011492791 0.66514289
-0.12042001 -0.0082828579 0.66900003
-0.11756755 -0.007490478 0.66838467
-0.11274388 -0.0076195835 0.66693747
-0.10801586 -0.0072066672 0.66609091
-0.10288229 -0.0059619057 0.66600007
-0.098800004 -0.0057000006 0.66500002
-0.11659715 -0.0044600004 0.66900003
-0.10576572 -0.0031857146 0.66900003
-0.10255238 -0.0026884985 0.66753852
-0.09796536 -0.0021934803 0.66561538
-0.092725091 -0.00063365087 0.66533339
-0.10104287 0.0019111114 0.66866678
-0.097488217 0.0023988283 0.66769236
-0.092614949 0.0025387502 0.66606247
-0.08787524 0.0031701301 0.66554546
-0.083283342 0.004116667 0.66500002
-0.09620858 0.0057342863 0.66900003
-0.092460006 0.0061504766 0.6680001
-0.087561645 0.006879223 0.6675455
-0.082308874 0.0072800005 0.66676921
-0.077844605 0.0080403183 0.66633338
-0.072851911 0.0088690482 0.66516668
-0.08091715 0.011468573 0.66900003
-0.077298269 0.012194445 0.6680001
-0.072336078 0.012691906 0.66625005
-0.067517944 0.01320873 0.6656667
-0.064014763 0.013944287 0.66550004
-0.072252005 0.01618343 0.66900009
-0.067110084 0.01728262 0.66791672
-0.062294226 0.01780137 0.66743755
-0.057317294 0.01764271 0.66700006
-0.052375164 0.01830643 0.66658342
-0.048368894 0.019220956 0.66533339
0.022300001 0.01975143 0.66900003
-0.050652862 0.021981429 0.66900003
-0.046947122 0.022774925 0.66793334
-0.042786777 0.023332171 0.66611111
0.019692382 0.02350381 0.66700006
0.022605173 0.022877822 0.66728574
-0.041353337 0.026720002 0.66800004
-0.037575241 0.027629053 0.66683334
-0.033133261 0.028352309 0.6660769
-0.028032605 0.028325643 0.66546154
-0.0228 0.029133335 0.66500002
-0.018690715 0.029461194 0.66525006
0.019633334 0.027233336 0.66500002
0.022166668 0.027052384 0.66500008
-0.035680003 0.031220002 0.66900003
-0.032220762 0.031711049 0.66860002
-0.027713526 0.032163434 0.6674
-0.022856828 0.032382227 0.66666669
-0.017768513 0.032999825 0.66631246
-0.012907831 0.034069106 0.66655552
-0.0076171439 0.034277618 0.66649997
-0.0023249737 0.034023602 0.66566664
0.0023231748 0.03400635 0.66533333
0.007220001 0.034580003 0.66500002
-0.026122859 0.03504286 0.66900003
-0.022937143 0.03504286 0.66900003
-0.01756694 0.036863267 0.66900009
-0.012738334 0.036940716 0.66875011
-0.0066900011 0.036635716 0.66900003
-0.0025469051 0.037549764 0.66825008
0.0025378575 0.037446909 0.66641665
0.0074612466 0.037601177 0.66569227
0.012350001 0.038791671 0.66500002
0.015833335 0.039900001 0.66500002
-0.00095571438 0.041095719 0.66900003
0.0023748055 0.041298449 0.66900015
0.0079069398 0.041990343 0.6680001
0.012558538 0.042371139 0.66707689
0.01695211 0.042878918 0.66628581
0.013380001 0.045237146 0.66900003
0.01720286 0.045237146 0.66900003
-0.072535247 -0.035304762 0.67400002
-0.067866914 -0.035213098 0.67225003
-0.062861435 -0.035278574 0.6735
-0.057730004 -0.035278574 0.6735
-0.052958421 -0.035662863 0.67266673
-0.047500957 -0.035304762 0.67400002
-0.042365719 -0.035304762 0.67400002
-0.037230477 -0.035304762 0.67400002
-0.031672765 -0.035519626 0.67320007
-0.027514447 -0.03583191 0.6718334
-0.023014287 -0.035800718 0.67124999
-0.018304003 -0.035456765 0.67200005
-0.012314498 -0.036233023 0.67266667
-0.007058504 -0.036023404 0.67371428
-0.0023913421 -0.03644295 0.67345446
0.0025620637 -0.036509048 0.67250001
0.0074723819 -0.036078732 0.67244446
0.012730341 -0.035810072 0.67314285
0.017509844 -0.035662863 0.67266673
0.022177335 -0.035765912 0.67300004
-0.14571239 -0.030169526 0.67400002
-0.14239669 -0.030147145 0.6735
-0.13800953 -0.030169526 0.67400002
-0.13159049 -0.030169528 0.67400002
-0.12748508 -0.030109843 0.67266673
-0.12215974 -0.030655786 0.67257148
-0.11730054 -0.03108762 0.67222226
-0.11287552 -0.03149524 0.67236358
-0.10775273 -0.03149524 0.67236364
-0.10234322 -0.031983215 0.67162502
-0.097007059 -0.031953525 0.671
-0.092772774 -0.032248385 0.67180002
-0.08789552 -0.03185524 0.67085719
-0.08263658 -0.032366287 0.67160004
-0.077623263 -0.032630242 0.67175001
-0.07282453 -0.033537857 0.67075002
-0.067885399 -0.033835877 0.67033339
-0.062642701 -0.033452544 0.67116666
-0.057434075 -0.033012915 0.6708889
-0.052362628 -0.033205956 0.67050004
-0.047673341 -0.033613909 0.671
-0.042144287 -0.033844288 0.67050004
-0.037064288 -0.033869527 0.671
-0.03381905 -0.03381905 0.67000002
-0.02871429 -0.03381905 0.67000002
-0.015952382 -0.03381905 0.67000002
-0.012775477 -0.033856906 0.67075002
-0.0079469411 -0.03334368 0.67142856
-0.0026880002 -0.033644576 0.67160004
0.0025523813 -0.03381905 0.67000002
0.0076607149 -0.033831671 0.67025006
0.012781429 -0.033869527 0.671
0.017253652 -0.033869527 0.671
0.021057144 -0.03381905 0.67000002
-0.1705327 -0.025462225 0.67400002
-0.16753715 -0.02610413 0.67400002
-0.16245258 -0.027415847 0.67227268
-0.15753755 -0.027538812 0.67241669
-0.15243454 -0.026900955 0.67250001
-0.14733508 -0.027631 0.67181826
-0.14240144 -0.028097622 0.67050004
-0.1376325 -0.028180424 0.6707778
-0.13277525 -0.02813302 0.67133343
-0.12765127 -0.028296035 0.67016673
-0.12251429 -0.028714288 0.67000002
-0.11740953 -0.028714288 0.67000002
-0.11251747 -0.029139686 0.67000002
-0.10145715 -0.029990477 0.67000002
-0.097628579 -0.029990477 0.67000002
-0.0816762 -0.029990477 0.67000002
-0.17042571 -0.022145716 0.67400002
-0.1673101 -0.022708958 0.6735999
-0.16256109 -0.023038933 0.67199999
-0.15719162 -0.023003396 0.67093742
-0.15259993 -0.022986274 0.67041671
-0.14931431 -0.022971429 0.67000002
-0.16292429 -0.019884288 0.67350006
-0.15700983 -0.018583145 0.67290008
-0.15244815 -0.017790096 0.67200005
-0.14754431 -0.017711226 0.67107147
-0.14304018 -0.016815398 0.67050004
-0.13910477 -0.015952382 0.67000002
-0.15277335 -0.014763811 0.67400002
-0.14725049 -0.013723621 0.67340004
-0.14226529 -0.012675304 0.67226666
-0.1374386 -0.0127832 0.67121428
-0.13330901 -0.012273652 0.67044449
-0.12825716 -0.01084762 0.67000002
-0.12251429 -0.01084762 0.67000002
-0.14057715 -0.0096285725 0.67400002
-0.1370085 -0.0084491782 0.67309088
-0.13220866 -0.0076808743 0.67224997
-0.12766732 -0.0076767271 0.67193747
-0.12273654 -0.0077608861 0.67121428
-0.12645525 -0.0044933334 0.67400002
-0.12183354 -0.0037230477 0.67400002
-0.11748873 -0.0024498417 0.67166674
-0.11249347 -0.0025545238 0.67112505
-0.10794087 -0.0021472729 0.67063642
-0.11254731 0.0010698414 0.67400002
-0.10732135 0.0020300797 0.67275
-0.10294392 0.0031932278 0.67044449
-0.10591429 0.0057771434 0.67400002
-0.10228826 0.0066211647 0.67266673
-0.097484775 0.0079578236 0.67214286
-0.092903949 0.0086789122 0.67142862
-0.088440016 0.0093161911 0.67000002
-0.084015876 0.0091460329 0.67000002
-0.096285723 0.010912382 0.67400002
-0.091626562 0.012032911 0.67277771
-0.08720319 0.012934986 0.67226666
-0.08290261 0.012839567 0.671
-0.078834534 0.01436262 0.67025006
-0.09050858 0.016047619 0.67400002
-0.087077238 0.01720606 0.67363626
-0.081967629 0.017677281 0.67314279
-0.077450871 0.01792405 0.67208338
-0.072976626 0.018636713 0.67054552
-0.068621196 0.019469287 0.67025006
-0.057428576 0.019780954 0.67000002
-0.075102866 0.021182859 0.67400002
-0.072535239 0.021182861 0.67400002
-0.067498624 0.022167411 0.67355549
-0.062743261 0.022410242 0.67224997
-0.057455678 0.022905974 0.67180002
-0.052895557 0.023308573 0.67050004
-0.049133338 0.024885716 0.67000002
-0.062407408 0.026032809 0.67400002
-0.057743497 0.027267938 0.6736666
-0.052448496 0.027503258 0.67158335
-0.047266036 0.027466036 0.67066669
-0.042798508 0.028015377 0.67071432
-0.038923811 0.029990477 0.67000002
-0.056872766 0.03068305 0.67400002
-0.052405376 0.031303726 0.67327267
-0.047287185 0.031608935 0.67307687
-0.042264529 0.032019407 0.67237496
-0.037315529 0.032842763 0.67090005
-0.032922145 0.0335631 0.67124999
-0.029352382 0.03381905 0.67000002
-0.041402861 0.035625719 0.67400002
-0.036930673 0.036289524 0.67319995
-0.031953 0.036898166 0.67292857
-0.027632644 0.037292387 0.67190909
-0.022994921 0.037686035 0.67066669
-0.018260574 0.038691815 0.67040008
-0.012776429 0.038967386 0.67075002
-0.0081421435 0.038155239 0.67049998
-0.025034288 0.041081909 0.67400002
-0.022290003 0.041533336 0.67349994
-0.017933335 0.041632541 0.67250001
-0.01281137 0.042277563 0.67256236
-0.0076864888 0.042268991 0.67243743
-0.0030873814 0.042471036 0.67058337
0.0029352384 0.043773334 0.67000002
0.0057428577 0.044028573 0.67000002
-0.010912382 0.046217147 0.67400002
-0.0072749215 0.046003178 0.67400002
-0.0025644049 0.046123218 0.67262495
0.0025587303 0.046699367 0.67166662
0.0078270333 0.046914507 0.6719231
0.012652311 0.047806013 0.67199993
0.017422646 0.047717255 0.67200005
0.013480002 0.051480766 0.67400002
0.016047619 0.050710481 0.67400002
-0.04720667 -0.040740006 0.67900008
-0.042526286 -0.040974673 0.67860001
-0.038153335 -0.040740006 0.67900008
-0.026871974 -0.041277148 0.67871433
-0.021798529 -0.041893944 0.67863637
-0.017447144 -0.041356672 0.67850006
-0.013182451 -0.04120858 0.67757148
-0.0073552388 -0.04090267 0.67740005
-0.002302177 -0.041138101 0.67642868
0.0023202861 -0.041634575 0.67670006
0.0073702857 -0.040986668 0.67880005
0.013321334 -0.040998667 0.67900002
0.017460002 -0.041063335 0.67900002
0.020693336 -0.040740002 0.67900002
-0.11658344 -0.036020007 0.6778
-0.11267239 -0.035750862 0.67760003
-0.10799335 -0.035566669 0.67900008
-0.10169563 -0.036052577 0.67840004
-0.096784294 -0.036134765 0.67750001
-0.092538737 -0.035858102 0.67633337
-0.087758623 -0.036641393 0.67709094
-0.082678579 -0.036446959 0.67610008
-0.077313632 -0.03646848 0.67650002
-0.072372384 -0.036832862 0.67850006
-0.066962451 -0.037406534 0.67885715
-0.062300362 -0.037768692 0.67787498
-0.057706192 -0.037559289 0.67700005
-0.052226808 -0.037858374 0.67699999
-0.047665399 -0.038005397 0.67633343
-0.042512543 -0.03800524 0.67633343
-0.037363894 -0.038009919 0.67641675
-0.032434464 -0.038185976 0.67745459
-0.027046314 -0.03863655 0.67612505
-0.022516668 -0.038600482 0.67550004
-0.01784407 -0.03808701 0.67572737
-0.013503131 -0.038487896 0.67514294
-0.0082184123 -0.038233653 0.67533338
-0.0029584763 -0.038968764 0.67520005
0.0025714289 -0.039214287 0.67500001
0.0079951026 -0.038688168 0.67542863
0.012953334 -0.038434181 0.67633337
0.018262858 -0.038197335 0.6752001
0.022732655 -0.038378101 0.67642862
0.025506191 -0.038098574 0.67800009
-0.17167525 -0.031623811 0.67766666
-0.16776161 -0.031618252 0.67750013
-0.16245037 -0.030944403 0.67687511
-0.15712351 -0.030779682 0.67799997
-0.15241703 -0.03132369 0.67812496
-0.14773411 -0.031715617 0.67680007
-0.14227366 -0.032183707 0.67733341
-0.13733476 -0.031756666 0.67700005
-0.13292657 -0.031998523 0.67644453
-0.12754583 -0.032209404 0.67637509
-0.12228246 -0.033033744 0.6762858
-0.11766572 -0.033895049 0.67660004
-0.11255493 -0.034088258 0.67533338
-0.10835787 -0.034185003 0.67725003
-0.10251906 -0.034172386 0.67700005
-0.097549222 -0.034088258 0.67533338
-0.09128572 -0.034071431 0.67500001
-0.08742857 -0.034071431 0.67500001
-0.083571434 -0.034071431 0.67500001
-0.1722997 -0.0269418 0.67533338
-0.16765462 -0.028514288 0.67533338
-0.153 -0.028928574 0.67500001
-0.17271429 -0.022500001 0.67500007
-0.17200808 -0.018470565 0.67736363
-0.16772634 -0.018060479 0.67735732
-0.16232145 -0.017390002 0.67633343
-0.15843558 -0.016507939 0.67533338
-0.16662447 -0.014442223 0.67900008
-0.1627188 -0.013691776 0.67872727
-0.15745607 -0.0129049 0.67757148
-0.15239306 -0.012107334 0.67630005
-0.14807335 -0.011449334 0.67540002
-0.15584669 -0.008406667 0.67900008
-0.15252009 -0.0084010325 0.67858332
-0.14752345 -0.0082594296 0.67760009
-0.1426177 -0.0076346942 0.67628586
-0.13762262 -0.0061092861 0.67524999
-0.13435715 -0.0057857148 0.67500001
-0.14129668 -0.0042033335 0.67900002
-0.13722183 -0.002758442 0.67818183
-0.13262756 -0.0027048897 0.67666686
-0.12755086 -0.002127253 0.67561549
-0.12282541 -0.0016442329 0.67600006
-0.13515334 0.00064666668 0.67900002
-0.13210334 0.0015087303 0.67883337
-0.12781036 0.002456191 0.6784668
-0.12269757 0.0025839882 0.6780625
-0.11736096 0.0027072385 0.67633349
-0.11240157 0.0036989287 0.67537504
-0.10864287 0.0040714289 0.67500007
-0.1261 0.0058200005 0.67900002
-0.12265112 0.0064666672 0.67900002
-0.11718762 0.0072258888 0.67845458
-0.1122724 0.007744405 0.67750001
-0.10777785 0.0079135941 0.67690915
-0.103177 0.0090956464 0.67528576
-0.11575334 0.010993334 0.67900002
-0.11234365 0.012169093 0.67899996
-0.10717327 0.012483152 0.67884618
-0.10225634 0.013095649 0.67771429
-0.097763263 0.012987224 0.67608345
-0.093497701 0.013882723 0.67571437
-0.10583778 0.016597781 0.67900008
-0.1018962 0.016720956 0.67900002
-0.097176373 0.017577577 0.67899996
-0.092392288 0.01765362 0.67650008
-0.087840766 0.019677335 0.67520005
-0.082928583 0.019928573 0.67500001
-0.096784458 0.02004667 0.67900008
-0.09247335 0.021124445 0.67900002
-0.087653078 0.022486499 0.67809093
-0.082539767 0.022570876 0.67708343
-0.07742399 0.022648226 0.67590922
-0.072000004 0.023142859 0.67500007
-0.06878572 0.023785716 0.67500001
-0.086006671 0.025220001 0.67900002
-0.082385346 0.025478667 0.67900002
-0.077372581 0.026997592 0.67813343
-0.072226673 0.027087385 0.67712516
-0.067210682 0.027215993 0.67578578
-0.063128576 0.028157149 0.67500001
-0.05978572 0.028928574 0.67500001
-0.072038673 0.030652002 0.67900002
-0.067195803 0.03166008 0.67841667
-0.062219262 0.03244891 0.67750007
-0.058042865 0.032709524 0.67633337
-0.053147435 0.033844572 0.67560005
-0.048214287 0.034071431 0.67500007
-0.060140003 0.035566669 0.67900002
-0.057553336 0.035566669 0.67900008
-0.052714195 0.036564477 0.67830002
-0.04760763 0.037287876 0.6773333
-0.042828813 0.037893571 0.6762501
-0.03777143 0.038843811 0.67600006
-0.032810956 0.039243333 0.67550004
-0.046948005 0.041257333 0.67900002
-0.042457782 0.04159556 0.67888886
-0.037320297 0.042190485 0.67830771
-0.032259822 0.042583875 0.67743742
-0.027356738 0.042740542 0.67700016
-0.022838574 0.044068575 0.67550004
-0.018007381 0.044373576 0.67524999
-0.031428002 0.046430673 0.67900002
-0.026728891 0.046344452 0.67900002
-0.021639444 0.047263257 0.67825001
-0.017411191 0.047721516 0.67708343
-0.013163676 0.047868989 0.67657155
-0.0079897149 0.048588004 0.67660004
-0.0025758336 0.048921075 0.67587501
0.0025735716 0.049555 0.67575008
0.0070714294 0.049500003 0.67500007
-0.011769335 0.051862668 0.67900002
-0.0079198815 0.051885597 0.67887497
-0.0022626196 0.052468978 0.67874998
0.0025805363 0.052935295 0.67781258
0.0077202972 0.052758992 0.6755625
0.012566408 0.053247623 0.67509103
0.017035715 0.05319643 0.67500007
0.0045266668 0.05690667 0.67900002
0.007754128 0.057511583 0.67850006
0.012892937 0.057378173 0.67691678
0.017028574 0.057165176 0.67657149
0.013580001 0.060140006 0.67900008
0.017460002 0.060140003 0.67900002
-0.048857145 -0.046251431 0.68400002
-0.037782863 -0.046251431 0.68400002
-0.034525715 -0.046251431 0.68400002
-0.027360002 -0.046251431 0.68400002
-0.021475557 -0.046206355 0.6833334
0.0045600003 -0.046251431 0.68400002
0.0078171436 -0.046251431 0.68400002
0.012935513 -0.0468098 0.68400007
0.017588574 -0.046902861 0.68400002
0.022148576 -0.046685718 0.68400002
0.025405716 -0.046251431 0.68400002
-0.10357715 -0.041365717 0.68400002
-0.091492623 -0.041350719 0.68375003
-0.087580204 -0.04125258 0.68320006
-0.082020007 -0.041010004 0.68350005
-0.077435002 -0.041320719 0.68325007
-0.072880246 -0.040995002 0.68325007
-0.067370757 -0.041538373 0.68300015
-0.06245679 -0.041638937 0.68312502
-0.056904692 -0.042592019 0.68315393
-0.052168705 -0.043062668 0.68300003
-0.047722768 -0.043304477 0.6827001
-0.042956799 -0.043667275 0.68245459
-0.037518613 -0.043315243 0.68192315
-0.032481786 -0.042879283 0.68212503
-0.027483493 -0.043931115 0.68166667
-0.022460954 -0.044531815 0.68160003
-0.017528256 -0.044147622 0.68166673
-0.012787302 -0.043995772 0.68266672
-0.0079317158 -0.04356467 0.68270004
-0.0028175663 -0.043995772 0.68266666
0.0030298415 -0.0443854 0.68200004
0.007973508 -0.043649875 0.68218189
0.012804417 -0.043608747 0.6815455
0.017521549 -0.043642264 0.68137503
0.022271091 -0.043154493 0.68207151
0.02698889 -0.042380642 0.68283337
0.030617144 -0.04234286 0.68400002
-0.16733526 -0.036462545 0.68366671
-0.16416001 -0.035828575 0.68400002
-0.15612572 -0.036262862 0.68400002
-0.15232286 -0.036453813 0.68350005
-0.14737907 -0.036357012 0.68342865
-0.1421935 -0.036471274 0.68383336
-0.13770831 -0.036357008 0.68342859
-0.13316552 -0.036057722 0.68340009
-0.12730801 -0.036839243 0.68340003
-0.12235308 -0.037162602 0.68236369
-0.11748572 -0.03835167 0.68250006
-0.11225515 -0.038503524 0.68290007
-0.1076273 -0.038044602 0.68283337
-0.10282909 -0.038333856 0.68218184
-0.097724348 -0.038788255 0.68255556
-0.092557862 -0.03881048 0.68200004
-0.087062478 -0.039315432 0.68120003
-0.08215753 -0.039068002 0.6814
-0.077866673 -0.03915048 0.68133342
-0.072612628 -0.038900714 0.68075001
-0.067781724 -0.039268956 0.68040007
-0.062074926 -0.039582223 0.68133342
-0.056774609 -0.039504763 0.68000001
-0.053104766 -0.039504763 0.68000001
0.026552383 -0.039504763 0.68000001
-0.16704021 -0.034135431 0.68140006
-0.16249883 -0.033800956 0.68250006
-0.15790042 -0.033400107 0.68166667
-0.15269443 -0.03384082 0.68142861
-0.14690001 -0.034450002 0.6825
-0.14231589 -0.03444159 0.68233335
-0.13749905 -0.034374289 0.68100005
-0.13245262 -0.034412146 0.68175006
-0.1279562 -0.034424763 0.68200004
-0.12434287 -0.034323812 0.68000001
-0.10556191 -0.034323812 0.68000001
-0.17593494 -0.017526668 0.68166673
-0.17394859 -0.016638096 0.68066669
-0.17694804 -0.013296871 0.68342865
-0.17280619 -0.012991788 0.68212503
-0.16758789 -0.01231065 0.68036366
-0.16255239 -0.011009525 0.68000001
-0.15996191 -0.011009525 0.68000001
-0.17653716 -0.009771429 0.68400002
-0.17269802 -0.0084607154 0.68341672
-0.16762322 -0.0085724685 0.68290919
-0.16255952 -0.0078011905 0.68274999
-0.1578481 -0.0073968582 0.68150008
-0.15263811 -0.0058457153 0.68200004
-0.14765716 -0.005828572 0.68000001
-0.16090287 -0.0039085718 0.68400002
-0.15735251 -0.0036894183 0.68366671
-0.15207356 -0.0028804769 0.68321431
-0.14737497 -0.0024489381 0.68261552
-0.14280625 -0.0021800867 0.6807273
-0.13859048 -0.00064761908 0.68000001
-0.15048002 0.00065142859 0.68400002
-0.14678983 0.0022542856 0.68361545
-0.14248954 0.002603651 0.68316674
-0.13784301 0.0027300955 0.68206662
-0.13306844 0.0038031298 0.68157154
-0.14092574 0.0071657151 0.68400002
-0.13800144 0.0065097627 0.68350005
-0.13261913 0.0076796832 0.68326676
-0.12765671 0.0081460821 0.68199998
-0.12263873 0.0085811652 0.68133336
-0.11851429 0.0087428577 0.68000001
-0.13126287 0.012377144 0.68400002
-0.12748563 0.01225723 0.68390912
-0.1222356 0.012569818 0.68353856
-0.11764263 0.013337224 0.68308342
-0.11289501 0.014597858 0.68124998
-0.10815239 0.01489524 0.68000001
-0.11689525 0.017299049 0.68400002
-0.11218449 0.017381499 0.68314296
-0.10837874 0.01783566 0.68233341
-0.10277372 0.018532954 0.68040001
-0.10675667 0.020179525 0.68350005
-0.10258646 0.021009738 0.68222225
-0.097381301 0.022291949 0.68290919
-0.092508107 0.023559526 0.68083334
-0.095760003 0.025405716 0.68400002
-0.092180446 0.026988648 0.68346161
-0.087556511 0.027600002 0.68183345
-0.082992196 0.027881905 0.68079996
-0.079657145 0.029142858 0.68000001
-0.08625143 0.030920479 0.68350005
-0.081954293 0.031755134 0.68355554
-0.077610582 0.031721428 0.68250006
-0.07287576 0.033223636 0.68154544
-0.067428812 0.034361668 0.68075001
-0.072960004 0.035828575 0.68400002
-0.067366436 0.037208658 0.68341672
-0.062484957 0.037804954 0.68199998
-0.057297405 0.038416021 0.6815455
-0.052896671 0.039268095 0.68150008
-0.049866669 0.039504763 0.68000001
-0.060582861 0.041040003 0.68400002
-0.056649815 0.042324673 0.68370003
-0.052033875 0.042928632 0.68293744
-0.047551434 0.043844495 0.68128574
-0.043038648 0.044149391 0.68028575
-0.038209528 0.044685718 0.68000001
-0.050160002 0.046251431 0.68400002
-0.047266286 0.046745528 0.68360007
-0.042947624 0.046851669 0.68325001
-0.037701115 0.047451273 0.68250006
-0.033082999 0.047912929 0.68114293
-0.027672701 0.048211113 0.68100011
-0.022666669 0.049434923 0.68000001
-0.036480002 0.050160002 0.68400002
-0.032218177 0.051528182 0.68341672
-0.027318513 0.05203411 0.6829375
-0.022223223 0.052382354 0.68161541
-0.017502857 0.052509844 0.68066674
-0.013803266 0.052894432 0.68085724
-0.0074476195 0.053428575 0.68000001
-0.0045333337 0.053752385 0.68000001
-0.026696194 0.055344447 0.68366671
-0.021486988 0.055995878 0.68366671
-0.017448192 0.056902289 0.68360007
-0.013006727 0.057227924 0.68281245
-0.0077962512 0.057176854 0.6821875
-0.0027274289 0.05726229 0.68166667
0.0022026668 0.05780229 0.68040001
-0.001302381 0.060538575 0.68350005
0.0025957145 0.060405716 0.68200004
0.0081714289 0.060560007 0.68080002
0.01257016 0.061766356 0.68266672
0.016688256 0.06133334 0.68266672
-0.16864096 -0.045277145 0.68900001
-0.091210485 -0.045277145 0.68900001
-0.080711432 -0.045277145 0.68900001
-0.07726334 -0.045178574 0.6875
-0.072356477 -0.045961365 0.68800002
-0.067820549 -0.045745719 0.68757141
-0.06290286 -0.045867622 0.68800008
-0.058070481 -0.046063177 0.68766677
-0.052286431 -0.046403576 0.68625009
-0.046232764 -0.047019809 0.68760008
-0.04259048 -0.047178097 0.68800008
-0.037930161 -0.047304131 0.68666667
-0.032453068 -0.04723211 0.68742865
-0.027511908 -0.047384918 0.68783343
-0.022639049 -0.04750153 0.6870001
-0.01701143 -0.047109526 0.68700004
-0.012441429 -0.047143653 0.68750012
-0.0079252915 -0.046899047 0.68711114
-0.0026152383 -0.047074761 0.68650001
0.0026915346 -0.047649849 0.68744451
0.0078582149 -0.04846251 0.68762505
0.012436826 -0.04865969 0.68733346
0.017049048 -0.049178574 0.68850005
0.02224667 -0.048635881 0.68700004
0.027640002 -0.046780955 0.68654549
0.030751431 -0.0458 0.68700004
-0.17114145 -0.041964285 0.68850005
-0.16841145 -0.04170819 0.68860006
-0.16371953 -0.04035572 0.68900001
-0.15748572 -0.040027622 0.68900001
-0.15026763 -0.041340001 0.68900001
-0.14698666 -0.041340001 0.68900001
-0.14239335 -0.041340001 0.68900001
-0.13714382 -0.040027622 0.68900001
-0.13233176 -0.040027626 0.68900001
-0.12730096 -0.041011907 0.68900001
-0.12336382 -0.041340001 0.68900001
-0.11237477 -0.041608095 0.68800008
-0.10726439 -0.041780956 0.68760008
-0.10063906 -0.041697465 0.68766677
-0.096886031 -0.042439468 0.68788892
-0.092818424 -0.042923495 0.68633342
-0.087320961 -0.043240685 0.68642867
-0.082454883 -0.043191552 0.68712497
-0.077015661 -0.04322245 0.68614286
-0.072176062 -0.043231566 0.68628585
-0.067946672 -0.043446667 0.68600005
-0.062720001 -0.043773334 0.68600005
-0.059453338 -0.043773334 0.68600005
0.029400002 -0.043773334 0.68600005
0.030706668 -0.043773334 0.68600005
-0.16707635 -0.038556352 0.68616676
-0.16195509 -0.037384331 0.68645453
-0.15765008 -0.038035106 0.68685716
-0.15266341 -0.039123267 0.68628573
-0.14750722 -0.039001595 0.68633336
-0.14259155 -0.039008044 0.68644452
-0.13748479 -0.039001592 0.68633342
-0.13237251 -0.038241308 0.68637502
-0.12740001 -0.039417781 0.68600005
-0.12282667 -0.039853334 0.68600005
-0.11956001 -0.039853334 0.68600005
-0.1719943 -0.0058857147 0.68666673
-0.16790667 -0.005880001 0.68600005
-0.17205779 -0.0037161908 0.6886667
-0.16752961 -0.0027488894 0.68766677
-0.16254097 -0.0021780955 0.68633336
-0.1578524 -0.0011765715 0.68660009
-0.15418667 -0.00065333338 0.68600005
-0.16667239 0.0006561905 0.68900001
-0.16273525 0.0013123809 0.68900007
-0.15690365 0.0019668401 0.68827283
-0.15248737 0.0027952385 0.68663645
-0.14925049 0.0041400003 0.68633342
-0.15223619 0.0065619051 0.68900007
-0.14712024 0.0074235718 0.68758339
-0.14296049 0.0078533338 0.68700004
-0.1375377 0.0092440825 0.68628579
-0.14108096 0.011155238 0.68900001
-0.1372088 0.011967382 0.68850005
-0.13300684 0.012647461 0.68683338
-0.13255048 0.015092382 0.68900001
-0.12715314 0.01691143 0.68820012
-0.12285516 0.01696286 0.6870001
-0.1186889 0.018511115 0.68600005
-0.11441667 0.018307146 0.68650007
-0.12205143 0.020670002 0.68900001
-0.11780049 0.020725239 0.68716669
-0.11237335 0.020866398 0.68771434
-0.10781272 0.022831272 0.6881668
-0.10281372 0.023706669 0.68760008
-0.099306673 0.024173334 0.68600005
-0.10761525 0.025591429 0.68900001
-0.10146615 0.026878627 0.68833339
-0.09748596 0.027839607 0.6877501
-0.093426675 0.028746668 0.68600005
-0.096460007 0.030840954 0.68900001
-0.092434183 0.032123074 0.68833339
-0.088023186 0.033269208 0.68716681
-0.082816035 0.034216356 0.68650007
-0.077746674 0.03462667 0.68600005
-0.085960954 0.036090478 0.68900001
-0.082128815 0.036884528 0.68850005
-0.077299848 0.037340797 0.68783349
-0.071985826 0.038136508 0.68644452
-0.06863334 0.039437145 0.68633336
-0.076774292 0.040027626 0.68900001
-0.072001994 0.041936539 0.68900013
-0.067456827 0.042571116 0.68766677
-0.062974289 0.042636801 0.6868183
-0.059017785 0.043337785 0.68600005
-0.066275239 0.045277145 0.68900001
-0.062444557 0.046268255 0.6885556
-0.057763815 0.046580434 0.68709099
-0.052269317 0.047618944 0.6870001
-0.047543239 0.048852958 0.68760008
-0.042487942 0.049023814 0.68633342
-0.046852004 0.050789148 0.68900007
-0.041971814 0.051809717 0.68860006
-0.037572291 0.052367527 0.68730003
-0.033659287 0.053919762 0.68625009
-0.036090478 0.055776194 0.68900001
-0.032242753 0.056697149 0.68777782
-0.027707199 0.05737894 0.6872223
-0.022545172 0.057906538 0.68757159
-0.018293336 0.059453338 0.68600005
-0.015691906 0.060804289 0.68650007
-0.012413334 0.060760003 0.68600005
-0.0078457147 0.060804289 0.68650007
-0.00392 0.060760003 0.68600005
-0.061468579 -0.050893337 0.69400001
-0.058782384 -0.051517621 0.69350004
-0.043622859 -0.050893337 0.69400001
-0.037301719 -0.051275052 0.69200003
-0.032898694 -0.051322024 0.69087505
-0.028145399 -0.051235877 0.69266671
-0.022433097 -0.050801672 0.69275004
-0.016870614 -0.051365312 0.69271433
-0.012533652 -0.051456194 0.69266671
-0.0078243548 -0.051386259 0.69300002
-0.0023546941 -0.051322863 0.6921429
0.0026348415 -0.052060716 0.69191682
0.0079020243 -0.051360358 0.69137502
0.012517145 -0.050722227 0.69166672
0.016765146 -0.051084388 0.69300002
0.022918098 -0.051608808 0.6925
0.027656827 -0.051717147 0.69322217
-0.16633683 -0.045364764 0.69033337
-0.16379762 -0.045572862 0.69350004
-0.1361562 -0.045605719 0.69400001
-0.13168702 -0.046024453 0.6936667
-0.1275019 -0.045583814 0.6936667
-0.12293715 -0.045605719 0.69400001
-0.11725296 -0.045870103 0.69400001
-0.11207865 -0.04617225 0.69400001
-0.10747087 -0.046134483 0.69400001
-0.10263579 -0.046087489 0.69271433
-0.097393632 -0.046524104 0.69189996
-0.092313692 -0.046908319 0.69190913
-0.087376297 -0.046920102 0.69190007
-0.083003342 -0.046774197 0.69170004
-0.077642262 -0.047374882 0.69087505
-0.072321154 -0.048347052 0.69160002
-0.066749334 -0.048319239 0.69120002
-0.062232662 -0.048865307 0.69200015
-0.057676058 -0.048646402 0.69157147
-0.053059429 -0.048319243 0.69120002
-0.047706481 -0.049028762 0.69380003
-0.042255003 -0.049517859 0.69325
-0.037457149 -0.049285721 0.69000006
-0.032857146 -0.049285717 0.69000006
-0.027609764 -0.049303576 0.69025004
-0.022351667 -0.049303576 0.69025004
-0.017085716 -0.049285717 0.69000006
-0.012485716 -0.049285721 0.69000006
-0.0078935716 -0.049339287 0.69075006
-0.0026302384 -0.049303576 0.69025004
0.0013142858 -0.049285717 0.69000006
0.013800001 -0.049285717 0.69000006
0.028327938 -0.049404766 0.69166672
0.030885717 -0.047971431 0.69000006
-0.16704573 -0.042977151 0.69000006
-0.16252027 -0.042795382 0.69128585
-0.15770601 -0.042162765 0.69169998
-0.15270299 -0.042847518 0.69211113
-0.14756279 -0.04308486 0.69169998
-0.1425537 -0.04329465 0.69137502
-0.13776064 -0.042777941 0.69099998
-0.132651 -0.042623471 0.69045466
-0.1278273 -0.043194927 0.69066668
-0.12226561 -0.043084864 0.69170004
-0.11743818 -0.042886116 0.6927501
-0.11222779 -0.043791272 0.69316667
-0.10805734 -0.04356667 0.69100004
-0.10263954 -0.043643661 0.69083345
-0.098571435 -0.044028573 0.69000006
-0.17260954 -0.0015333336 0.69000006
-0.17180684 0.0022172299 0.6911819
-0.16769533 0.0031723815 0.69099998
-0.16275731 0.003850885 0.6902858
-0.15868059 0.0040756189 0.69020003
-0.17206794 0.0063892072 0.69400001
-0.16740143 0.0063877786 0.69383335
-0.16247717 0.0066052391 0.69349998
-0.15707545 0.0076520005 0.69239998
-0.15254036 0.0088765491 0.69037503
-0.14785716 0.0098571433 0.69000006
-0.1439143 0.0098571433 0.69000006
-0.15576446 0.012558095 0.69400001
-0.15233883 0.012531006 0.69244444
-0.1472716 0.012492224 0.69033337
-0.14261493 0.012793122 0.69077784
-0.13865715 0.013361907 0.69000006
-0.15227118 0.016142994 0.69385713
-0.14799929 0.015857143 0.69375002
-0.14228278 0.01661659 0.69325012
-0.13752612 0.017109925 0.69091672
-0.13280763 0.01775175 0.69033337
-0.12847143 0.01807143 0.69000006
-0.13696325 0.020736191 0.69340008
-0.13203241 0.021357676 0.69355565
-0.12742659 0.02245008 0.69325006
-0.12284391 0.023203379 0.69245464
-0.11691257 0.023304764 0.69120002
-0.11239859 0.023663018 0.69016671
-0.12201182 0.026305905 0.69400001
-0.11720344 0.027383665 0.69346166
-0.11251956 0.027840151 0.69215381
-0.1076683 0.027764399 0.6903078
-0.10354695 0.028444903 0.69000012
-0.11566667 0.031725716 0.69400001
-0.11209387 0.032241561 0.69345456
-0.1074599 0.032305188 0.69222224
-0.10267258 0.032909825 0.69106257
-0.097496137 0.033343155 0.69061548
-0.092657149 0.034828573 0.69000006
-0.10575239 0.035691433 0.69400001
-0.10244763 0.036352389 0.69400001
-0.09751796 0.036911428 0.69385713
-0.092311911 0.037585404 0.69233334
-0.087660246 0.037663098 0.69075006
-0.08378572 0.038442861 0.69000006
-0.09088096 0.041309528 0.69400001
-0.087282777 0.042156436 0.69341671
-0.082672521 0.041949801 0.69128579
-0.077729531 0.042531583 0.6903078
-0.073819056 0.043590479 0.69000006
-0.085262865 0.046266671 0.69400001
-0.082259297 0.045919769 0.69375002
-0.077660851 0.046421066 0.69300008
-0.072335616 0.046992458 0.69192314
-0.067355521 0.047697417 0.69142878
-0.062698103 0.049171433 0.69300002
-0.057199687 0.049309529 0.69033337
-0.053885721 0.049285717 0.69000006
-0.066756196 0.050893337 0.69400001
-0.060146671 0.050893337 0.69400001
-0.0569527 0.051676512 0.69266671
-0.052526928 0.052528065 0.69113338
-0.047512472 0.053369615 0.69027281
-0.04245143 0.054280009 0.69000006
-0.038771432 0.054542862 0.69000006
-0.051774606 0.057062231 0.69400001
-0.047560722 0.057469137 0.69358337
-0.04219937 0.05736604 0.69233334
-0.037481483 0.057647202 0.69044453
-0.033535104 0.059086125 0.69042861
-0.027609287 0.059821669 0.69025004
-0.043209527 -0.055175241 0.69800001
-0.035897143 -0.055175241 0.69800001
-0.031908572 -0.055175241 0.69800001
-0.028584763 -0.055175241 0.69800007
-0.022601906 -0.055175241 0.69800001
-0.016880572 -0.055425335 0.69780004
-0.012294048 -0.05548786 0.69774997
-0.0083702868 -0.055409145 0.69760001
-0.0027912383 -0.055409528 0.69760001
0.0026573017 -0.055578899 0.69749999
0.0079753576 -0.055830121 0.69787502
0.012620138 -0.056079458 0.69742858
0.017458618 -0.056362342 0.69772732
0.022453273 -0.057264451 0.69753343
0.027448196 -0.05662458 0.69620007
0.031109527 -0.056261908 0.69500005
-0.096390486 -0.05118667 0.69800001
-0.092269532 -0.051113337 0.69700003
-0.08786267 -0.052161902 0.69680005
-0.082805149 -0.051437903 0.69780004
-0.076647818 -0.051408578 0.69740003
-0.072390161 -0.051802225 0.69733334
-0.067501307 -0.052301299 0.69672734
-0.062599689 -0.052868042 0.69677782
-0.057005402 -0.05214572 0.6960001
-0.052807894 -0.05167266 0.69685721
-0.047468096 -0.052109241 0.69610006
-0.042181905 -0.052662481 0.69640005
-0.037604194 -0.053549338 0.69760001
-0.032513019 -0.053742863 0.69666672
-0.027437147 -0.053326674 0.69700003
-0.022553334 -0.053068094 0.69650006
-0.017628001 -0.053411245 0.69580001
-0.012576192 -0.053614289 0.69500005
-0.0080878101 -0.053442098 0.69620007
-0.0030474286 -0.053380381 0.69540006
0.0079614287 -0.053730004 0.69650006
0.012582223 -0.052978098 0.69533342
0.01750109 -0.053068984 0.69528586
0.022119431 -0.053645145 0.69540006
0.027894562 -0.054370761 0.69500011
0.031948574 -0.052640721 0.69525009
-0.16227487 -0.046573911 0.69660008
-0.15763317 -0.046081912 0.6972
-0.15262793 -0.046652276 0.69644451
-0.14766699 -0.046202227 0.69633341
-0.14212319 -0.046489209 0.69733334
-0.1377081 -0.047230244 0.6960001
-0.13314034 -0.047993656 0.69666672
-0.12726858 -0.047726672 0.69600004
-0.12194179 -0.048049644 0.69587505
-0.11752477 -0.048551049 0.69640005
-0.11268477 -0.048721425 0.69600004
-0.10747545 -0.048697334 0.69660008
-0.10242655 -0.049177554 0.6964286
-0.097555086 -0.049332544 0.69683337
-0.092004769 -0.049642861 0.69500005
-0.087371431 -0.049642861 0.69500005
-0.082135722 -0.049678575 0.69550002
-0.07744287 -0.049642861 0.69500005
-0.073030166 -0.049642861 0.69500005
-0.068176202 -0.049642861 0.69500005
-0.052290481 -0.049642861 0.69500005
-0.049642861 -0.049642861 0.69500005
0.032023177 -0.049249213 0.69566673
-0.15731272 -0.044347625 0.69500005
-0.17098249 0.0083584767 0.69640005
-0.16755398 0.0090760859 0.69722223
-0.16247843 0.0092850793 0.69633341
-0.15907779 0.009487303 0.69500005
-0.16729842 0.011300954 0.69800007
-0.16172019 0.012184604 0.69783342
-0.15779102 0.012400273 0.69571435
-0.15621573 0.016252382 0.69650006
-0.15234812 0.018547146 0.69550014
-0.14746818 0.018659456 0.69614291
-0.14363334 0.018753972 0.69500005
-0.15124144 0.020563334 0.69650006
-0.14741835 0.020585477 0.69725001
-0.1417309 0.022357356 0.69722223
-0.13758785 0.023189737 0.69566679
-0.13247553 0.023923133 0.69500011
-0.13694096 0.025925716 0.69800001
-0.13245858 0.027103527 0.69749999
-0.12722336 0.027831668 0.69575012
-0.12264151 0.028840141 0.69500011
-0.1193635 0.029344447 0.69500005
-0.12713081 0.031672068 0.69766665
-0.12238573 0.032665022 0.69736367
-0.11790383 0.03245762 0.69550008
-0.11450953 0.033757146 0.69500005
-0.11600096 0.035564762 0.69800001
-0.11208586 0.036160409 0.69757146
-0.10766851 0.037365161 0.69641674
-0.1026943 0.038427942 0.69566679
-0.098359063 0.038787622 0.69500011
-0.10569715 0.040550478 0.69800001
-0.10188191 0.040974289 0.69766665
-0.097614855 0.042500399 0.69725007
-0.093240969 0.042703494 0.69516677
-0.088695243 0.044347622 0.69500005
-0.09594731 0.046754926 0.69800007
-0.092373766 0.046813548 0.69666672
-0.0876792 0.047794506 0.69623083
-0.082435817 0.048640579 0.69580007
-0.077797532 0.049170479 0.69580001
-0.073541909 0.049690481 0.69566673
-0.061557148 0.049642861 0.69500005
-0.082371593 0.052479208 0.69749999
-0.077066123 0.052485477 0.69758338
-0.072180964 0.052073203 0.6971429
-0.06761048 0.052438878 0.69536376
-0.062432822 0.052438885 0.69536376
-0.057916671 0.053614292 0.69500005
-0.0549381 0.0549381 0.69500005
-0.042240001 -0.061013337 0.70400006
-0.026148573 -0.061013337 0.70400006
-0.022796191 -0.061013337 0.70400006
-0.015420954 -0.061013337 0.70400006
-0.011366986 -0.061508894 0.70200002
-0.0076346672 -0.061480004 0.70320004
-0.0042425403 -0.061402544 0.70333338
0.018680478 -0.060710005 0.70050001
0.020666668 -0.060666669 0.70000005
0.02611143 -0.061596196 0.70300001
-0.090991914 -0.055530958 0.70250005
-0.086779051 -0.05575962 0.70200002
-0.082351431 -0.055570479 0.70300001
-0.077746913 -0.05562976 0.70375001
-0.071908012 -0.055838671 0.70300001
-0.067110583 -0.056857679 0.70233339
-0.062998526 -0.056455243 0.70288897
-0.057633653 -0.05607016 0.70366669
-0.052027281 -0.056774639 0.70281827
-0.047335051 -0.057098102 0.70200008
-0.042723373 -0.057606418 0.70166683
-0.03795249 -0.056969848 0.70188892
-0.031994835 -0.05702123 0.70200002
-0.027110795 -0.05771355 0.70188892
-0.022709686 -0.058112547 0.7013334
-0.017549179 -0.058236275 0.70136368
-0.012281905 -0.058334101 0.70079994
-0.0073422226 -0.058074713 0.70088899
-0.0026103035 -0.058220871 0.70118189
0.0021714286 -0.058314286 0.70175004
0.014000001 -0.058000002 0.70000005
0.016937716 -0.059083622 0.70020002
0.02611143 -0.059587624 0.70300001
-0.16225526 -0.050285719 0.70400006
-0.15756193 -0.050285719 0.70400012
-0.15227684 -0.050685089 0.70333338
-0.14742585 -0.050929412 0.70362502
-0.14239906 -0.051041774 0.70385718
-0.13752505 -0.050747354 0.7024287
-0.13225049 -0.051432386 0.70133346
-0.12740199 -0.052208871 0.70207703
-0.12269118 -0.051664684 0.70118189
-0.11739482 -0.052656632 0.70145464
-0.11235993 -0.05283834 0.70225
-0.10701493 -0.052728575 0.70277786
-0.10273651 -0.052522544 0.70200008
-0.097404562 -0.05267863 0.70211112
-0.092888579 -0.053461593 0.70166671
-0.086666673 -0.054000005 0.70000005
-0.08243116 -0.053461634 0.70042861
-0.077682182 -0.053472657 0.70057148
-0.072026432 -0.054019291 0.70025003
-0.056775242 -0.05410286 0.7013334
-0.052019291 -0.054019291 0.70025003
-0.048666671 -0.054000005 0.70000005
-0.16172406 -0.048350714 0.70025003
-0.15785335 -0.0482454 0.70033336
-0.15133335 -0.048666671 0.70000005
-0.1471505 -0.048161149 0.70040005
-0.14318953 -0.048441716 0.70060003
-0.17533335 0.0086666672 0.70000005
-0.17400001 0.0086666672 0.70000005
-0.1759048 0.011714286 0.70000011
-0.17237796 0.012360513 0.70007688
-0.16769485 0.013061362 0.70071441
-0.16360001 0.013466668 0.70000005
-0.17589691 0.017391192 0.70225
-0.17278844 0.017109253 0.70242876
-0.16741286 0.017289685 0.70266676
-0.16258043 0.017164763 0.70085728
-0.15819854 0.01800614 0.70022225
-0.17608477 0.020755239 0.70300001
-0.17348826 0.020765081 0.70333338
-0.16560763 0.020784764 0.70400006
-0.16202895 0.021309337 0.70360005
-0.15723586 0.022186324 0.70200008
-0.15257256 0.02319392 0.70192319
-0.14747366 0.02335619 0.70066673
-0.14413334 0.023600003 0.70000005
-0.15123272 0.026583178 0.70366669
-0.14721981 0.027302118 0.70300001
-0.14251068 0.027247811 0.70120001
-0.13793215 0.027853575 0.70050001
-0.13333334 0.028666668 0.70000005
-0.14549334 0.03017143 0.70400006
-0.14176697 0.031493746 0.7035715
-0.1373217 0.03172227 0.70176935
-0.1324902 0.032392159 0.70069242
-0.12771262 0.033678811 0.70025003
-0.13270786 0.035522617 0.70375001
-0.12688318 0.036412384 0.70366669
-0.12255415 0.03728909 0.70200014
-0.11780731 0.037935399 0.70083332
-0.11247128 0.038898259 0.7001667
-0.1213562 0.041569527 0.70400012
-0.11700049 0.041954055 0.70200008
-0.11221583 0.042345352 0.70230782
-0.10752477 0.042876802 0.70045465
-0.10293334 0.043600008 0.69999999
-0.10692896 0.046975054 0.7026
-0.10267135 0.047299225 0.70127279
-0.098035246 0.047684051 0.70025003
-0.094000004 0.048666671 0.70000005
-0.10258286 0.050285719 0.70400006
-0.097081237 0.050980281 0.70300001
-0.087688103 0.052453436 0.70069999
-0.10721143 -0.060011432 0.708
-0.10316572 -0.060011432 0.708
-0.086308576 -0.060011432 0.708
-0.082262859 -0.060011432 0.708
-0.066754289 -0.061360005 0.708
-0.062708579 -0.060011432 0.708
-0.057314288 -0.060910478 0.70800006
-0.052052148 -0.062159292 0.70750004
-0.047544479 -0.062629811 0.70710003
-0.042909149 -0.062012006 0.70620006
-0.036731433 -0.061760392 0.70640004
-0.032110054 -0.062200852 0.70733327
-0.028056828 -0.062395882 0.70699996
-0.02323143 -0.061905719 0.70500004
-0.014100001 -0.06177143 0.70500004
-0.0060428577 -0.062442861 0.70500004
-0.0013428573 -0.061100002 0.70500004
0.00067142863 -0.061100002 0.70500004
-0.16182858 -0.055965718 0.708
-0.15778287 -0.055965718 0.708
-0.15238857 -0.055965718 0.708
-0.14699429 -0.055965718 0.708
-0.14362288 -0.055965718 0.70800006
-0.13777906 -0.055965718 0.70800006
-0.1328343 -0.055965718 0.70800006
-0.12793334 -0.055886671 0.70700002
-0.12406858 -0.055965718 0.708
-0.11589572 -0.055926196 0.70749998
-0.11224058 -0.056457717 0.70740002
-0.10748018 -0.057076029 0.70654541
-0.10234603 -0.057234611 0.70700002
-0.097326949 -0.056702454 0.70757145
-0.093081146 -0.056710865 0.70719999
-0.087541237 -0.057945315 0.70628572
-0.082334846 -0.05793348 0.70614284
-0.077722862 -0.057741646 0.70614284
-0.072934702 -0.057945315 0.70628572
-0.067333341 -0.059590004 0.70700002
-0.062195718 -0.059170481 0.70600003
-0.058021903 -0.058620002 0.70566666
-0.052805144 -0.05952248 0.70540011
-0.048342861 -0.059757147 0.70500004
-0.037217338 -0.05952248 0.70539999
-0.0327054 -0.059366032 0.70566672
-0.02887143 -0.059757147 0.70500004
-0.16242716 -0.053023141 0.70650005
-0.1573936 -0.053138338 0.70624995
-0.15254276 -0.053652026 0.706375
-0.14760533 -0.053684495 0.70585716
-0.14254478 -0.05379143 0.70599997
-0.13753703 -0.053920411 0.70642865
-0.1323978 -0.054437146 0.70566672
-0.1269 -0.054385718 0.70500004
-0.12242382 -0.054385718 0.7050001
-0.10877144 -0.054385718 0.70500004
-0.1007143 -0.054385718 0.70500004
-0.098700009 -0.054385718 0.70500004
-0.17188573 0.019471429 0.70500004
-0.1692 0.019471429 0.70500004
-0.17183448 0.023029143 0.70699996
-0.16781867 0.022870718 0.70624995
-0.16289392 0.023789335 0.70559996
-0.15845716 0.024842858 0.70500004
-0.16520001 0.026297145 0.708
-0.16214173 0.026821716 0.70760006
-0.15743846 0.027475154 0.70672721
-0.15315177 0.028030163 0.70633334
-0.14905715 0.02887143 0.70500004
-0.1564343 0.031017145 0.708
-0.15182382 0.031662598 0.70736367
-0.14748779 0.03248433 0.70654553
-0.14326464 0.033297554 0.70528573
-0.13898572 0.034242861 0.70500004
-0.14699429 0.035737146 0.708
-0.14236799 0.036560833 0.70762503
-0.13759986 0.037681591 0.70649999
-0.13275976 0.038149353 0.70499998
-0.12809367 0.038569845 0.70499998
-0.13611001 0.041102387 0.70749998
-0.13223501 0.042282145 0.70750004
-0.12763569 0.04226061 0.70636362
-0.12253811 0.04327688 0.70528579
-0.11750001 0.044650007 0.70500004
-0.11347144 0.044985723 0.7050001
-0.12676573 0.045177147 0.708
-0.12242607 0.046729442 0.70736367
-0.1172012 0.047824051 0.70724988
-0.11234065 0.04776286 0.7063334
-0.10836858 0.048477147 0.70500004
-0.082052149 -0.067103572 0.71350014
-0.078168176 -0.066709936 0.71371436
-0.071400009 -0.065960005 0.71400011
-0.066851273 -0.066851273 0.71383345
-0.062424004 -0.066504002 0.71400005
-0.057099763 -0.066616669 0.71375006
-0.053644765 -0.065867625 0.71300006
-0.12625335 -0.060973339 0.71400011
-0.12207686 -0.061582573 0.71370018
-0.117567 -0.061842117 0.71355563
-0.11270963 -0.061787225 0.71291679
-0.1074308 -0.062112492 0.7114445
-0.10279845 -0.061704241 0.71054548
-0.097542308 -0.061642464 0.71125001
-0.092243031 -0.061722383 0.71216679
-0.087580554 -0.062033061 0.71128577
-0.082458019 -0.06287688 0.7112729
-0.077289052 -0.062376428 0.71187514
-0.072362646 -0.062558249 0.71215397
-0.067862608 -0.062810481 0.71190912
-0.062348332 -0.063028015 0.71158338
-0.057098933 -0.063539639 0.7116251
-0.053419054 -0.063787311 0.71000004
-0.16179316 -0.058181722 0.71200001
-0.15791747 -0.0581454 0.71266669
-0.15234414 -0.057187304 0.71200007
-0.14740588 -0.05787953 0.71216673
-0.14234699 -0.058101065 0.71211112
-0.13760406 -0.057279766 0.71175003
-0.13155144 -0.057638101 0.71200001
-0.12716532 -0.058208574 0.71185714
-0.12241537 -0.05773798 0.71112502
-0.11804391 -0.057804104 0.71070004
-0.11268552 -0.058574673 0.71020001
-0.097371437 -0.058828574 0.71000004
-0.092638098 -0.058828574 0.71000004
-0.17159548 0.027414527 0.71074998
-0.16796558 0.027861651 0.71036369
-0.16330001 0.028738096 0.71000004
-0.15890478 0.029076193 0.71000004
-0.17146738 0.032666262 0.71242863
-0.16792814 0.032210045 0.71253854
-0.1624703 0.032387756 0.71140009
-0.15757084 0.032918189 0.71063644
-0.15349525 0.033809528 0.71000004
-0.1624435 0.036023177 0.71366668
-0.15703352 0.037148658 0.71154547
-0.15226233 0.037220001 0.71055555
-0.14769337 0.038368795 0.7106154
-0.14298725 0.039365526 0.71020001
-0.13997144 0.03989524 0.71000004
-0.15602732 0.040535878 0.71333337
-0.15201873 0.041695584 0.71345472
-0.14726193 0.042754188 0.71255559
-0.14247586 0.042811606 0.71145457
-0.13794371 0.042822741 0.71087503
-0.13388571 0.043952383 0.71000004
-0.12120286 -0.065052383 0.71900004
-0.11755081 -0.065737151 0.71900004
-0.1123743 -0.065563247 0.71860009
-0.1061381 -0.066421911 0.71900004
-0.076531909 -0.067650005 0.71750003
-0.07262329 -0.068069428 0.71711117
-0.068920478 -0.068238579 0.71650004
-0.063417144 -0.066826671 0.71600002
-0.16160381 -0.060943812 0.71900004
-0.15749525 -0.060943812 0.71900004
-0.15256034 -0.060887307 0.71833342
-0.14770287 -0.061543819 0.71799999
-0.14255336 -0.061653752 0.71814287
-0.13771887 -0.062091243 0.71800005
-0.13255183 -0.062177226 0.7174167
-0.12811986 -0.062580802 0.71683335
-0.12410668 -0.063417144 0.71600002
-0.11676858 -0.06487143 0.71700001
-0.11403715 -0.06487143 0.71700001
-0.10705905 -0.064780958 0.71600002
-0.1569481 -0.059367146 0.71650004
-0.15285286 -0.05936715 0.71650004
-0.14933716 -0.059325717 0.71600002
-0.13774477 -0.059325717 0.71600002
-0.13288286 -0.059135433 0.71700007
-0.16774859 0.034777146 0.71600002
-0.17167145 0.037031159 0.71814293
-0.16723667 0.037742574 0.71789998
-0.16244447 0.038222544 0.7166667
