# .PCD v0.7 - Point Cloud Data file format
VERSION 0.7
FIELDS x y z
SIZE 4 4 4
TYPE F F F
COUNT 1 1 1
WIDTH 1327
HEIGHT 1
VIEWPOINT 0 0 0 1 0 0 0
POINTS 1327
DATA ascii
-0.042767622 -0.012577739 0.660375
-0.038091432 -0.010937144 0.66000003
-0.033314288 -0.010685715 0.66000003
-0.02577143 -0.010685715 0.66000003
-0.021758193 -0.012325048 0.66029996
-0.01849143 -0.012326858 0.66040003
-0.013200001 -0.010685715 0.66000003
-0.0056571434 -0.011942859 0.66000003
-0.0025145239 -0.012573454 0.66012496
0.0011673471 -0.012302042 0.66000009
0.0081714289 -0.014457144 0.66000003
0.013206666 -0.013346985 0.66033345
0.017736509 -0.012705781 0.66040003
0.022198392 -0.012429747 0.66015387
-0.062511429 -0.0094714295 0.66300005
-0.058091432 -0.0094714295 0.66300005
-0.053671435 -0.0094714295 0.66300005
-0.047357149 -0.0094714295 0.66300005
-0.042646479 -0.0084529528 0.66240007
-0.037814364 -0.0081919841 0.66175008
-0.032593817 -0.0078317691 0.66178584
-0.027709289 -0.007554763 0.66125005
-0.022683572 -0.0075596436 0.66162509
-0.017647739 -0.0075619048 0.66175002
-0.012594354 -0.0072849677 0.66121435
-0.0073772795 -0.0072857151 0.66128576
-0.0026474285 -0.0076880641 0.66180009
0.0025603813 -0.0076805088 0.66120005
0.0073058098 -0.0066743814 0.66130012
0.01270819 -0.0066680009 0.66060001
0.017738478 -0.0074212714 0.66046667
0.022511624 -0.0076708589 0.66026664
-0.026835715 -0.0041042855 0.66300005
-0.021847431 -0.0039148573 0.66300005
-0.017680002 -0.0039990479 0.66300011
-0.012628572 -0.0044200001 0.66300005
-0.0075771436 -0.0044200001 0.66300005
-0.0037885716 -0.0044200001 0.66300005
0.0094714295 -0.0044200001 0.66300005
0.013042541 -0.0039968258 0.6626668
0.017578505 -0.0038759187 0.66257155
0.022945052 -0.0034031428 0.66190004
-0.17011715 -0.029308572 0.66900003
-0.16586953 -0.027397145 0.66900003
-0.16221659 -0.026632575 0.66900009
-0.15801144 -0.026759999 0.66900009
-0.15279953 -0.026740476 0.66850007
-0.14790165 -0.026635511 0.66814297
-0.14242248 -0.027086858 0.6676001
-0.13724589 -0.027324129 0.66716671
-0.13229601 -0.027070859 0.66720003
-0.12772508 -0.02652159 0.66833341
-0.12205838 -0.026668983 0.66900009
-0.11735634 -0.026817553 0.66814297
-0.11260476 -0.026720952 0.66799998
-0.10751525 -0.026720952 0.6680001
-0.10252229 -0.027094672 0.66780013
-0.098043419 -0.026806394 0.66785723
-0.092245728 -0.026402382 0.6680001
-0.087414764 -0.026909525 0.66875011
-0.0829309 -0.026937673 0.66811115
-0.077615246 -0.026720952 0.66799998
-0.072342776 -0.027238009 0.66790915
-0.067360558 -0.027327538 0.66725004
-0.062310599 -0.026705835 0.66762495
-0.057044879 -0.026933333 0.6680001
-0.052240007 -0.027249353 0.6681819
-0.047111906 -0.026103336 0.66850007
-0.041414291 -0.026122859 0.66900003
-0.037100002 -0.027228095 0.66875005
-0.033012386 -0.027046859 0.66660005
-0.0284454 -0.027034607 0.66700006
-0.022445081 -0.026468892 0.66700006
-0.018248256 -0.02652159 0.66833341
-0.014017144 -0.026122859 0.66900003
-0.16502 -0.024211429 0.66900003
-0.16174328 -0.023210207 0.66900009
-0.15768704 -0.022888931 0.66762495
-0.15245715 -0.022868572 0.66699994
-0.14734787 -0.022864167 0.66687495
-0.14219296 -0.022789907 0.66593337
-0.13734663 -0.022686159 0.66540009
-0.1324534 -0.022972677 0.66543746
-0.12751429 -0.022997737 0.66612494
-0.12275334 -0.022649523 0.6658572
-0.11802132 -0.023443464 0.66527271
-0.11277572 -0.022809289 0.66525
-0.10775804 -0.022820299 0.66556257
-0.10289972 -0.023697812 0.66530001
-0.097570479 -0.024075955 0.66525
-0.092293881 -0.024183678 0.66571426
-0.087319791 -0.023892274 0.66600001
-0.082442507 -0.024098929 0.66587502
-0.077339649 -0.02408988 0.66562504
-0.072268218 -0.02408988 0.66562498
-0.067766674 -0.024383334 0.66500002
-0.06169064 -0.024296349 0.66550004
-0.05749318 -0.024308732 0.66583335
-0.051973812 -0.024718571 0.66550004
-0.046924289 -0.024308732 0.66583335
-0.042115562 -0.023494607 0.66666663
-0.037785854 -0.023831567 0.66600007
-0.032933336 -0.024700001 0.66500002
-0.027889049 -0.024718571 0.66549999
-0.022800002 -0.024700001 0.66500002
-0.017487077 -0.024193743 0.66600007
-0.012462932 -0.023022935 0.66715389
-0.008270001 -0.024170002 0.66783345
-0.0025352382 -0.022233333 0.66700006
0.0025400002 -0.020978572 0.66750002
0.0073530623 -0.021517964 0.66728574
0.012797778 -0.021847304 0.66811121
0.01784 -0.021662859 0.66900009
0.022501271 -0.021440003 0.66866678
0.026122859 -0.021025715 0.66900003
-0.16119716 -0.01975143 0.66900003
-0.15737429 -0.01975143 0.66900003
-0.15280096 -0.019099524 0.66850007
-0.1475962 -0.019084761 0.66799998
-0.14225577 -0.018553767 0.66763633
-0.13701358 -0.018330079 0.66758341
-0.13206069 -0.018071974 0.66757137
-0.12725051 -0.017667873 0.66739994
-0.12245681 -0.017763745 0.66621429
-0.11772322 -0.017228315 0.66554546
-0.11275518 -0.017652439 0.66623533
-0.10785238 -0.017762724 0.66614282
-0.10348941 -0.016957024 0.66562498
0.013557714 -0.019132573 0.66520005
0.017803119 -0.018495066 0.66545457
0.022596085 -0.018795453 0.66522223
-0.12934001 -0.014654287 0.66900003
-0.12233143 -0.014654287 0.66900003
-0.11698787 -0.013688096 0.66850007
-0.112965 -0.013842859 0.66825002
-0.10649848 -0.012993335 0.66880006
-0.1024934 -0.012852529 0.66715389
-0.09767016 -0.012411227 0.66592854
-0.09242449 -0.01241252 0.66600001
-0.087899826 -0.012045803 0.66572732
-0.082604766 -0.011309525 0.66500008
-0.0722 -0.010766667 0.66500002
-0.10156059 -0.0093022864 0.66900009
-0.097337149 -0.0089057153 0.6680001
-0.093215384 -0.0090028569 0.66842866
-0.087554388 -0.0085256202 0.66810006
-0.082581922 -0.0082563497 0.667
-0.077280231 -0.0080535533 0.66638458
-0.072410546 -0.0076200594 0.66693747
-0.067284644 -0.0076154759 0.66650003
-0.062222227 -0.0069815884 0.66666669
-0.057149768 -0.0069826199 0.66675007
-0.051863957 -0.0073425849 0.66642857
-0.047318101 -0.0068493336 0.66599995
-0.043231621 -0.0062118098 0.6656
-0.038043573 -0.005706429 0.66575003
-0.034200002 -0.0057000006 0.66500002
-0.0006333334 -0.0057000006 0.66500002
0.0019000001 -0.0057000006 0.66500002
-0.072209716 -0.0042024772 0.66860008
-0.06748572 -0.0038195248 0.66850007
-0.062440008 -0.003822858 0.66900009
-0.057342857 -0.003822858 0.66900009
-0.052118283 -0.0034405719 0.66900009
-0.047078509 -0.0028157826 0.66799998
-0.041972466 -0.0028600793 0.66775006
-0.037510615 -0.0025404084 0.66757143
-0.032889146 -0.0026640003 0.66666669
-0.028229605 -0.0020070637 0.66608334
-0.023237579 -0.0019016452 0.66600001
-0.017751906 -0.0016479049 0.66569996
-0.012684016 -0.0022633334 0.6659286
-0.0076200003 -0.0022648983 0.66671431
-0.0023547623 -0.0022631974 0.66578573
0.0025376193 -0.0025360712 0.66612494
0.0074831122 -0.0024086989 0.66593331
0.012420953 -0.0016470477 0.66539997
0.017821904 -0.0014786244 0.66566664
0.022389209 -0.0010558731 0.66533339
-0.04587429 0.00063714292 0.66900003
-0.043962859 0.00063714292 0.66900003
-0.035680003 0.00063714292 0.66900003
-0.028034287 0.00063714292 0.66900003
-0.022404073 0.0020269265 0.6686365
-0.017806906 0.0025454762 0.66775
-0.013644127 0.0023340744 0.66811121
-0.0057342863 0.00063714292 0.66900003
-0.0022755107 0.0011832655 0.66900009
0.0025485717 0.0016565716 0.66900009
0.0078521706 0.0014862434 0.66855556
0.012726508 0.0019103177 0.66816664
0.017603915 0.0014858203 0.66811109
0.022393018 0.002050794 0.66755563
-0.16627164 -0.032385524 0.67200005
-0.16264066 -0.031377465 0.67233336
-0.15755731 -0.031384923 0.67250001
-0.15275735 -0.031142099 0.6728
-0.14740169 -0.031404212 0.67291665
-0.142373 -0.031870835 0.67262506
-0.13754836 -0.031988811 0.67174995
-0.13227101 -0.031771746 0.67166662
-0.12766699 -0.031384923 0.67250001
-0.12254383 -0.031384923 0.67250001
-0.11761681 -0.031253852 0.67218184
-0.11286088 -0.031257924 0.67227268
-0.10736033 -0.030949946 0.6723333
-0.10214373 -0.031701509 0.67241663
-0.0973735 -0.031868719 0.67230779
-0.09217152 -0.03136532 0.67208332
-0.086847149 -0.031795718 0.67216671
-0.082128063 -0.03149065 0.6722728
-0.07756687 -0.031233529 0.67200005
-0.072905719 -0.031656906 0.67150003
-0.067638844 -0.031792488 0.67211109
-0.062828414 -0.03141572 0.67316663
-0.057779241 -0.031645905 0.67259997
-0.052271243 -0.031645905 0.67259997
-0.047306433 -0.031503413 0.67275
-0.042520575 -0.03112343 0.6724
-0.037505906 -0.030336766 0.67200005
-0.031026533 -0.031212382 0.67271435
-0.026933338 -0.030995559 0.67333335
-0.022822861 -0.030706944 0.67371428
-0.018109612 -0.031270131 0.67254543
-0.013720001 -0.030647239 0.67320007
-0.0038514286 -0.030169526 0.67400002
-0.17037144 -0.026800003 0.67000002
-0.16742638 -0.028223448 0.67000002
-0.16245906 -0.028459048 0.67000002
-0.15697142 -0.028714288 0.67000002
-0.15203597 -0.028746432 0.67075002
-0.14724597 -0.028427385 0.67075002
-0.14293334 -0.029352382 0.67000002
-0.13782857 -0.029990477 0.67000002
-0.13285145 -0.029480001 0.67000002
-0.12722494 -0.028296031 0.67016667
-0.1229343 -0.02846762 0.67020005
-0.11740953 -0.028714288 0.67000002
-0.11230477 -0.028714288 0.67000002
-0.1072 -0.028714288 0.67000002
-0.10188255 -0.029139686 0.67000002
-0.096636355 -0.0285227 0.67050004
-0.092995882 -0.027877463 0.67033339
-0.088330619 -0.029078916 0.67000002
-0.082952388 -0.029033333 0.67000002
-0.07784763 -0.028714288 0.67000002
-0.072742864 -0.029671431 0.67000002
-0.068276197 -0.029990477 0.67000002
-0.062556431 -0.028725002 0.67025006
-0.057556193 -0.029224763 0.67000002
-0.052961908 -0.029565081 0.67000002
-0.04725429 -0.02809762 0.67050004
-0.042267051 -0.027710477 0.67040002
-0.038285717 -0.028714288 0.67000002
-0.031266667 -0.028714288 0.67000002
-0.027128812 -0.028725002 0.67025006
-0.023436351 -0.028338891 0.67116666
-0.017467938 -0.028331747 0.671
-0.012713016 -0.02762709 0.67111117
-0.0073540481 -0.027031671 0.67174995
-0.0022444047 -0.028048215 0.67312503
0.0020648679 -0.02727757 0.67300004
0.0076992861 -0.026950244 0.67375004
0.013028043 -0.027125826 0.67277771
0.017695239 -0.027313909 0.67319995
0.022641091 -0.026673745 0.6737144
0.02535524 -0.025997145 0.67400002
-0.17043503 -0.022979287 0.67025
-0.16750839 -0.022795988 0.6702143
-0.16373526 -0.022588572 0.67000002
-0.013400001 -0.024885716 0.67000002
-0.0019142861 -0.024375239 0.67000002
0.002554127 -0.023621745 0.67033339
0.0078792609 -0.024063598 0.6707778
0.012678777 -0.024354698 0.67042857
0.01788 -0.024266191 0.67050004
0.022988573 -0.023627622 0.67050004
0.02618143 -0.02298905 0.67050004
-0.17010477 -0.017973334 0.67400002
-0.16762963 -0.018267222 0.67308325
-0.16282898 -0.017814226 0.67293328
-0.15750921 -0.017151257 0.67154551
-0.15223742 -0.016509525 0.67042863
-0.14750953 -0.016602382 0.67050004
-0.14293334 -0.016271431 0.67000002
-0.13883787 -0.016277384 0.67025006
-0.134 -0.015952382 0.67000002
-0.16111811 -0.014763811 0.67400002
-0.15745802 -0.01335931 0.67381811
-0.15271138 -0.013263153 0.67307687
-0.14745604 -0.013462066 0.67316663
-0.14239196 -0.01268667 0.67286664
-0.13746966 -0.01292959 0.67219996
-0.13266177 -0.012943518 0.67192298
-0.12771989 -0.012655496 0.6712001
-0.12271231 -0.012142303 0.67108339
-0.1180664 -0.011595919 0.67114288
-0.11190084 -0.011849632 0.67055553
-0.10860381 -0.011868573 0.67000002
-0.13800953 -0.0096285725 0.67400002
-0.13159049 -0.0093076201 0.67400002
-0.12645525 -0.0096285734 0.67400002
-0.12157678 -0.008473143 0.67399997
-0.117364 -0.0080794292 0.67339993
-0.11283605 -0.0083331745 0.67316669
-0.10734934 -0.0079528587 0.67207152
-0.10236911 -0.0071731228 0.67133337
-0.097171195 -0.0063916664 0.67125005
-0.09218239 -0.0065490478 0.671
-0.087804452 -0.0061796829 0.67133331
-0.082397468 -0.0057485718 0.67066669
-0.078525409 -0.0057457145 0.67033339
-0.10077906 -0.0044933334 0.67400002
-0.097569525 -0.0040653972 0.67400002
-0.092332155 -0.0038464288 0.67325002
-0.08709354 -0.003462286 0.67339993
-0.081889108 -0.0033207797 0.67318183
-0.077158108 -0.0025582544 0.67233336
-0.072862573 -0.0019166667 0.67110002
-0.067726314 -0.001277262 0.67087501
-0.062533341 -0.0012761906 0.67000002
-0.057449527 -0.0012764286 0.67025
-0.05255001 -0.0010636508 0.67016667
-0.047219053 -0.00063809525 0.67000002
-0.042752385 -0.00063809531 0.67000002
-0.07574477 0.00064190483 0.67400002
-0.07242763 0.0012828574 0.67300004
-0.067877501 0.0012817858 0.67237496
-0.062735409 0.0019225398 0.67216659
-0.057667818 0.0016670477 0.6728
-0.052455653 0.0022906126 0.67285717
-0.047737297 0.002711795 0.67246151
-0.042149909 0.0026926349 0.67259997
-0.037247349 0.0028317007 0.67100006
-0.032222383 0.0027400681 0.6709286
-0.027738381 0.0030688574 0.67110008
-0.024156004 0.0037072387 0.671
-0.011591294 0.0028307487 0.67085719
-0.0077912393 0.002683175 0.6705333
-0.0027658204 0.003616614 0.67011112
0.0025523813 0.0040412704 0.67000002
0.0073836744 0.0039197281 0.67000002
0.012761905 0.0044666668 0.67000002
0.018144354 0.0039206808 0.67014295
0.021072857 0.0038319051 0.67050004
-0.036845338 0.0060339053 0.67400002
-0.032095242 0.0062050801 0.67400002
-0.027235107 0.0066941506 0.67400008
-0.022883641 0.0069303899 0.67254543
-0.018118642 0.0074144234 0.67257136
-0.013293333 0.0065678577 0.67275
-0.0076950006 0.0064126197 0.67324996
-0.0025580954 0.0063957153 0.67149997
0.0025579764 0.0063946438 0.67137498
0.0077503715 0.0066136518 0.67188889
0.012793651 0.0070390478 0.67166674
0.017697463 0.0066113234 0.67166668
0.022113334 0.0060895244 0.67300004
-0.10346667 -0.040740002 0.67900002
-0.16607097 -0.036187146 0.67850006
-0.16269639 -0.036723383 0.67863637
-0.15768963 -0.036838021 0.67858332
-0.15248246 -0.036828972 0.67841667
-0.14746255 -0.036382332 0.67811114
-0.14313096 -0.035863813 0.6785
-0.13767304 -0.035549209 0.67866677
-0.13291952 -0.035488099 0.67750001
-0.12794572 -0.036187146 0.6785
-0.12268668 -0.036160953 0.67799997
-0.11756311 -0.036174051 0.67825001
-0.1120983 -0.035814863 0.67880005
-0.10702435 -0.036850482 0.67881817
-0.10258635 -0.037246987 0.67816663
-0.097480148 -0.036061093 0.67785722
-0.09294644 -0.03550119 0.67775005
-0.087731116 -0.035997786 0.67900002
-0.082583718 -0.036574762 0.6785
-0.077725299 -0.036387723 0.67822224
-0.072839849 -0.035989054 0.67883337
-0.067154288 -0.035514288 0.67800003
-0.061803501 -0.035962861 0.6783334
-0.057482701 -0.036169685 0.67816675
-0.052926909 -0.03550119 0.67775005
-0.049146667 -0.035566669 0.67900002
-0.041774672 -0.036084004 0.67900002
-0.037815716 -0.036523577 0.67874998
-0.032589663 -0.03609851 0.67857146
-0.027806668 -0.035566669 0.67900008
-0.02197881 -0.035553575 0.67875004
-0.017460002 -0.035566669 0.67900002
-0.014873334 -0.035566669 0.67900002
-0.1652143 -0.034071431 0.67500001
-0.16224001 -0.034121908 0.67600006
-0.15708953 -0.034121908 0.67600006
-0.15186416 -0.033676513 0.67566675
-0.14736032 -0.034105085 0.67566675
-0.14282 -0.034096669 0.67550004
-0.13762262 -0.034084052 0.67524999
-0.13242857 -0.034071431 0.67500001
-0.12747429 -0.034121908 0.67600006
-0.12223429 -0.034096669 0.67550004
-0.11704262 -0.034084052 0.67525005
-0.1119922 -0.033895053 0.67660004
-0.1081862 -0.033487462 0.67616671
-0.10360287 -0.034105085 0.67566675
-0.096428573 -0.034071431 0.67500001
-0.092706203 -0.034121908 0.676
-0.087923974 -0.033751905 0.6771667
-0.082410008 -0.034121908 0.67600006
-0.077103816 -0.033854671 0.67580003
-0.072131678 -0.03413453 0.67625004
-0.06753397 -0.034088258 0.67533338
-0.063116431 -0.034134526 0.67625004
-0.05794286 -0.034121908 0.67600006
-0.052772146 -0.034109287 0.67575008
-0.048014048 -0.033838335 0.67675
-0.041652005 -0.033657718 0.67700005
-0.0371955 -0.032979574 0.67654556
-0.032997038 -0.032858629 0.67644447
-0.02708512 -0.033535596 0.67712504
-0.022555877 -0.033512704 0.67666668
-0.017660191 -0.033905145 0.67680007
-0.012676509 -0.03258783 0.67677778
-0.0077376198 -0.031586669 0.67683339
-0.002320667 -0.031848479 0.67690009
0.0025822227 -0.031626031 0.67766678
0.0077447626 -0.031626347 0.67766666
0.012907779 -0.031626508 0.67766666
0.017658763 -0.031452667 0.67670012
0.021863813 -0.031472698 0.6774444
0.026435241 -0.030949524 0.67700005
-0.010928572 -0.028928574 0.67500001
-0.0083638094 -0.028628573 0.67550004
0.0040714289 -0.028500004 0.67500007
0.0077142864 -0.028928574 0.67500001
0.012214287 -0.028928574 0.67500007
0.019285716 -0.028928574 0.67500001
0.022500001 -0.028928574 0.67500007
0.02657143 -0.027642859 0.67500007
-0.17035715 -0.016071429 0.67500001
-0.16650002 -0.016071429 0.67500001
-0.17052542 -0.013512699 0.67566675
-0.16746733 -0.012880418 0.67631245
-0.16251329 -0.012522786 0.67569244
-0.15843558 -0.011791113 0.67533338
-0.15258287 -0.010944763 0.67600006
-0.14785716 -0.010928572 0.67500001
-0.13564287 -0.010928572 0.67500001
-0.17007335 -0.0071133338 0.67900002
-0.16787992 -0.0086583821 0.6785
-0.16274893 -0.0085160164 0.67836362
-0.15759352 -0.0083957165 0.67816675
-0.15233311 -0.0083897626 0.67775005
-0.14734858 -0.0082491431 0.67680007
-0.14257924 -0.0077722552 0.67660004
-0.13759075 -0.0077236746 0.676
-0.13287176 -0.0071888897 0.67616671
-0.12762272 -0.0072779497 0.67600006
-0.12293795 -0.0064357147 0.6758334
-0.11678573 -0.0057857148 0.67500007
-0.1125 -0.0057857148 0.67500007
-0.10928572 -0.0057857148 0.67500001
-0.10350001 -0.0057857148 0.67500001
-0.1368162 -0.0039723814 0.67900002
-0.13232613 -0.0036009531 0.67871433
-0.12823494 -0.0036637038 0.67888886
-0.12260866 -0.0033482257 0.67854548
-0.11735614 -0.0027090167 0.67780006
-0.11234388 -0.0025800597 0.67793745
-0.10734008 -0.0023923132 0.67721438
-0.10284975 -0.002623077 0.67592317
-0.097772583 -0.0016720003 0.67540008
-0.092640005 -0.0012861906 0.67550009
-0.087686352 -0.0010717462 0.67533338
-0.082671434 -0.00089999998 0.67500001
-0.079071432 -0.00064285717 0.67500001
-0.11575334 0.00064666668 0.67900002
-0.1067 0.00064666674 0.67900008
-0.10220163 0.0013853062 0.67857146
-0.097030751 0.0015700681 0.67857146
-0.09239497 0.0013851703 0.67842859
-0.087817386 0.0025842858 0.67799997
-0.082568042 0.0025825598 0.67731261
-0.077523679 0.0028563268 0.6767143
-0.072200127 0.0038689289 0.67687505
-0.067245856 0.0039565996 0.67614293
-0.06251239 0.0045111114 0.67666674
-0.057900481 0.0040747626 0.67550009
-0.053357147 0.0045000003 0.67500001
-0.04564286 0.0045000003 0.67500001
-0.091180004 0.0058200005 0.67900002
-0.088334672 0.0060786675 0.67900002
-0.084066674 0.0058200005 0.67900002
-0.076630011 0.0061433339 0.67900002
-0.072426677 0.0064666672 0.67899996
-0.067004874 0.0068228575 0.67866665
-0.061942115 0.007478164 0.6785
-0.057483342 0.0077520641 0.67816663
-0.052885301 0.0077420836 0.67718744
-0.047690179 0.0077367276 0.67668754
-0.042550065 0.0077400608 0.67693752
-0.037581563 0.0085031185 0.6771819
-0.032219809 0.0086360006 0.67660004
-0.027304493 0.0091017699 0.67571437
-0.022500001 0.0096428581 0.67500007
-0.016714286 0.0096428581 0.67500001
-0.012379286 0.0088428576 0.67525005
-0.0077200006 0.0090071438 0.67550009
-0.002577143 0.0090214293 0.67650008
0.002574286 0.009014287 0.67600012
0.0076314295 0.0091040833 0.67585725
0.012861667 0.0096464297 0.67525005
0.018275511 0.0090918373 0.67500007
0.02268667 0.0085276198 0.67575008
-0.057553336 0.010993334 0.67900002
-0.053026669 0.010993334 0.67900002
-0.047853336 0.010993334 0.67900002
-0.043326672 0.010993334 0.67900008
-0.035997782 0.011424446 0.67900008
-0.032065522 0.012024764 0.67879999
-0.027301667 0.011793572 0.6785
-0.02188918 0.012736797 0.67781824
-0.017770682 0.012710272 0.67678589
-0.013098233 0.012638777 0.67800015
-0.0078800013 0.012144001 0.67820001
-0.0024568576 0.012026383 0.67889994
0.0026294608 0.01280292 0.67893332
0.0077563268 0.012651294 0.67871439
0.013044764 0.012788384 0.67806673
0.017774491 0.012712451 0.67692858
0.021948254 0.012913335 0.67783344
0.017783334 0.016490001 0.67900002
0.021081336 0.016684001 0.67900002
-0.16481143 -0.046251431 0.68400002
-0.1667894 -0.042325448 0.68371433
-0.16274889 -0.04280261 0.68300009
-0.15746224 -0.041841488 0.68288893
-0.15199462 -0.041848361 0.68300009
-0.14744097 -0.041824289 0.68350005
-0.14226057 -0.041775927 0.6838572
-0.13779445 -0.041589804 0.6838572
-0.13276115 -0.041300576 0.68400002
-0.12769048 -0.041888576 0.68366665
-0.12267062 -0.041572656 0.68357152
-0.11660572 -0.041365717 0.68400002
-0.11220795 -0.041671433 0.68366671
-0.10787462 -0.041373976 0.68233341
-0.10147335 -0.040980004 0.68300003
-0.097042866 -0.041775923 0.6838572
-0.092401803 -0.042948093 0.68324995
-0.087372534 -0.042510703 0.68346161
-0.081971712 -0.042288285 0.6831001
-0.077643827 -0.04213962 0.68280005
-0.072888732 -0.042302385 0.6833334
-0.06771896 -0.04206429 0.68370003
-0.062503219 -0.041668933 0.68362504
-0.056998648 -0.041564088 0.68342865
-0.052360412 -0.041572656 0.68357152
-0.047531433 -0.041671433 0.68366671
-0.042940125 -0.041638695 0.68312508
-0.037981275 -0.041454289 0.68366671
-0.032565597 -0.041683935 0.68387502
-0.027349526 -0.041676432 0.68375003
-0.022241635 -0.041598372 0.68400007
-0.017323239 -0.041549146 0.68380004
-0.014541271 -0.041454293 0.68366671
-0.1660343 -0.038915239 0.68099999
-0.16255239 -0.039504763 0.68000001
-0.15801907 -0.039504763 0.68000001
-0.15283811 -0.039504763 0.68000001
-0.14744084 -0.038966261 0.68028569
-0.14253494 -0.03820572 0.68183339
-0.13771597 -0.038327862 0.68208337
-0.13275135 -0.038462169 0.68236369
-0.12755907 -0.039056469 0.68185729
-0.12260108 -0.0389225 0.68112499
-0.11745441 -0.038937028 0.68137497
-0.11293401 -0.03829553 0.68150002
-0.10821676 -0.03900991 0.68040007
-0.10091113 -0.039111748 0.68066669
-0.09756425 -0.038781382 0.68244451
-0.092131674 -0.038281195 0.68125004
-0.08719977 -0.038738813 0.68074995
-0.082765721 -0.038986668 0.68000001
-0.077436745 -0.038949661 0.68000001
-0.072316192 -0.038491815 0.68040001
-0.067517944 -0.038305081 0.68166661
-0.062429529 -0.038549148 0.68140006
-0.056885507 -0.038717885 0.68133336
-0.051974133 -0.038332857 0.68216676
-0.047291692 -0.03784667 0.6819092
-0.043242861 -0.038286325 0.6813637
-0.037313215 -0.038612265 0.68137503
-0.032259472 -0.038755983 0.68200004
-0.027126668 -0.038119491 0.68192309
-0.02208627 -0.038327862 0.68208337
-0.017549621 -0.038091145 0.68250006
-0.013055898 -0.037570186 0.68284625
-0.0079819933 -0.036955327 0.68290919
-0.0026031972 -0.037461568 0.68321437
0.0025438964 -0.036984246 0.68345463
0.0078663221 -0.036964852 0.68309098
0.012733879 -0.036341771 0.6831429
0.017562859 -0.035776194 0.68300003
0.020845715 -0.035828575 0.68400002
-0.044685718 -0.034323812 0.68000001
-0.011673334 -0.034374289 0.68099999
-0.0077828574 -0.034374289 0.68099999
-0.0026009528 -0.034450002 0.6825
0.0025947622 -0.034399528 0.68150008
0.0077766674 -0.03434905 0.68050003
0.012952382 -0.034323812 0.68000001
0.01750413 -0.034357466 0.68066669
0.02251651 -0.033993017 0.68200004
0.026354287 -0.033627432 0.68160003
-0.16780497 -0.0061081909 0.68240005
-0.16286479 -0.0061081909 0.68240005
-0.15712835 -0.0058435719 0.68175006
-0.15219049 -0.005828572 0.68000001
-0.14765716 -0.005828572 0.68000001
-0.16735597 -0.0034183334 0.68375003
-0.16281715 -0.003256032 0.68383336
-0.1574214 -0.0028814967 0.68342859
-0.15226714 -0.0026011907 0.68325001
-0.14728613 -0.0024145581 0.68300003
-0.14257191 -0.0027803401 0.68178582
-0.13778138 -0.0015128043 0.6813333
-0.13254604 -0.0010793651 0.68000001
-0.12737009 -0.0012035376 0.68085724
-0.12313858 -0.00097190484 0.68050003
-0.11980953 -0.00064761908 0.68000001
-0.15048002 0.00065142859 0.68400002
-0.14750205 0.0012097961 0.68400007
-0.14240229 0.00091200008 0.68400002
-0.13702573 0.00097666681 0.68350005
-0.13257316 0.0018348055 0.68327284
-0.12760067 0.00215348 0.68330777
-0.12221161 0.0026011309 0.68256247
-0.11745526 0.0029249208 0.68200004
-0.11288687 0.0024703497 0.68199998
-0.10788638 0.0030465205 0.68146157
-0.10235069 0.0035299477 0.68066669
-0.097304761 0.0037238097 0.67999995
-0.093087308 0.003672064 0.68033338
-0.12230267 0.0061217151 0.68380004
-0.1173007 0.0064187767 0.68371433
-0.11227784 0.0066048992 0.68371433
-0.10737573 0.0071593337 0.68330008
-0.10270511 0.0076812068 0.68339998
-0.097535722 0.0078045256 0.68275011
-0.092696778 0.0081555322 0.68284619
-0.087363735 0.0085780965 0.68318194
-0.082218163 0.0080762599 0.68207151
-0.077919625 0.0081836199 0.68180007
-0.072668344 0.0090835718 0.6812501
-0.067629933 0.0089741498 0.68000001
-0.062819049 0.0097142868 0.68000001
-0.10097144 0.011074287 0.68400002
-0.099668577 0.011074287 0.68400002
-0.091851436 0.011074288 0.68400002
-0.08664 0.011074288 0.68400002
-0.082470864 0.011334858 0.68400002
-0.0773561 0.012632667 0.68370003
-0.072668038 0.012732519 0.68300015
-0.067491144 0.012559562 0.68292314
-0.062384117 0.012999109 0.68231255
-0.057182271 0.013436486 0.68169236
-0.052124679 0.013756191 0.68181825
-0.04763953 0.013502191 0.68149996
-0.042695019 0.013434801 0.68161541
-0.037970994 0.013324104 0.68107694
-0.0328127 0.014463494 0.68000001
-0.027077621 0.014107144 0.68100005
-0.023553653 0.014478097 0.68066669
-0.011657143 0.014895239 0.68000001
-0.0075555556 0.01424762 0.68000001
-0.0028063494 0.014463494 0.68000001
0.0019428573 0.014895239 0.68000001
0.0077714296 0.014895239 0.68000001
0.011009525 0.014895239 0.68000001
-0.061885722 0.016285716 0.68400002
-0.057325721 0.016285716 0.68400002
-0.051452387 0.017026804 0.6838572
-0.047531117 0.017580636 0.68366671
-0.043190796 0.017146351 0.68366671
-0.037737302 0.01756778 0.68316668
-0.032507941 0.017554922 0.68266672
-0.027320003 0.017562859 0.68300003
-0.022090316 0.017542541 0.6821667
-0.017516719 0.017519047 0.6812222
-0.013050478 0.017423637 0.682091
-0.0077490057 0.01745013 0.68318194
-0.0026003176 0.017546827 0.68233341
0.0025934922 0.017508414 0.68083334
0.0077787316 0.017503811 0.68066669
0.012965079 0.017504126 0.68066669
0.017236194 0.018273907 0.68040007
0.02072381 0.018780954 0.68000001
-0.044948574 0.020194286 0.68400002
-0.035828575 0.020194286 0.68400002
-0.032571428 0.020194286 0.68400002
-0.027794287 0.020628572 0.68400002
-0.022132382 0.020179525 0.68350005
-0.017588574 0.020194288 0.68400002
-0.014331429 0.020194286 0.68400002
-0.0026057144 0.020194286 0.68400002
0.0026028573 0.020179525 0.68350005
0.0076756193 0.020425335 0.68300009
0.013009524 0.020164764 0.68300003
0.017553654 0.020154923 0.68266672
0.020815238 0.020164764 0.68300003
-0.16696143 -0.046490952 0.6875
-0.16194366 -0.046052225 0.6875
-0.15717037 -0.045842502 0.68762517
-0.1522958 -0.045961365 0.68800008
-0.14771684 -0.0456708 0.68833345
-0.14250179 -0.045755107 0.6877144
-0.1376 -0.045867622 0.68800008
-0.1323581 -0.045867622 0.68800008
-0.12736994 -0.045951433 0.68785727
-0.12280573 -0.045452069 0.68833339
-0.11745811 -0.045277145 0.68900001
-0.11237367 -0.045692705 0.6886667
-0.10904032 -0.0456708 0.68833339
-0.096872196 -0.046012003 0.6882
-0.092516512 -0.046914287 0.68733346
-0.087737821 -0.046489619 0.68750006
-0.082545362 -0.045859408 0.68787503
-0.077295624 -0.046248194 0.68780005
-0.072554179 -0.046187501 0.68787509
-0.067834839 -0.045755107 0.68771434
-0.062926427 -0.04588405 0.68825006
-0.057724051 -0.045916907 0.68875003
-0.052689392 -0.045764495 0.68785727
-0.047141433 -0.045178574 0.68750006
-0.041602477 -0.045539621 0.68900007
-0.037367303 -0.045889527 0.68833339
-0.032925956 -0.046031669 0.68800008
-0.027287938 -0.04562699 0.68766677
-0.022554694 -0.045764495 0.68785727
-0.018373333 -0.045277145 0.68900001
-0.16790667 -0.043773334 0.68600005
-0.16006668 -0.043773334 0.68600005
-0.1568 -0.043773334 0.68600005
-0.15353334 -0.043773334 0.68600005
-0.14700001 -0.043446671 0.68600005
-0.14242667 -0.043773334 0.68600005
-0.13680801 -0.043512002 0.68600005
-0.13219112 -0.043337785 0.68600005
-0.12674668 -0.043773334 0.68600005
-0.12213175 -0.043619372 0.68700004
-0.11788955 -0.042912114 0.68714297
-0.11253696 -0.043524768 0.68620008
-0.10713982 -0.043301336 0.68680006
-0.10200069 -0.043179464 0.6884287
-0.098265722 -0.043359052 0.68633342
-0.084280007 -0.043773334 0.68600005
-0.067946672 -0.043773334 0.68600005
-0.062742144 -0.043789286 0.68625003
-0.057952385 -0.043563049 0.68680006
-0.051905144 -0.043537527 0.68640012
-0.047056433 -0.04378929 0.68625009
-0.042508572 -0.043815877 0.68666673
-0.03767556 -0.043337785 0.68600005
-0.032666668 -0.043773334 0.68600005
-0.027440002 -0.043773334 0.68600005
-0.02208267 -0.043512005 0.68600005
-0.017398477 -0.043563049 0.68680006
-0.012429049 -0.042301431 0.68683338
-0.0078636911 -0.041943692 0.68812501
-0.0026198812 -0.041913688 0.68762505
0.0026205953 -0.041913211 0.68762505
0.0072085722 -0.041608095 0.68800008
0.012467621 -0.040027626 0.68900001
0.021654289 -0.040027626 0.68900001
-0.01176 -0.039853334 0.68600005
-0.0074480004 -0.039592002 0.68600005
-0.0026133335 -0.039853334 0.68600005
0.0027440002 -0.039592002 0.68600005
0.0077121914 -0.039603621 0.68620008
0.012413334 -0.038546674 0.68600005
0.017009407 -0.037942264 0.68687499
0.022501525 -0.037545905 0.68680012
0.026070669 -0.037077527 0.68780005
-0.16738401 -0.0009146668 0.68600005
-0.16202669 -0.00065333338 0.68600005
-0.15745334 -0.00065333338 0.68600005
-0.16771618 0.0021680589 0.68769246
-0.16254629 0.0017053335 0.68820012
-0.15707844 0.0022055414 0.68800008
-0.1528312 0.0026205559 0.68725008
-0.14755483 0.0037057144 0.68655556
-0.14236176 0.003388745 0.68654555
-0.13758172 0.0035316192 0.68660003
-0.13202216 0.0045750001 0.68625003
-0.12674668 0.0045733335 0.68600005
-0.15125191 0.0062338095 0.68900001
-0.14698666 0.0065619051 0.68900007
-0.1422562 0.0065561915 0.68833339
-0.1376 0.0065533342 0.68800008
-0.13198078 0.006940763 0.68740004
-0.12784676 0.0074682864 0.68770021
-0.12243858 0.0075304769 0.6875
-0.11733689 0.0088974154 0.68828589
-0.11245524 0.0091538103 0.68650001
-0.10780001 0.009473335 0.68600005
-0.11614572 0.01181143 0.68900001
-0.11306249 0.012198668 0.68860006
-0.10729638 0.012185334 0.68780005
-0.10262689 0.012729947 0.68733341
-0.097778283 0.012436762 0.68720007
-0.09309534 0.012864234 0.68677789
-0.087864235 0.012864234 0.68677789
-0.08205729 0.013162858 0.68614298
-0.095803812 0.015092382 0.68900001
-0.092478096 0.01574127 0.6886667
-0.087800756 0.015957566 0.68855566
-0.082560003 0.015726667 0.68800008
-0.077290252 0.016704524 0.68775004
-0.072270691 0.016813757 0.68777782
-0.06776762 0.01702635 0.6875
-0.062968582 0.018084763 0.68633348
-0.057535242 0.018307146 0.68650007
-0.053197145 0.018429527 0.68620008
-0.04246667 0.018946668 0.68600005
-0.012413334 0.018946668 0.68600005
-0.0084933341 0.018946668 0.68600005
-0.073493332 0.020341907 0.68900001
-0.066275239 0.020341907 0.68900001
-0.062950008 0.020327145 0.68850005
-0.057744764 0.020341907 0.68900001
-0.05199657 0.020563049 0.68760008
-0.047167502 0.021292977 0.68787509
-0.042107623 0.021978965 0.68790925
-0.037814289 0.022207547 0.68730778
-0.032713655 0.022901591 0.68700004
-0.027451539 0.023083704 0.68811119
-0.022264954 0.02265981 0.68760008
-0.017024288 0.022918573 0.68750012
-0.012319222 0.022438355 0.68736362
-0.0078511322 0.022245659 0.68693757
-0.0026170751 0.022530412 0.6870715
0.002617619 0.022901591 0.68699998
0.0079150656 0.023032987 0.68736368
0.012437461 0.022913018 0.68733335
0.017019683 0.02291302 0.68733335
0.021176508 0.022705397 0.68766677
-0.040027622 0.025591429 0.68900001
-0.037402861 0.025591429 0.68900001
-0.034071431 0.025554288 0.68800002
-0.015092382 0.025591429 0.68900001
-0.013780001 0.025591429 0.68900001
-0.0080930172 0.025591429 0.68900001
0.0019685715 0.025591429 0.68900001
-0.16589905 -0.050893337 0.69400001
-0.16237399 -0.050893337 0.69400001
-0.15928954 -0.050893337 0.69400001
-0.15069714 -0.050893337 0.69400001
-0.14739239 -0.050893337 0.69400001
-0.14276573 -0.051333975 0.69400001
-0.13787469 -0.05115772 0.69400001
-0.1321905 -0.050893337 0.69400001
-0.12756382 -0.050893337 0.69400001
-0.12293716 -0.050893337 0.69400001
-0.11764953 -0.050893337 0.69400001
-0.11232215 -0.050875004 0.69375002
-0.1083962 -0.050893337 0.69400001
-0.10244763 -0.050893337 0.69400001
-0.097786427 -0.050875004 0.69375002
-0.09250024 -0.050875004 0.69375002
-0.08721406 -0.050875004 0.69375002
-0.082619056 -0.050893337 0.69400001
-0.077709123 -0.051459871 0.69400001
-0.073696196 -0.051223814 0.69400001
-0.068078101 -0.050893337 0.69400001
-0.062107861 -0.050875004 0.69375002
-0.057418101 -0.050820004 0.69300002
-0.05485905 -0.050893337 0.69400001
-0.04095 -0.050856672 0.69350004
-0.036986195 -0.051517628 0.69350004
-0.033035003 -0.050875004 0.69375002
-0.029742859 -0.050893337 0.69400001
-0.022472382 -0.050893337 0.69400001
-0.017845716 -0.050893337 0.69400001
-0.16266572 -0.048735715 0.69150001
-0.15742514 -0.048744645 0.691625
-0.15229335 -0.048788574 0.69225001
-0.14731176 -0.04822794 0.69155556
-0.14260614 -0.048855107 0.69185722
-0.1378137 -0.048797503 0.692375
-0.13251548 -0.048788574 0.69225001
-0.12738845 -0.048606124 0.6910001
-0.12224259 -0.048168834 0.69109094
-0.11716904 -0.048054129 0.69116664
-0.11267498 -0.048397966 0.69071442
-0.10741776 -0.047879938 0.6913572
-0.10262877 -0.047299381 0.69166672
-0.097957253 -0.048358306 0.69133335
-0.092661344 -0.049165718 0.69200009
-0.086761154 -0.049108576 0.69120002
-0.082671441 -0.048626535 0.69128579
-0.077729851 -0.048966672 0.69166678
-0.072167493 -0.0488347 0.69157147
-0.067222863 -0.04877143 0.69200003
-0.062594764 -0.048759531 0.69183338
-0.057890717 -0.048682146 0.69075
-0.05275375 -0.04824055 0.69114292
-0.047239691 -0.04768011 0.69211119
-0.042326063 -0.048194289 0.69145459
-0.037484288 -0.048664287 0.69050002
-0.032751668 -0.048553575 0.69125003
-0.027791336 -0.048341431 0.69150007
-0.022191852 -0.048559684 0.69211119
-0.016943133 -0.04772694 0.69185716
-0.012660572 -0.047085531 0.69240004
-0.008098443 -0.046729274 0.69281822
-0.0030790479 -0.045980319 0.69300002
0.0030788891 -0.045969687 0.69283336
0.007907779 -0.046793967 0.69200003
0.012530583 -0.046823494 0.69244444
0.01690905 -0.046629626 0.69350004
0.022373201 -0.046162862 0.69385725
-0.10580001 -0.044028573 0.69000006
-0.10448572 -0.044028573 0.69000006
-0.011828572 -0.044028573 0.69000006
-0.0078892866 -0.044044524 0.69025004
-0.0026323809 -0.044092383 0.69100004
0.002632143 -0.044076432 0.69075
0.0082153575 -0.043215122 0.69012505
0.012495768 -0.042749319 0.69055557
0.017106371 -0.042107806 0.69081259
0.022522129 -0.042565651 0.69084626
0.025989527 -0.042614289 0.69260001
-0.17020001 0.0046000001 0.69000006
-0.1669143 0.0046000001 0.69000006
-0.16297144 0.004161905 0.69000006
-0.15870002 0.004271429 0.69000006
-0.17069334 0.0072514294 0.69200003
-0.16762236 0.0071333339 0.69218189
-0.16237774 0.0069251196 0.69237506
-0.15728836 0.0069552385 0.69166666
-0.15285373 0.0083043799 0.69180006
-0.14754774 0.009222501 0.691625
-0.14237186 0.009303811 0.6907143
-0.13774709 0.0091081634 0.69014293
-0.13318098 0.0094190482 0.69000006
-0.12650001 0.0095285727 0.69000006
-0.12251021 0.0092938794 0.69000012
-0.15069714 0.011236191 0.69400001
-0.14735731 0.011894445 0.69383335
-0.14229678 0.012277144 0.69300002
-0.13755658 0.012662667 0.69240004
-0.13275662 0.012385023 0.69100004
-0.12772985 0.012510794 0.69133341
-0.12265738 0.012531191 0.69241667
-0.11812695 0.012687486 0.69071442
-0.11171429 0.013800001 0.69000006
-0.10842858 0.013800001 0.69000006
-0.13549525 0.015201906 0.69400001
-0.1321905 0.015201906 0.69400001
-0.1275638 0.015862858 0.69400001
-0.12244143 0.016028095 0.69400001
-0.11768083 0.017039178 0.69340008
-0.11232064 0.017292574 0.69293338
-0.10735112 0.017198481 0.69266665
-0.10265552 0.016970342 0.69285715
-0.097698443 0.017414084 0.69178575
-0.092017032 0.018403454 0.69012505
-0.087400012 0.018531431 0.69000006
-0.082800001 0.0184 0.69000006
-0.077761911 0.019057143 0.69000006
-0.072285712 0.019057143 0.69000006
-0.10641335 0.020489525 0.69400001
-0.10244763 0.020489525 0.69400001
-0.097136989 0.021145558 0.69383335
-0.092425548 0.022448035 0.69318753
-0.087226689 0.022568127 0.6928001
-0.082656719 0.02227854 0.69261545
-0.077810362 0.022422502 0.69237506
-0.072307363 0.022692656 0.69200009
-0.067341499 0.022668712 0.69128573
-0.062318575 0.023190003 0.69170004
-0.057784948 0.0229368 0.69163638
-0.052772038 0.023128919 0.69027281
-0.047595926 0.023751022 0.69000012
-0.04271429 0.02431429 0.69000006
-0.025628572 0.024314288 0.69000006
-0.022342859 0.024314288 0.69000006
0.021685716 0.024314288 0.69000006
-0.0819581 0.025777144 0.69400001
-0.077595815 0.026041526 0.69400001
-0.072644681 0.026978876 0.69400007
-0.067417152 0.026438097 0.69400001
-0.062129531 0.025777144 0.69400001
-0.057502862 0.025777144 0.69400001
-0.052622993 0.027444221 0.69314295
-0.047641546 0.027247256 0.6925385
-0.042320613 0.027117666 0.69136369
-0.037517432 0.028040862 0.69110006
-0.032763813 0.027965175 0.69200003
-0.027667562 0.02767018 0.69168752
-0.022418037 0.027695898 0.69231254
-0.01725778 0.027798481 0.69160008
-0.01238762 0.027829006 0.69118184
-0.0078492323 0.028107105 0.69123077
-0.0026345833 0.027670659 0.69168758
0.0026776511 0.027795369 0.69153345
0.0078980355 0.027644822 0.69106257
0.012498811 0.027631354 0.69075006
0.017098097 0.027620953 0.69050002
0.021441717 0.027888 0.69060004
-0.050893337 0.031064764 0.69400001
-0.036339287 0.031714525 0.69375002
-0.033035003 0.031053573 0.69375002
-0.027760003 0.031725716 0.69400001
-0.023794288 0.031064764 0.69400001
-0.015862858 0.031064764 0.69400001
-0.012888572 0.031395242 0.69400001
-0.007931429 0.031064764 0.69400001
0.0033025402 0.031049844 0.6936667
0.0082093887 0.031612113 0.69357145
0.012549048 0.031703338 0.69349998
0.017172383 0.031703334 0.69349998
0.021795718 0.031703334 0.69350004
-0.16607097 -0.055135719 0.69749999
-0.16286668 -0.055175241 0.69800007
-0.15621907 -0.055175241 0.69800001
-0.15289524 -0.055175241 0.69800001
-0.14752406 -0.055155478 0.69775003
-0.14225905 -0.055175241 0.69800001
-0.13722153 -0.055659622 0.69740003
-0.13270536 -0.055393722 0.69740003
-0.12829906 -0.055175241 0.69800007
-0.092401914 -0.055175241 0.69800007
-0.087748572 -0.055175241 0.69800001
-0.082430482 -0.055175241 0.69800001
-0.077112384 -0.055175241 0.69800001
-0.071794286 -0.055175241 0.69800001
-0.068470478 -0.055175241 0.69800001
-0.036561906 -0.055175241 0.69800007
-0.032573335 -0.055175241 0.69800007
-0.021937145 -0.055175241 0.69800007
-0.017948573 -0.055175241 0.69800001
-0.16540715 -0.053143337 0.69749999
-0.16243729 -0.052930601 0.69687504
-0.15747592 -0.052405048 0.69650006
-0.15263449 -0.052601527 0.69560009
-0.14774698 -0.053003818 0.69566673
-0.14303908 -0.053198736 0.69533342
-0.13739252 -0.053046945 0.69500011
-0.1325231 -0.053010244 0.69575006
-0.12706783 -0.052817464 0.69611114
-0.12219655 -0.052892506 0.69637501
-0.11738727 -0.053058453 0.69637501
-0.1124241 -0.052945994 0.69614297
-0.10722524 -0.052685238 0.69670004
-0.10250251 -0.052911792 0.69662505
-0.097491078 -0.053058453 0.69637507
-0.092535391 -0.05294545 0.69614297
-0.08746548 -0.053010244 0.69575006
-0.082194291 -0.05302953 0.69600004
-0.077442862 -0.053614289 0.69500005
-0.072365008 -0.052825481 0.69550008
-0.067542091 -0.052480955 0.6959092
-0.062781908 -0.052833971 0.69633341
-0.056963336 -0.052328099 0.69550002
-0.052452862 -0.051790323 0.69716668
-0.047906246 -0.052040424 0.69755554
-0.042530481 -0.052556507 0.69655555
-0.037581719 -0.053519245 0.6972
-0.032480005 -0.05302953 0.69600004
-0.0275901 -0.052397337 0.69640005
-0.02254124 -0.052639719 0.69610006
-0.017173856 -0.05248763 0.6960001
-0.013057302 -0.05201159 0.69716668
-0.0079771429 -0.05118667 0.69800001
-0.0022600002 -0.051437911 0.69780004
0.0026578575 -0.051168334 0.69774997
0.0079714293 -0.051150002 0.69749999
0.011957619 -0.051150002 0.69749999
-0.051628575 -0.049642861 0.69500005
-0.048319053 -0.049642861 0.69500005
-0.011930477 -0.04971429 0.69600004
-0.0075640008 -0.049492385 0.69660008
-0.0023869523 -0.048675913 0.69630009
0.0023861907 -0.048662003 0.69610006
0.0079523819 -0.04971429 0.6960001
0.01260159 -0.049738102 0.69633341
0.017696669 -0.04933254 0.69683337
0.022621483 -0.048855554 0.69633341
0.026495241 -0.047692858 0.69550014
-0.17077145 0.009928572 0.69500005
-0.1667625 0.0096695246 0.69540006
-0.1626851 0.0092714289 0.69533342
-0.15797462 0.009487303 0.69500011
-0.17047668 0.011941429 0.69650006
-0.16778445 0.011273971 0.69633341
-0.16269025 0.011953572 0.69725001
-0.15761136 0.012482381 0.69710004
-0.15263486 0.012852954 0.69560009
-0.14760478 0.013900001 0.69500005
-0.14429525 0.013900001 0.69500005
-0.15621907 0.015289525 0.69800001
-0.15231535 0.016112024 0.69762504
-0.14748849 0.016710997 0.69672728
-0.14224668 0.016794067 0.69669235
-0.13765787 0.01725135 0.69658339
-0.13295124 0.017648954 0.69660008
-0.12715875 0.017456986 0.69600004
-0.12271714 0.018665716 0.69500011
-0.11583334 0.01919524 0.69500005
-0.12690954 0.020597778 0.69766665
-0.12197334 0.021103621 0.69680005
-0.11761643 0.021401668 0.69675004
-0.11222296 0.021591853 0.69633341
-0.10779207 0.02235651 0.69722223
-0.10218573 0.023094079 0.69722223
-0.097961903 0.023166668 0.69500011
-0.096279629 0.027225524 0.6972
-0.09310355 0.026426261 0.69614297
-0.08746358 0.025842145 0.69575012
-0.081999622 0.027998477 0.69660008
-0.077678695 0.028654169 0.69562513
-0.072941914 0.029520957 0.69500011
-0.067514293 0.029123811 0.69500011
-0.062292378 0.028497301 0.69583338
-0.057622544 0.028480954 0.69544452
-0.054276194 0.029785717 0.69500005
-0.046995245 0.029785719 0.69500005
-0.042361908 0.029785717 0.69500005
-0.077057622 0.031221431 0.69749999
-0.071538731 0.031672068 0.69766665
-0.068035111 0.031788033 0.69742858
-0.062336195 0.031500764 0.69779998
-0.057050269 0.032400321 0.69744444
-0.052840848 0.032502647 0.69644451
-0.047765635 0.032508973 0.69658339
-0.04249334 0.032535244 0.69716668
-0.037784219 0.033048712 0.69600016
-0.032449529 0.033111431 0.69533342
-0.027800003 0.033757146 0.69500005
-0.022245906 0.03270781 0.69520015
-0.017494097 0.032736953 0.69580007
-0.012325143 0.033266481 0.69580013
-0.0079542855 0.033143811 0.69600004
-0.0026501589 0.032465719 0.69566679
0.0024291007 0.032917358 0.695889
0.0075457147 0.033492386 0.69500011
0.012576192 0.033757146 0.69500005
0.017209526 0.033757146 0.69500005
0.021842858 0.033757146 0.69500005
-0.031908572 0.035232384 0.69800001
-0.027909525 0.035884526 0.69774997
-0.024596192 0.036561906 0.69800001
-0.013960001 0.035232384 0.69800001
0.0019942857 0.035232384 0.69800001
0.0086419052 0.035232387 0.69800007
0.012630477 0.035232387 0.69800007
0.01728381 0.035232384 0.69800001
0.022269525 0.035564762 0.69800001
-0.16600001 -0.060666669 0.70000005
-0.16242118 -0.061532069 0.70311111
-0.15756193 -0.061013337 0.70400012
-0.12806097 -0.061013337 0.70400006
-0.11196953 -0.061683815 0.70400012
-0.106977 -0.061416991 0.70350003
-0.10258286 -0.061013337 0.70400012
-0.097543009 -0.061550893 0.7035715
-0.09201318 -0.061416991 0.70350003
-0.089173339 -0.061013337 0.70400006
-0.083139054 -0.061013337 0.70400006
-0.079116195 -0.061013337 0.70400006
-0.066377148 -0.061013337 0.70400012
-0.063024767 -0.061013337 0.70400006
-0.027489526 -0.061013337 0.70400012
-0.16615812 -0.058055878 0.70066667
-0.16246729 -0.057970829 0.70078588
-0.1576436 -0.05758382 0.70115399
-0.15236193 -0.058140635 0.70166677
-0.14742316 -0.058276862 0.70170003
-0.14276165 -0.057993684 0.70136368
-0.13764685 -0.058401909 0.70160002
-0.13228226 -0.058274627 0.70181829
-0.12712406 -0.058050089 0.70191669
-0.12251398 -0.057361212 0.70193338
-0.11750123 -0.056715935 0.70209104
-0.11223125 -0.057453509 0.70143753
-0.10747423 -0.057409599 0.70091671
-0.10288595 -0.057458334 0.70150006
-0.097429477 -0.057390891 0.70068753
-0.092277408 -0.058182172 0.7007274
-0.08753594 -0.058138188 0.70163649
-0.082645111 -0.057993345 0.70136368
-0.077735938 -0.058046408 0.70200002
-0.072051696 -0.057339486 0.70227283
-0.067352727 -0.057637237 0.70145464
-0.062821671 -0.057479285 0.7017501
-0.057770479 -0.057294015 0.70300013
-0.05207029 -0.057425339 0.70273346
-0.047474049 -0.057507068 0.70208335
-0.042765003 -0.057469409 0.70162511
-0.037668258 -0.057285402 0.70211112
-0.032186031 -0.057758305 0.70244449
-0.027604688 -0.057321321 0.70169234
-0.023081748 -0.057875078 0.7025001
-0.017331084 -0.056981999 0.70236367
-0.012322478 -0.056658674 0.70320004
-0.0073700002 -0.056280162 0.70350003
-0.0026814288 -0.056300238 0.70375001
0.0026816668 -0.055629767 0.70375001
0.0070378575 -0.055965006 0.70375001
0.011062858 -0.055984765 0.70400006
-0.061333336 -0.054000005 0.70000005
-0.057415243 -0.054077145 0.70100003
-0.052019291 -0.054019291 0.70025003
-0.046666671 -0.054000005 0.70000005
-0.04466667 -0.054000005 0.70000005
-0.028666668 -0.054000005 0.70000005
-0.011072763 -0.053497523 0.70040005
-0.0073414296 -0.053397622 0.70083332
-0.002958776 -0.053527486 0.70128578
0.0026685717 -0.053371906 0.70050001
0.0073461914 -0.053423338 0.70116675
0.012255979 -0.053255983 0.70188892
0.017579222 -0.052738532 0.70254552
0.022719685 -0.052793972 0.70166671
0.026717462 -0.052768897 0.7013334
-0.170607 0.013568889 0.70066679
-0.16741335 0.01334 0.70033348
-0.16266668 0.014000001 0.70000005
-0.17127572 0.016725238 0.70250005
-0.16749524 0.016977904 0.70180005
-0.16262251 0.017365836 0.70125008
-0.15747115 0.017497513 0.70038468
-0.15251747 0.018898096 0.70033336
-0.14733335 0.019333337 0.70000005
-0.14333335 0.019333337 0.70000005
-0.13133334 0.019333337 0.70000005
-0.16238096 0.021285716 0.70280004
-0.15698615 0.021473473 0.70142865
-0.15249351 0.021943033 0.70200008
-0.14699006 0.022461561 0.70300007
-0.1426428 0.022583738 0.70215398
-0.13762714 0.022717619 0.70150006
-0.13225967 0.022713451 0.70137507
-0.12745461 0.023356192 0.70066673
-0.12300344 0.023614099 0.70040005
-0.11722989 0.023846548 0.70037508
-0.1124322 0.02440705 0.70020002
-0.10733335 0.024666671 0.70000005
-0.104 0.024666669 0.70000005
-0.14237525 0.026465241 0.70350003
-0.13790476 0.026401907 0.70360005
-0.13270739 0.026139287 0.70375001
-0.12733017 0.026583178 0.70366669
-0.12185536 0.027319895 0.70344448
-0.11726896 0.027277524 0.70200008
-0.11216001 0.027372386 0.70100015
-0.10752033 0.027381483 0.7012223
-0.10277691 0.027363099 0.70075011
-0.098884769 0.027624194 0.70060003
-0.092333332 0.028333334 0.70000005
-0.088000007 0.028000001 0.70000005
-0.084666669 0.028666668 0.70000005
-0.11680366 0.031043654 0.70350003
-0.11254708 0.031487226 0.70341676
-0.10739789 0.031036824 0.70333338
-0.10234033 0.03077016 0.70233339
-0.097288981 0.031540398 0.70208347
-0.092247143 0.03208774 0.70187515
-0.087328881 0.032229669 0.70161551
-0.082863152 0.032212015 0.70123088
-0.077488571 0.03300057 0.70139998
-0.072711706 0.033258643 0.70042861
-0.067023575 0.033678811 0.70025003
-0.062813073 0.033456329 0.70057148
-0.058666669 0.034000002 0.70000005
-0.087832384 0.035535239 0.70400006
-0.072731435 0.035763051 0.70320004
-0.067047626 0.035535239 0.70400006
-0.062354293 0.03620572 0.70400012
-0.057393953 0.037212051 0.70307153
-0.052168176 0.036786593 0.70225012
-0.047468405 0.037260264 0.70200008
-0.042784467 0.037439469 0.70193756
-0.037426788 0.037429165 0.7017501
-0.032604672 0.037949439 0.70127273
-0.027731022 0.038595513 0.70042866
-0.022562414 0.03742934 0.70093334
-0.017362919 0.037398867 0.70118755
-0.011892953 0.037554543 0.70160013
-0.0073516667 0.037429288 0.70175004
-0.0026732145 0.037422501 0.70162505
0.0027152386 0.037529591 0.70113337
0.0072125718 0.037800189 0.70119995
0.012016509 0.038055558 0.70100009
0.017353812 0.038046192 0.70083344
0.021844644 0.0381875 0.70037508
-0.036876194 0.040899049 0.70400012
-0.032148812 0.040855478 0.70325005
-0.027232859 0.041744612 0.70316672
-0.023079569 0.042202685 0.70336372
-0.017426191 0.041554999 0.70375007
-0.012512224 0.041336354 0.70383334
-0.0071070488 0.041435432 0.70400006
-0.00245754 0.042327069 0.70358342
0.0025245422 0.042400438 0.7032308
0.007371746 0.042220637 0.70366675
0.011837461 0.041767195 0.70355558
0.017635662 0.041747618 0.70322227
0.022068998 0.042135242 0.70222223
-0.15576001 -0.065405719 0.708
-0.15036573 -0.065405719 0.708
-0.14227429 -0.065405719 0.708
-0.095074289 -0.065405719 0.708
-0.069451436 -0.065405719 0.708
-0.053268574 -0.065405719 0.708
-0.16234922 -0.063996837 0.70733333
-0.15716317 -0.063001066 0.7062223
-0.15242563 -0.062694386 0.70629996
-0.14777802 -0.062427018 0.70618182
-0.14267938 -0.062592387 0.70666665
-0.13748124 -0.06196858 0.70614284
-0.13248108 -0.062039651 0.70612496
-0.12737842 -0.062682547 0.70600009
-0.12243113 -0.062562853 0.70633334
-0.11746364 -0.062703431 0.70640004
