# .PCD v0.7 - Point Cloud Data file format
VERSION 0.7
FIELDS x y z
SIZE 4 4 4
TYPE F F F
COUNT 1 1 1
WIDTH 1328
HEIGHT 1
VIEWPOINT 0 0 0 1 0 0 0
POINTS 1328
DATA ascii
-0.057546016 0.022314824 0.61656249
-0.052826367 0.02230506 0.61631256
-0.047571294 0.022317478 0.61664999
-0.04218483 0.022263991 0.61518747
-0.038071431 0.022973018 0.61500001
-0.034557145 0.024014287 0.61500001
-0.065437146 0.025349526 0.61900002
-0.062489532 0.025349526 0.61900002
-0.057808049 0.026121905 0.61866665
-0.052735437 0.026015623 0.61800003
-0.046653654 0.026239049 0.61833334
-0.042228006 0.026938479 0.61753339
-0.037626132 0.027046725 0.61731249
-0.032737367 0.027138937 0.61705887
-0.029920002 0.026401272 0.61600006
-0.032423813 0.030065717 0.61900002
-0.042194288 0.0089142863 0.62400001
-0.037043814 0.0087161912 0.62400007
-0.032085355 0.0083182147 0.62387502
-0.028502859 0.0083128577 0.62349999
-0.1004343 0.014857144 0.62400001
-0.098057151 0.014857144 0.62400001
-0.086171433 0.014857144 0.62400001
-0.081055239 0.014548097 0.62349999
-0.07717941 0.014247978 0.62337506
-0.07247863 0.014046456 0.62322229
-0.067301907 0.013653593 0.62336373
-0.063104704 0.01316491 0.62192315
-0.056737151 0.012420075 0.621077
-0.052269533 0.013125324 0.62158829
-0.047668006 0.013364002 0.62099999
-0.042610224 0.011148401 0.62218189
-0.037419718 0.010774572 0.62169999
-0.032312829 0.011479176 0.62140006
-0.028129255 0.011402178 0.62085718
-0.1019578 0.017922604 0.62313336
-0.097257927 0.017789824 0.62268752
-0.092470862 0.017923048 0.62320006
-0.087674364 0.018059528 0.62321436
-0.082935125 0.017769642 0.62200004
-0.077538796 0.017032817 0.62063634
-0.072876312 0.016887093 0.62100005
-0.068310484 0.016263811 0.62100005
-0.10102858 0.020800002 0.62400001
-0.097519241 0.021024382 0.62360001
-0.092411436 0.021974862 0.62360007
-0.087770239 0.022448068 0.62353337
-0.08277078 0.022528395 0.62243754
-0.077934906 0.022828054 0.62036365
-0.074990481 0.024209525 0.62
-0.093302861 0.025554288 0.62400001
-0.087756202 0.025950477 0.62400001
-0.081417143 0.02555429 0.62400001
-0.07701505 0.025988763 0.62299997
-0.072397232 0.026472941 0.62225002
-0.067586742 0.02727313 0.62250006
-0.062734216 0.027817538 0.62141675
-0.05783565 0.028453881 0.62057143
-0.052214291 0.028234098 0.62019998
-0.047828577 0.028258506 0.62
-0.044285718 0.028933335 0.62
-0.067154288 0.030308573 0.62400001
-0.06294477 0.030284287 0.62350005
-0.057516005 0.030240571 0.62260008
-0.052192621 0.03024786 0.62275004
-0.047347553 0.031642199 0.62323087
-0.042884838 0.031783879 0.62292862
-0.037589211 0.031900067 0.62253338
-0.032442417 0.032366477 0.62239999
-0.028822858 0.032685716 0.62400001
-0.031893335 0.035062861 0.62400001
-0.061701909 0.0041933334 0.62900001
-0.055711433 0.0041933334 0.62900001
-0.052716196 0.0041933334 0.62900001
-0.048272382 0.0037895243 0.62833333
-0.042505335 0.0041906671 0.62860006
-0.037740003 0.0041933334 0.62900007
-0.03050286 0.004186667 0.62800002
-0.027907049 0.0032339052 0.62879997
-0.091055244 0.0083866678 0.62900001
-0.087574117 0.0078915162 0.62863648
-0.082646191 0.0085839694 0.62883335
-0.077855088 0.0085839694 0.62883335
-0.073025726 0.0083795246 0.62850004
-0.067391507 0.0078574847 0.62778586
-0.062180206 0.0074298652 0.6277858
-0.057405837 0.0071741678 0.62787497
-0.052544225 0.0071625598 0.62693757
-0.04774322 0.0071590487 0.62662494
-0.042869665 0.0066458518 0.6264286
-0.037572972 0.0065586083 0.62623078
-0.032239642 0.0059684534 0.62687504
-0.02884762 0.0061657149 0.62666667
-0.11584477 0.014330477 0.62700003
-0.11248802 0.014224193 0.62760001
-0.10773137 0.013280319 0.62820017
-0.10288293 0.013021969 0.62733346
-0.09746135 0.013090416 0.62680006
-0.092265859 0.012585125 0.62657148
-0.087257482 0.012522238 0.62624997
-0.082530841 0.012000596 0.62625009
-0.077556439 0.011333097 0.62641668
-0.072680868 0.01121801 0.62599999
-0.068344668 0.011048573 0.62522221
-0.062077861 0.010569526 0.62524998
-0.057485245 0.010424762 0.62550002
-0.052380957 0.010119048 0.625
-0.047874156 0.010629253 0.625
-0.11646827 0.018253971 0.625
-0.11257114 0.017868096 0.62540007
-0.1072075 0.017867144 0.62537503
-0.10416667 0.016071429 0.625
-0.094642863 0.016071429 0.625
-0.089285716 0.016071429 0.625
-0.1159516 0.022276986 0.62650007
-0.11235402 0.022571824 0.6265294
-0.10727144 0.022647854 0.62574995
-0.10265654 0.022898709 0.6256429
-0.097635671 0.023340087 0.62545455
-0.093304448 0.023623813 0.62533337
-0.089880958 0.024404764 0.625
-0.083928578 0.024404764 0.625
-0.11202192 0.026358098 0.62900001
-0.10755637 0.026821647 0.62836373
-0.10277437 0.02740013 0.62813342
-0.097582765 0.027598199 0.62778962
-0.092228368 0.02761844 0.62650001
-0.087214418 0.027536957 0.62580001
-0.082401544 0.027835533 0.6259231
-0.077681243 0.02823743 0.62549996
-0.073000006 0.028937906 0.62519997
-0.069642864 0.029166669 0.625
-0.10004096 0.03055143 0.62900001
-0.096891433 0.03050286 0.62800002
-0.092180006 0.03112619 0.62849998
-0.087465726 0.031328574 0.6285556
-0.082679056 0.031037144 0.62842864
-0.077737272 0.031095598 0.62787503
-0.072675392 0.031858101 0.62746155
-0.067554675 0.032644067 0.62773335
-0.062144529 0.032866433 0.62741673
-0.057318822 0.032839768 0.62691665
-0.052437942 0.032773815 0.62566668
-0.048214294 0.033928573 0.625
-0.041666668 0.033928573 0.625
-0.039285716 0.033928573 0.625
-0.027380954 0.033928573 0.625
-0.067692384 0.035343811 0.62900001
-0.061378337 0.035629287 0.62874997
-0.057025362 0.03607155 0.62862504
-0.052615374 0.036979053 0.62826669
-0.047618035 0.036781296 0.62721431
-0.042643122 0.037141219 0.62672234
-0.03731773 0.036856566 0.62638897
-0.032279711 0.037424333 0.6267693
-0.027720615 0.037191093 0.62692857
-0.046126671 0.040136192 0.62900001
-0.04223286 0.040136192 0.62900001
-0.036928363 0.040920746 0.6287778
-0.032166496 0.041202169 0.62863642
-0.027423525 0.041075528 0.62870008
-0.045285717 -0.00060380955 0.634
-0.041904382 -0.00084533339 0.634
-0.037177421 -0.0011213606 0.63400006
-0.032605719 -0.0012076192 0.634
-0.028611621 -0.0010866667 0.63380003
-0.091779053 0.0042266669 0.634
-0.087149851 0.0042266669 0.634
-0.081514291 0.0042266669 0.634
-0.076985717 0.0034719049 0.634
-0.072580263 0.0031264073 0.6336363
-0.067730203 0.0032526664 0.63269997
-0.062585838 0.0033086906 0.63187504
-0.057659835 0.002790736 0.63245451
-0.05272992 0.0018064289 0.63275003
-0.047064684 0.001806667 0.63281822
-0.042133339 0.0018044445 0.63200003
-0.037210625 0.0019909893 0.63253844
-0.032650925 0.002287365 0.63253343
-0.028313475 0.001289524 0.63257146
-0.11532763 0.0090571437 0.634
-0.11230858 0.0090571437 0.634
-0.10679072 0.0081445239 0.63349998
-0.10248525 0.0078358725 0.63300002
-0.097675972 0.0078373821 0.63308334
-0.093119845 0.0068217474 0.63216662
-0.0871443 0.0056217462 0.63250005
-0.082619719 0.0063818097 0.63230002
-0.077557929 0.0064025968 0.63218182
-0.072229058 0.0060183336 0.63200003
-0.067334056 0.0054107145 0.63125002
-0.062499054 0.0054085716 0.63100004
-0.11532763 0.010868572 0.634
-0.11276602 0.011323906 0.63249999
-0.107192 0.010466287 0.63160002
-0.10183314 0.01045981 0.63120002
-0.09732724 0.010466287 0.63160008
-0.11570445 0.027474605 0.63166672
-0.11294792 0.028388096 0.63150001
-0.10757048 0.029206289 0.63100004
-0.11514572 0.031348575 0.63300002
-0.11215369 0.031355359 0.63312495
-0.10702103 0.032057542 0.63308328
-0.1026385 0.032686867 0.63319999
-0.097689055 0.033167467 0.63316667
-0.092620715 0.03368048 0.63150001
-0.087752126 0.033777967 0.63171428
-0.082662009 0.033570766 0.63169998
-0.077553816 0.033666909 0.63125002
-0.072715253 0.03425429 0.63100004
-0.092566483 0.035843816 0.63359994
-0.087157004 0.036598463 0.6331538
-0.082044087 0.037144765 0.63342851
-0.077188998 0.037389584 0.63318747
-0.07225018 0.037330888 0.63218749
-0.067351952 0.037428256 0.63180012
-0.062857866 0.037795637 0.63158333
-0.058165722 0.038325954 0.63125002
-0.053484764 0.039061908 0.63100004
-0.049278099 0.039061908 0.63100004
-0.076683812 0.040455244 0.634
-0.072715931 0.040972792 0.63400006
-0.067322597 0.040945448 0.63357145
-0.062577844 0.041517932 0.6334545
-0.05790304 0.042222321 0.63331252
-0.052566461 0.042290285 0.63289469
-0.047359623 0.042299949 0.63266677
-0.042272244 0.042551365 0.63199997
-0.037542321 0.04338422 0.6314286
-0.032812003 0.043629147 0.63100004
-0.027850956 0.043480482 0.6311667
-0.024076192 0.04393905 0.63200003
-0.047700956 0.045285717 0.634
-0.041662864 0.045285717 0.634
-0.037062671 0.045512956 0.63379997
-0.032580003 0.045853816 0.63349998
-0.027692731 0.046337411 0.6333636
-0.02418422 0.046734158 0.63257146
-0.066942863 -0.005477143 0.63900006
-0.042452384 -0.005717143 0.63860005
-0.037516765 -0.0057068579 0.63740009
-0.032823578 -0.0060792863 0.63824999
-0.027972383 -0.0060814284 0.63850003
-0.024938416 -0.0066914288 0.63866675
-0.096154295 -0.00060857146 0.63900006
-0.093111441 -0.00060857146 0.63900006
-0.086980961 -0.00060825399 0.63866675
-0.082765721 -0.00060857146 0.63900006
-0.077865958 -0.00060833339 0.63875008
-0.072566196 -0.0010138096 0.63850009
-0.067256905 -0.0022810716 0.63837504
-0.062137645 -0.0023246503 0.63782364
-0.057188574 -0.0020101101 0.63723087
-0.052096196 -0.0018248486 0.63809097
-0.04752636 -0.0025539051 0.63813341
-0.042621735 -0.0031431173 0.63681829
-0.037736613 -0.0034310056 0.63566679
-0.032708574 -0.0036352384 0.6360001
-0.027628189 -0.0032725718 0.63620007
-0.024912383 -0.0036457144 0.63800001
-0.10647222 0.0036503179 0.6388334
-0.10082 0.0038542859 0.63900006
-0.097442821 0.0023106032 0.63866669
-0.092826232 0.0022865937 0.63769239
-0.087563887 0.0021652384 0.63721442
-0.082577147 0.0020029307 0.63646168
-0.077833816 0.0013616668 0.63600004
-0.072230868 0.00084685721 0.63520002
-0.067401275 0.0010085716 0.63566673
-0.063038237 0.0011236737 0.6355716
-0.059010956 0.00090761913 0.63550007
-0.053823814 0.00060476194 0.63500005
-0.047851432 0.00060571433 0.63600004
-0.11591271 0.0070555559 0.63500011
-0.11237493 0.0066674608 0.63666683
-0.10829771 0.0064908848 0.63628578
-0.10313238 0.0054600001 0.63700002
-0.098049536 0.0054471428 0.63550007
-0.11553763 0.03405381 0.63850003
-0.11260573 0.033894971 0.6371429
-0.10868406 0.034209762 0.63575006
-0.11502001 0.035905715 0.63900006
-0.11216247 0.03657715 0.6385715
-0.10739503 0.036789734 0.63788885
-0.10243838 0.03735606 0.63700002
-0.09758348 0.037600957 0.63735294
-0.092558771 0.038505811 0.63770002
-0.087504193 0.039092388 0.63540006
-0.08224763 0.039309528 0.63500005
-0.091853477 0.04145157 0.63871431
-0.087294355 0.042260751 0.63778573
-0.082539529 0.042486437 0.63725007
-0.077699125 0.042836994 0.63623089
-0.072547197 0.043449 0.63655561
-0.068054713 0.043418102 0.63611114
-0.063278489 0.043919623 0.63520002
-0.077288583 0.045642864 0.63900006
-0.07251747 0.046565723 0.63866669
-0.067673147 0.046373148 0.639
-0.061964128 0.046422333 0.63855559
-0.057151821 0.046573341 0.63840002
-0.052273341 0.046644766 0.63754547
-0.047098249 0.047194362 0.63715392
-0.042591795 0.047725134 0.63676929
-0.037768226 0.048025023 0.63681823
-0.032682858 0.048419524 0.63550007
-0.027940003 0.048743811 0.63500005
-0.042478289 0.050754864 0.63900006
-0.037454292 0.051010482 0.63871431
-0.032588955 0.051437337 0.63840002
-0.027960077 0.051767543 0.63715392
-0.024873335 0.050961912 0.63700008
-0.097396575 -0.0055131437 0.64320004
-0.092107944 -0.0061276197 0.64333338
-0.088013336 -0.0058266674 0.64400005
-0.082800008 -0.0058266674 0.64400005
-0.07728 -0.0055200006 0.64400005
-0.071968034 -0.0060341498 0.64271432
-0.0670835 -0.006301905 0.64033341
-0.062207509 -0.0060991668 0.64037502
-0.057518102 -0.0061200005 0.64250004
-0.05233293 -0.0060292529 0.64214289
-0.047429528 -0.0063120634 0.6412223
-0.043425336 -0.0072184764 0.64220005
-0.038021367 -0.0074311574 0.6424287
-0.033095717 -0.0079671433 0.64350003
-0.027738571 -0.0083636511 0.64250004
-0.023845715 -0.0091714291 0.64200002
-0.11162667 -0.00061333337 0.64400005
-0.10917334 -0.00061333337 0.64400005
-0.10120001 -0.00184 0.64400005
-0.097971641 -0.0027071431 0.6417858
-0.092673197 -0.0028667403 0.64115393
-0.087937288 -0.0029712927 0.64185727
-0.082542278 -0.0030583153 0.64200008
-0.077497229 -0.003060556 0.64241672
-0.072547808 -0.0032988575 0.64120007
-0.068876192 -0.0042666672 0.64000005
-0.056714606 -0.0042688893 0.64033341
-0.052801337 -0.0037803815 0.64020008
-0.11547001 0.0024428573 0.6415
-0.11233877 0.0024406549 0.6410625
-0.10792658 0.0017088574 0.64170003
-0.10293899 0.0021123081 0.64130771
-0.090819053 0.00060952385 0.64000005
-0.11520001 0.0054857144 0.64000005
-0.11224001 0.039040476 0.64050001
-0.10773905 0.039233338 0.64033341
-0.10361905 0.039619051 0.64000005
-0.11216138 0.042360868 0.64290917
-0.10767512 0.042827025 0.64237505
-0.10263043 0.042763516 0.64143759
-0.097666852 0.042730417 0.64093751
-0.093202867 0.043585297 0.64055562
-0.08899048 0.04449524 0.64000005
-0.10304001 0.046000004 0.64400005
-0.097725719 0.046649743 0.64355558
-0.092468582 0.04669524 0.64300001
-0.087594122 0.046996888 0.64236373
-0.082430959 0.047293402 0.6425001
-0.077328756 0.048089094 0.64209098
-0.07245525 0.048740961 0.64085716
-0.06700024 0.04868643 0.64100003
-0.062342323 0.048915107 0.64085716
-0.057325087 0.048990797 0.64033341
-0.052313339 0.049143054 0.64020008
-0.048761908 0.049371433 0.64000005
-0.072373338 0.050906669 0.64400005
-0.067193024 0.051671751 0.64333332
-0.06232208 0.051964335 0.64327276
-0.05746828 0.052198686 0.64246166
-0.052638989 0.052641492 0.6426875
-0.0476503 0.052537922 0.64143753
-0.042794809 0.053231172 0.64109093
-0.038040321 0.053500429 0.64077783
-0.033346828 0.053883653 0.64050007
-0.027834922 0.054247625 0.64000005
-0.023920001 0.054586671 0.64400005
-0.050906669 0.055813339 0.64400005
-0.047202863 0.056397781 0.64366674
-0.042868573 0.05572667 0.64300001
-0.037714019 0.056264769 0.64314288
-0.032443099 0.057032939 0.64275002
-0.028206458 0.056485191 0.64233333
-0.023511112 0.056222226 0.64400005
-0.025920002 -0.015428573 0.648
-0.024068573 -0.015428573 0.648
-0.080845721 -0.010491429 0.648
-0.077760004 -0.010491429 0.648
-0.07436572 -0.011417144 0.648
-0.061097145 -0.010491429 0.648
-0.057885312 -0.011189798 0.64757144
-0.052850798 -0.011310689 0.6477778
-0.047323 -0.011015784 0.64771438
-0.042070955 -0.01125024 0.64725006
-0.037055124 -0.012096786 0.64712501
-0.032048333 -0.012327738 0.64712501
-0.027099587 -0.012319107 0.64668745
-0.02401286 -0.012315239 0.64650005
-0.11108573 -0.0061714291 0.648
-0.10824686 -0.0060480009 0.648
-0.10182858 -0.0055542863 0.648
-0.096594296 -0.0067676194 0.64600003
-0.091397867 -0.0070797624 0.64625001
-0.086763717 -0.007454074 0.64611113
-0.082310721 -0.0079043657 0.64658332
-0.077600323 -0.0080076195 0.64666665
-0.072889842 -0.0084193656 0.64677781
-0.067859292 -0.0080197621 0.64775002
-0.062560953 -0.0085353758 0.64671433
-0.057820834 -0.008612263 0.64587498
-0.05313376 -0.0084120641 0.64622217
-0.048242319 -0.0086997291 0.64585721
-0.042634927 -0.0088142864 0.64566672
-0.037471429 -0.0092142867 0.64500004
-0.031942859 -0.0092142867 0.64500004
-0.027028574 -0.0092142867 0.64500004
-0.11123794 -0.0030804761 0.64649999
-0.10733394 -0.0025433332 0.64724994
-0.10360001 -0.0024676193 0.64750004
-0.11606191 0.044639528 0.64649999
-0.11376032 0.044070166 0.64566672
-0.11589944 0.047520008 0.648
-0.11239643 0.047682278 0.64761537
-0.10735542 0.047546588 0.64681816
-0.10235569 0.048744421 0.64636362
-0.097150832 0.049190834 0.645625
-0.092488043 0.049274426 0.64557147
-0.087624766 0.049526859 0.64520007
-0.082928583 0.049757145 0.6450001
-0.079242863 0.049757145 0.64500004
-0.10121143 0.051222861 0.648
-0.097158104 0.051706675 0.64742863
-0.092391245 0.05291912 0.64759994
-0.087367475 0.052573193 0.6470769
-0.082529835 0.052968644 0.64668745
-0.077565119 0.052942388 0.646375
-0.072598577 0.05352699 0.64600003
-0.067894563 0.05419334 0.64557147
-0.063065343 0.054459628 0.64540005
-0.057947621 0.054671433 0.6450001
-0.025185715 0.054671433 0.64500004
-0.090720005 0.056160003 0.648
-0.085782863 0.056160003 0.648
-0.083931431 0.056160003 0.648
-0.077142864 0.056160003 0.648
-0.072795004 0.056755479 0.64774996
-0.067820601 0.056722745 0.64737499
-0.062851429 0.056689531 0.64700001
-0.057753857 0.057194717 0.64700001
-0.052985322 0.057608169 0.64691663
-0.048124682 0.058771949 0.64709091
-0.042480882 0.058490697 0.64646149
-0.037243813 0.058838096 0.64577782
-0.032557145 0.059278574 0.64500004
-0.026608165 0.058221232 0.6454286
-0.045668576 0.061097145 0.648
-0.041965716 0.061097145 0.648
-0.036531072 0.061809409 0.64737499
-0.032269146 0.061951626 0.64660001
-0.028960954 0.061620004 0.64700001
-0.077058099 -0.015535716 0.65250003
-0.074006669 -0.01554762 0.65300006
-0.065300003 -0.01554762 0.65300006
-0.062190477 -0.01554762 0.65300006
-0.057600003 -0.015954286 0.65266675
-0.053483814 -0.01554762 0.65300006
-0.04622826 -0.015962224 0.65300006
-0.042262625 -0.016781349 0.65258336
-0.037129972 -0.017262287 0.65193337
-0.032255657 -0.017370895 0.65131241
-0.027633188 -0.017517585 0.65146154
-0.023595717 -0.018008573 0.65200001
-0.10074858 -0.010572381 0.65300006
-0.097017147 -0.010572381 0.65300006
-0.092006914 -0.010568334 0.65275007
-0.086782299 -0.011050478 0.6518001
-0.082516886 -0.012241387 0.65145463
-0.077646993 -0.013010794 0.65050006
-0.071989745 -0.012413402 0.65164292
-0.066742517 -0.011811604 0.65272731
-0.062231705 -0.012678779 0.65157151
-0.056863099 -0.013480478 0.65075004
-0.051954646 -0.013493692 0.651375
-0.047359049 -0.013443493 0.65144444
-0.042592622 -0.013475239 0.6505
-0.039000001 -0.014238096 0.65000004
-0.11007715 -0.0093285721 0.65300006
-0.10718416 -0.0080731623 0.65190905
-0.10306425 -0.0075921626 0.65161538
-0.097941242 -0.0085656196 0.65169996
-0.09312401 -0.0088043818 0.65100002
-0.08856985 -0.0092904773 0.6503334
-0.067537338 -0.0092942864 0.65060008
-0.11576191 0.048904765 0.65000004
-0.11276238 0.052226864 0.65126663
-0.10788024 0.052081551 0.65100014
-0.103168 0.052949142 0.65100002
-0.098211624 0.053626098 0.65020007
-0.11505239 0.055971432 0.65300006
-0.11212113 0.05595731 0.6528334
-0.1070324 0.055692796 0.65285718
-0.10208893 0.056406077 0.65262502
-0.097504705 0.056747779 0.6514616
-0.093359157 0.057120219 0.65111113
-0.087978862 0.057238311 0.6512143
-0.082374007 0.057935905 0.65130001
-0.077774718 0.058074396 0.65100002
-0.071948342 0.058922619 0.65125
-0.066857144 0.058809526 0.65000004
-0.061904769 0.058809526 0.65000004
-0.023389209 0.058576509 0.65200007
-0.081158578 0.060635719 0.65300006
-0.077116199 0.060946669 0.65300006
-0.071943946 0.062003497 0.65233344
-0.067232728 0.061823756 0.6519286
-0.062040377 0.061659861 0.65192306
-0.057089116 0.062055897 0.65156257
-0.052263066 0.062273961 0.65107149
-0.047368001 0.062869154 0.65100002
-0.042144287 0.063216433 0.65075004
-0.038086429 0.063476913 0.65025002
-0.030952383 0.063761912 0.65000004
-0.026763495 0.062311269 0.65100002
-0.022960715 0.06205548 0.65158337
-0.05659334 0.065300003 0.65300006
-0.052230123 0.065909408 0.65287507
-0.047264766 0.06592191 0.65300006
-0.042096887 0.066394202 0.65263635
-0.037133146 0.06619449 0.65200001
-0.032157585 0.066657513 0.6522308
-0.027473656 0.067007624 0.65266675
-0.023010477 0.066543818 0.65300006
-0.047000002 -0.020680001 0.65800011
-0.042613335 -0.020680001 0.65800005
-0.037178289 -0.020905524 0.65720004
-0.032541826 -0.021904049 0.65708339
-0.027510002 -0.02188508 0.6565001
-0.023142383 -0.021736192 0.65675002
-0.10653334 -0.015666667 0.65800005
-0.10273454 -0.015660714 0.65775007
-0.097428173 -0.016193606 0.65757149
-0.092836194 -0.01620381 0.65800011
-0.087509952 -0.016499577 0.65788895
-0.082634114 -0.017529942 0.65731245
-0.077874772 -0.017904669 0.65730006
-0.072260074 -0.017508779 0.6565001
-0.067592204 -0.017617969 0.65593344
-0.062476199 -0.018119365 0.65600008
-0.057253428 -0.018377239 0.65630007
-0.052369937 -0.017785991 0.65685719
-0.047688939 -0.017818315 0.6555385
-0.042451911 -0.019352859 0.65549999
-0.039300002 -0.019338097 0.65500003
-0.025576193 -0.019338097 0.65500003
-0.024328573 -0.019338097 0.65500003
-0.1067939 -0.012491826 0.6557501
-0.10259499 -0.012758777 0.65571439
-0.09738826 -0.013110794 0.65550011
-0.092488259 -0.013124603 0.65616673
-0.087796398 -0.013383049 0.65660006
-0.083654761 -0.014358573 0.65550005
-0.070490479 -0.01434762 0.65500003
-0.06824477 -0.013848573 0.65500003
-0.11549287 0.058683336 0.65550005
-0.11250721 0.058510371 0.65588897
-0.10769229 0.05834505 0.65590006
-0.1029289 0.058966678 0.65633339
-0.098788098 0.059397623 0.65649998
-0.092163816 0.059292071 0.6553334
-0.11593334 0.060786672 0.65800005
-0.112483 0.06129742 0.65771431
-0.10747049 0.06175239 0.65760005
-0.10266921 0.061977781 0.65733337
-0.097428165 0.062447626 0.65757149
-0.092755787 0.062434435 0.65742862
-0.087633342 0.062596917 0.65725005
-0.082875803 0.063070886 0.65675002
-0.077456549 0.063714415 0.65587509
-0.074233338 0.064252384 0.65500003
-0.066123813 0.064252384 0.65500003
-0.062588893 0.064252391 0.65500009
-0.085853338 0.065800004 0.65800005
-0.084600009 0.065800004 0.65800005
-0.07639572 0.065750003 0.65750003
-0.072500005 0.066250965 0.65625
-0.068003125 0.066980436 0.65727282
-0.062282465 0.067082472 0.65725005
-0.057470135 0.067701653 0.65654552
-0.052519288 0.06877739 0.65650004
-0.047464292 0.068698339 0.65575004
-0.042819239 0.069035627 0.65539998
-0.037702702 0.068950325 0.65616673
-0.033146672 0.069419056 0.6566667
-0.025576193 0.069242865 0.65500003
-0.022457145 0.069242865 0.65500003
-0.056400001 0.070813335 0.65800005
-0.054520003 0.070813335 0.65800005
-0.047591433 0.070759527 0.65750003
-0.042844903 0.071288988 0.65742862
-0.03729878 0.071288988 0.65742862
-0.032230407 0.072314367 0.65761548
-0.027565083 0.072437599 0.65680009
-0.022801433 0.072429329 0.65721434
-0.10671143 -0.025888573 0.66300005
-0.056197148 -0.025888573 0.66300005
-0.053040002 -0.025888573 0.66300005
-0.049461909 -0.026309526 0.66300005
-0.043147624 -0.025888573 0.66300005
-0.037446354 -0.026296511 0.66266674
-0.032970823 -0.027007882 0.66227281
-0.028029524 -0.026407484 0.66242868
-0.024588574 -0.025849525 0.66200006
-0.11050001 -0.020837145 0.66300005
-0.10655358 -0.022100002 0.66300005
-0.10292286 -0.022329614 0.66300011
-0.097240008 -0.020837145 0.66300005
-0.092188574 -0.020837145 0.66300005
-0.08733239 -0.021540819 0.66242862
-0.08218839 -0.021809144 0.66180009
-0.077177882 -0.021975679 0.66215402
-0.072541431 -0.022710003 0.66233343
-0.067594737 -0.022646034 0.66166675
-0.062895752 -0.022563811 0.66173339
-0.057992861 -0.022694407 0.66187501
-0.052915663 -0.02267923 0.66143745
-0.047988649 -0.023100147 0.66100013
-0.04283921 -0.023311432 0.6615001
-0.037949093 -0.023410911 0.66109103
-0.032723572 -0.024542145 0.66075003
-0.027689287 -0.024542145 0.66075003
-0.024514288 -0.024514288 0.66000003
-0.11033334 -0.019544763 0.66200006
-0.10742818 -0.018168811 0.66158342
-0.10244088 -0.018264206 0.66125005
-0.097575963 -0.018728809 0.66100001
-0.092493132 -0.01866688 0.66066676
-0.088022396 -0.018862067 0.66016674
-0.076685719 -0.019485716 0.66000003
-0.074800007 -0.019485716 0.66000003
-0.11537715 0.063678101 0.66200006
-0.11211964 0.064248458 0.66137511
-0.10800406 0.064551197 0.66125005
-0.10316382 0.06479191 0.66050005
-0.099942863 0.064114287 0.66000003
-0.092400007 0.064114287 0.66000003
-0.11555143 0.066931434 0.66300005
-0.11273982 0.066532575 0.66280001
-0.10743659 0.066532575 0.66280001
-0.10191076 0.066769809 0.6622858
-0.09706419 0.067441724 0.66180009
-0.092173278 0.067569748 0.66115391
-0.087620437 0.068151295 0.66115397
-0.082610548 0.068094991 0.6608001
-0.077864088 0.06824477 0.6608572
-0.07270804 0.069113202 0.66057152
-0.067005716 0.069268577 0.66000003
-0.063800007 0.069457151 0.66000003
-0.059085719 0.069771431 0.66000003
-0.091136202 0.070930481 0.66300005
-0.086732581 0.071582481 0.66280007
-0.082023337 0.071297623 0.66250002
-0.076586291 0.071539432 0.66240007
-0.072206534 0.072026946 0.66257155
-0.067202546 0.07210964 0.66222227
-0.062678568 0.072391145 0.66210002
-0.058083918 0.072657682 0.66211116
-0.052715849 0.072520867 0.66109103
-0.047816787 0.072983928 0.66062504
-0.042468194 0.073469341 0.66160005
-0.037729047 0.073885247 0.66025001
-0.034152385 0.074380964 0.66000003
-0.027028574 0.074800007 0.66000003
-0.057460006 0.075140014 0.66300005
-0.052938782 0.075665042 0.66285723
-0.047707051 0.076104961 0.6626001
-0.042904764 0.076345712 0.66250014
-0.03799209 0.077391371 0.66230786
-0.032744765 0.077452235 0.66116679
-0.027705401 0.07745254 0.66116667
-0.023280635 0.077393651 0.66066676
-0.030940002 0.080191433 0.66300005
-0.029045716 0.080191433 0.66300005
-0.024625717 0.080191433 0.66300005
-0.042021431 -0.031196669 0.66850001
-0.037591428 -0.031220002 0.66900003
-0.032788437 -0.031698912 0.66757149
-0.027981669 -0.031798333 0.66775
-0.023892857 -0.031538572 0.66900003
-0.09748286 -0.026122859 0.66900003
-0.092810482 -0.026122859 0.66900003
-0.088000201 -0.026362097 0.66860008
-0.082828574 -0.026122859 0.66900003
-0.077080488 -0.026860239 0.66750008
-0.072526678 -0.027357146 0.66799998
-0.067431435 -0.027531944 0.66746157
-0.062222227 -0.027304133 0.66666669
-0.057374295 -0.027545908 0.66640002
-0.052284632 -0.028000003 0.66600007
-0.046989288 -0.028154369 0.66674995
-0.042715855 -0.028190654 0.66581815
-0.038270958 -0.028766764 0.66530001
-0.032553338 -0.029513335 0.66500002
-0.027678099 -0.02894688 0.66555554
-0.023365051 -0.028574957 0.66670007
-0.10703334 -0.022166668 0.66500002
-0.10088739 -0.023479287 0.66624999
-0.097585976 -0.023374721 0.66654545
-0.092636801 -0.023377577 0.66663641
-0.087548219 -0.024108214 0.66612506
-0.082859844 -0.024308732 0.66583335
-0.077296436 -0.024709286 0.66525
-0.070405722 -0.024102859 0.66600001
-0.1127279 0.068652794 0.66657144
-0.1077158 0.068579197 0.6658572
-0.10298001 0.068780005 0.66500002
-0.09943334 0.06903334 0.66500002
-0.11260477 0.071254298 0.6680001
-0.10751524 0.071254291 0.66799998
-0.10209111 0.071431443 0.66766673
-0.097299792 0.07147757 0.66677779
-0.092958711 0.072647721 0.66645467
-0.087690614 0.073573075 0.66514289
-0.082395241 0.073522381 0.66549999
-0.077588305 0.073604904 0.66542858
-0.072253339 0.074155718 0.66550004
-0.067766674 0.074100003 0.66500008
-0.060166672 0.074100003 0.66500002
-0.090839051 0.075593337 0.66700006
-0.087745361 0.076301321 0.66762507
-0.082413621 0.076691352 0.66769999
-0.077711649 0.076441176 0.66700006
-0.072453342 0.076904133 0.66733336
-0.067173861 0.0770436 0.66684616
-0.06219488 0.07742846 0.66637498
-0.057266235 0.078144334 0.66609091
-0.052179158 0.078375146 0.66544443
-0.047835004 0.078879766 0.66525
-0.043066669 0.079166673 0.66500002
-0.06562572 0.08091715 0.66900003
-0.062440004 0.08091715 0.66900003
-0.057342857 0.08091715 0.66900003
-0.051670961 0.081561908 0.66775
-0.046855785 0.082363278 0.66742867
-0.042207215 0.082782596 0.66714293
-0.03764705 0.082541406 0.66700006
-0.033021431 0.082557075 0.66678578
-0.024376828 0.08203017 0.66766679
-0.05199429 -0.035304762 0.67400002
-0.040440004 -0.035304762 0.67400002
-0.0371021 -0.035561528 0.67400002
-0.031670477 -0.035519622 0.67320007
-0.026950242 -0.035933573 0.67374992
-0.022710098 -0.035797339 0.67360002
-0.10270478 -0.030169526 0.67400002
-0.097355567 -0.030597463 0.67400002
-0.092081919 -0.030694153 0.6734286
-0.087552711 -0.030751748 0.67266673
-0.082418337 -0.031388335 0.67258334
-0.077638201 -0.031209433 0.67149997
-0.072865598 -0.031958696 0.67112499
-0.06754867 -0.031750161 0.67122221
-0.062547728 -0.031808887 0.67244434
-0.057625432 -0.031631526 0.67230004
-0.052702386 -0.032300208 0.67249995
-0.0473608 -0.032642066 0.67200005
-0.042225003 -0.033269286 0.67175007
-0.037064761 -0.03323143 0.671
-0.031963576 -0.033882149 0.67124999
-0.027520001 -0.033920001 0.67200011
-0.022527143 -0.033071905 0.671
-0.10664143 -0.02722143 0.67250001
-0.1023238 -0.027501432 0.67150009
-0.09729182 -0.027744001 0.67119998
-0.092589408 -0.027985118 0.67162502
-0.087696992 -0.02809762 0.67050004
-0.082998455 -0.028092265 0.67037505
-0.078834526 -0.028405955 0.67025
-0.072742864 -0.029990477 0.67000002
-0.068276197 -0.029990477 0.67000002
-0.063171439 -0.029990477 0.67000002
-0.057428576 -0.029990477 0.67000002
-0.051047623 -0.029990477 0.67000002
-0.049133338 -0.029990477 0.67000002
-0.10209525 -0.024885716 0.67000002
-0.093800008 -0.024885716 0.67000002
-0.11175001 0.073755711 0.67050004
-0.10734084 0.074116312 0.67087501
-0.1024566 0.074173883 0.67057151
-0.097373337 0.074401908 0.67000002
-0.11147748 0.075958744 0.67400002
-0.10751893 0.076904505 0.6737144
-0.10248914 0.077508666 0.67258334
-0.097304776 0.07746017 0.67216659
-0.092611544 0.077687308 0.67166668
-0.08754953 0.078602865 0.671
-0.084354289 0.079241917 0.671
-0.077000007 0.079043821 0.67040008
-0.072851427 0.07988096 0.671
-0.068276197 0.079761907 0.67000002
-0.040740002 -0.040740002 0.67900002
-0.030393336 -0.040740002 0.67900002
-0.026938256 -0.041161112 0.67883337
-0.022885336 -0.041245338 0.67880005
-0.095706671 -0.035566669 0.67900002
-0.092473343 -0.035566669 0.67900002
-0.087946676 -0.035566669 0.67900002
-0.082712382 -0.036187142 0.6785
-0.077484764 -0.036160953 0.67800003
-0.072451107 -0.036405612 0.67855555
-0.067203812 -0.036187146 0.6785
-0.06203429 -0.036187146 0.6785
-0.057566911 -0.036605954 0.67725003
-0.05305884 -0.037164658 0.67666674
-0.047578163 -0.037266798 0.67693341
-0.042733908 -0.03757162 0.6778
-0.037485287 -0.03819022 0.67754549
-0.03241377 -0.038160264 0.67700005
-0.027059764 -0.038658097 0.67650008
-0.022353608 -0.038362045 0.67614293
-0.1120525 -0.031970117 0.67812502
-0.10773221 -0.031612206 0.67736369
-0.10235677 -0.032746669 0.67680001
-0.097802654 -0.032984238 0.67611122
-0.093013763 -0.033298206 0.67666662
-0.087558627 -0.033292383 0.67655563
-0.082347631 -0.034096669 0.67550004
-0.077255718 -0.034121908 0.676
-0.072079286 -0.034109287 0.67575002
-0.066956192 -0.034121908 0.67600006
-0.062634289 -0.034222864 0.67800009
-0.057900954 -0.034096669 0.67550004
-0.11185715 -0.028928574 0.67500001
-0.108 -0.028928574 0.67500001
-0.037131432 -0.046251431 0.68400002
-0.032559287 -0.046885956 0.68375003
-0.028011432 -0.046251431 0.68400002
-0.022278858 -0.046512004 0.68400002
-0.018439367 -0.047074288 0.6833334
-0.091200009 -0.041040003 0.68400002
-0.087396018 -0.041288573 0.68380004
-0.081411839 -0.041775927 0.6838572
-0.077180319 -0.042460747 0.6835556
-0.073011875 -0.04248704 0.68307704
-0.067699052 -0.041661434 0.68349999
-0.062506676 -0.041454289 0.68366671
-0.057305481 -0.041025005 0.68375003
-0.051905502 -0.04249613 0.68323082
-0.047484763 -0.042932861 0.68300009
-0.04305353 -0.04305505 0.68286675
-0.03769685 -0.042898279 0.68243748
-0.032596637 -0.04298801 0.68180007
-0.027402097 -0.043766674 0.68180007
-0.021818098 -0.04376667 0.68180007
-0.018836191 -0.044817146 0.68200004
-0.1117143 -0.03594286 0.68000001
-0.10815292 -0.037386891 0.68315387
-0.10275727 -0.036420837 0.68287504
-0.097481072 -0.037045121 0.68237501
-0.092147157 -0.038008574 0.6821667
-0.087399825 -0.038442481 0.68180007
-0.082807757 -0.038855381 0.68157154
-0.077885479 -0.038943816 0.68150008
-0.072472118 -0.038966261 0.68028569
-0.067451432 -0.038915239 0.68099999
-0.062262863 -0.038915239 0.68099999
-0.056928009 -0.039292194 0.68080002
-0.051922385 -0.039591905 0.68150008
-0.11314173 -0.034084957 0.68040007
-0.10766192 -0.034374289 0.68099999
-0.10426667 -0.034323812 0.68000001
-0.091866672 -0.045277145 0.68900001
-0.087929532 -0.045277145 0.68900001
-0.082120001 -0.045447625 0.68760008
-0.077353336 -0.046646241 0.68766671
-0.072501317 -0.045989882 0.68737507
-0.067520961 -0.045233335 0.68833339
-0.062994294 -0.045277145 0.68900001
-0.057034608 -0.045233335 0.68833339
-0.052372031 -0.046153456 0.68737501
-0.047108099 -0.047109522 0.68700004
-0.042188171 -0.047242317 0.68757159
-0.037544001 -0.0477501 0.68680006
-0.034778096 -0.049214289 0.68900001
-0.027063241 -0.047459815 0.68640012
-0.021910239 -0.048073579 0.68675005
-0.019029524 -0.049214289 0.68900001
-0.1065402 -0.041804958 0.68800014
-0.10197201 -0.041077524 0.68900007
-0.09704572 -0.042622384 0.68850005
-0.092921168 -0.042646877 0.68655556
-0.087526277 -0.043249797 0.68657154
-0.083283439 -0.043276194 0.68640012
-0.079053335 -0.043773334 0.68600005
-0.067995243 -0.043805242 0.68650007
-0.062856674 -0.043433182 0.68750012
-0.057599526 -0.04319929 0.68725002
-0.10584001 -0.0392 0.68600005
-0.10269763 -0.039247781 0.68683338
-0.098187432 -0.039353907 0.68640012
-0.094733343 -0.039853334 0.68600005
-0.061468575 -0.050893337 0.69400001
-0.05684191 -0.050893337 0.69400001
-0.052464958 -0.05114305 0.69380003
-0.04753786 -0.051499292 0.69325006
-0.042219684 -0.052116834 0.69266671
-0.037049193 -0.052797072 0.69292867
-0.032437574 -0.052228224 0.69254559
-0.027628234 -0.052524433 0.69307148
-0.022624219 -0.052508578 0.69285715
-0.017840192 -0.052200574 0.69380003
-0.10575239 -0.045605719 0.69400001
-0.10208073 -0.045919765 0.69375002
-0.09739802 -0.046692908 0.69227272
-0.092471011 -0.04722593 0.69188893
-0.087312393 -0.047566261 0.69228578
-0.082671717 -0.047686126 0.69128579
-0.078274861 -0.049237143 0.69300002
-0.072014652 -0.048615597 0.69212502
-0.067190491 -0.048089843 0.69166672
-0.062129185 -0.04823273 0.69200009
-0.057777412 -0.047722515 0.69154549
-0.052985314 -0.048844628 0.69171441
-0.047366433 -0.049339287 0.69075
-0.042057145 -0.049285717 0.69000006
-0.038114287 -0.049285717 0.69000006
-0.032200001 -0.049285721 0.69000006
-0.027609764 -0.049303576 0.69025004
-0.022561908 -0.049285721 0.69000006
-0.10595334 -0.044092383 0.69100004
-0.10257036 -0.043395363 0.69037503
-0.099228576 -0.043371432 0.69000006
-0.08575429 -0.055175241 0.69800001
-0.065811433 -0.055175241 0.69800001
-0.06260287 -0.055425335 0.69780004
-0.057169527 -0.055175241 0.69800001
-0.052165478 -0.05548786 0.69775003
-0.047650654 -0.056347799 0.69754547
-0.042524025 -0.057264343 0.69644451
-0.03712631 -0.057017025 0.69612509
-0.032233905 -0.05690667 0.69640005
-0.027726952 -0.057446387 0.69650006
-0.022536669 -0.057670161 0.69600004
-0.018167049 -0.05715562 0.69620007
-0.096390486 -0.051186673 0.69800007
-0.092335723 -0.051814765 0.69749999
-0.087591827 -0.052423567 0.69675004
-0.082233652 -0.05239239 0.69633341
-0.077366762 -0.052552857 0.69670004
-0.072733164 -0.052246924 0.6960001
-0.067611434 -0.052367307 0.6960001
-0.062344331 -0.052466929 0.69572735
-0.057502151 -0.052864052 0.69600004
-0.053003184 -0.053003814 0.69566673
-0.047657147 -0.053614289 0.69500005
-0.042361908 -0.0549381 0.69500005
-0.037728574 -0.0549381 0.69500005
-0.033095241 -0.0549381 0.69500005
-0.028461907 -0.0549381 0.69500005
-0.021180954 -0.0549381 0.69500005
-0.018202383 -0.054607145 0.69500005
-0.10708436 -0.04752082 0.6971429
-0.10249008 -0.048449256 0.69685721
-0.098207384 -0.049436908 0.69675004
-0.092734776 -0.049678575 0.69550002
-0.087371431 -0.049642861 0.69500005
-0.083400011 -0.049642861 0.69500005
-0.06570667 -0.061013337 0.70400006
-0.062325399 -0.060984448 0.70366669
-0.057729531 -0.061212193 0.70320004
-0.052552249 -0.061550893 0.70357156
-0.047547467 -0.061611593 0.70316672
-0.042819049 -0.061553817 0.70250005
-0.037533097 -0.061662149 0.70375001
-0.032109644 -0.061542269 0.70237511
-0.027391909 -0.061466198 0.70150006
-0.022691192 -0.061399765 0.70075005
-0.017112097 -0.061902579 0.70190006
-0.012739048 -0.063695244 0.70400006
-0.10124191 -0.055649526 0.70400006
-0.097419851 -0.056083336 0.70383334
-0.092319906 -0.056762014 0.70300007
-0.087715432 -0.056830864 0.70199996
-0.082488857 -0.056689437 0.70190001
-0.077508181 -0.056797229 0.7015835
-0.072007418 -0.057207689 0.70192868
-0.067603901 -0.057644945 0.70154554
-0.062670656 -0.058182511 0.7007274
-0.057401117 -0.058070015 0.7008335
-0.052327055 -0.058334101 0.70080006
-0.047356512 -0.059361592 0.70033336
-0.042444449 -0.059333336 0.70000005
-0.037373573 -0.059396908 0.70074999
-0.033023812 -0.059042383 0.70050001
-0.028666668 -0.059333336 0.70000005
-0.016676327 -0.05803524 0.70042861
-0.11015715 -0.05140667 0.70100003
-0.10713543 -0.051900789 0.70109099
-0.10286397 -0.052230407 0.70100003
-0.097664669 -0.053170901 0.70077783
-0.092711434 -0.054025721 0.70033336
-0.016000001 -0.054000005 0.70000005
-0.014020001 -0.054077145 0.70100003
-0.053268578 -0.065405719 0.70800006
-0.047200002 -0.065405719 0.708
-0.042480003 -0.065405719 0.708
-0.037355434 -0.06567543 0.708
-0.032354288 -0.066056907 0.70774996
-0.027452977 -0.066527508 0.70737493
-0.022710072 -0.067073062 0.7072857
-0.01744654 -0.067137338 0.70633334
-0.014100002 -0.066471435 0.7050001
-0.10586286 -0.060011432 0.708
-0.10218219 -0.061347622 0.70785725
-0.097702399 -0.061990961 0.70749998
-0.092985243 -0.061990719 0.70749998
-0.087595247 -0.061990958 0.70749998
-0.082204774 -0.061990958 0.70749998
-0.077488102 -0.061990958 0.70749998
-0.072544575 -0.062316764 0.70660001
-0.067783073 -0.062702231 0.7062223
-0.06174 -0.063088581 0.70620006
-0.05740286 -0.063234925 0.7063334
-0.05210172 -0.063680001 0.70679998
-0.04715072 -0.063989289 0.70725
-0.042420007 -0.063966677 0.70700002
-0.037706669 -0.063966669 0.70700002
-0.032320004 -0.063966669 0.70700002
-0.027581906 -0.063906357 0.70633334
-0.022828573 -0.063785717 0.70500004
-0.018800002 -0.063785717 0.70500004
-0.1060131 -0.057551194 0.70674998
-0.10217762 -0.057812542 0.70583332
-0.097628444 -0.058846395 0.70557147
-0.093193665 -0.059366032 0.70566666
-0.086981907 -0.059556384 0.7058
-0.082087152 -0.059884287 0.70650005
-0.077214293 -0.059757151 0.7050001
-0.073857144 -0.059757147 0.70500004
-0.018360002 -0.075480007 0.71400011
-0.051000003 -0.070720002 0.71400005
-0.047146671 -0.07185334 0.71400011
-0.042386673 -0.071853332 0.71400011
-0.037386905 -0.071715005 0.71375
-0.032611553 -0.072017267 0.71337503
-0.027134048 -0.071904048 0.71224999
-0.02238917 -0.072426796 0.71237504
-0.018044285 -0.07272467 0.7123
-0.097240016 -0.065960005 0.71400011
-0.093160003 -0.065960005 0.71400011
-0.086360008 -0.065960005 0.71400011
-0.081882864 -0.066253811 0.71350002
-0.077451795 -0.066582024 0.71337509
-0.072211564 -0.066591434 0.71242863
-0.067312032 -0.066636309 0.712125
-0.062602423 -0.067044497 0.71236372
-0.05727293 -0.066772789 0.71228576
-0.052337505 -0.067412511 0.711375
-0.047409531 -0.068020426 0.7111429
-0.042451259 -0.068331264 0.71163636
-0.037935149 -0.068422012 0.71130008
-0.032486074 -0.069032505 0.71062499
-0.027461527 -0.069396771 0.71020001
-0.023666669 -0.069647625 0.71000004
-0.018257145 -0.069647625 0.71000004
-0.10657262 -0.062791198 0.71275002
-0.10349573 -0.063502066 0.71183342
-0.097577631 -0.064373814 0.71149999
-0.092350483 -0.064509526 0.71300006
-0.08751525 -0.064449206 0.71233338
-0.082729526 -0.064419046 0.71200007
-0.077167861 -0.064305961 0.71074998
-0.072352387 -0.064238101 0.71000004
-0.065590478 -0.064238101 0.71000004
-0.063561909 -0.064238101 0.71000004
-0.046922859 -0.076471813 0.71820009
-0.042395242 -0.075902864 0.71800005
-0.037626989 -0.075938106 0.71833342
-0.032835003 -0.076614052 0.71825004
-0.027352385 -0.076587625 0.71799999
-0.022550954 -0.076534137 0.71750009
-0.017748334 -0.077135958 0.71675003
-0.10066 -0.070530482 0.71900004
-0.097236201 -0.070530482 0.71900004
-0.093127623 -0.070530482 0.71900004
-0.080801912 -0.070530482 0.71900004
-0.077565148 -0.070999816 0.71820009
-0.072762869 -0.071005315 0.71785718
-0.067697152 -0.071117155 0.71800005
-0.062652037 -0.071595758 0.71718186
-0.057246327 -0.071667805 0.71790916
-0.05301347 -0.071953341 0.7175715
-0.0482108 -0.073907621 0.71633339
-0.042070162 -0.073907629 0.71633339
-0.037525717 -0.073823623 0.71640009
-0.032731429 -0.074327625 0.71600002
-0.027276192 -0.074327625 0.71600002
-0.022502858 -0.074327625 0.71600002
-0.10599048 -0.067014292 0.71800005
-0.10197694 -0.067352392 0.71755552
-0.097580485 -0.068238579 0.71650004
-0.092625834 -0.068048261 0.7168889
-0.087687522 -0.06810192 0.71744448
-0.082898483 -0.068423055 0.71700001
-0.077818334 -0.068944529 0.71675003
-0.072332382 -0.068920478 0.71650004
-0.068238579 -0.068920478 0.71650004
-0.060689528 -0.068872385 0.71600002
-0.057961907 -0.068872385 0.71600002
-0.031674288 -0.08056286 0.72300005
-0.027542859 -0.08056286 0.72300005
-0.022722861 -0.08056286 0.72300005
-0.017902859 -0.08056286 0.72300005
-0.013082858 -0.08056286 0.72300005
-0.096400008 -0.075054288 0.72300005
-0.092957146 -0.075054288 0.72300005
-0.083317146 -0.075054288 0.72300005
-0.075742856 -0.075054288 0.72300005
-0.072575428 -0.075605147 0.72300005
-0.067578368 -0.076234698 0.72300011
-0.062660009 -0.077119999 0.72300005
-0.057800002 -0.077067144 0.72250009
-0.052251317 -0.077000834 0.72187507
-0.048820954 -0.077700958 0.72200006
-0.042647857 -0.077727862 0.7222501
-0.037092146 -0.077964522 0.72125006
-0.032318097 -0.079076193 0.72200006
-0.027504764 -0.079076193 0.72200006
-0.022691432 -0.079076193 0.72200006
-0.017866192 -0.079021432 0.72150004
-0.013064763 -0.079076193 0.72200006
-0.10535143 -0.070922859 0.72300005
-0.10247891 -0.071988419 0.72216672
-0.097575478 -0.072838098 0.72150004
-0.092007197 -0.072614826 0.72155559
-0.087566011 -0.072034195 0.72170013
-0.082514815 -0.072646588 0.72145462
-0.077593341 -0.073703185 0.72100008
-0.072355054 -0.073178671 0.7208001
-0.066803813 -0.073897786 0.72066677
-0.06251429 -0.074881278 0.72133344
-0.058076192 -0.074551627 0.7208001
-0.052800007 -0.074742869 0.72000003
-0.10520572 -0.069449529 0.72200006
-0.10422858 -0.068571433 0.72000003
-0.050682861 -0.085397147 0.72900003
-0.046517145 -0.085397147 0.72900003
-0.043740004 -0.085397147 0.72900003
-0.037491433 -0.085397147 0.72900003
-0.031242859 -0.085397147 0.72900003
-0.02638286 -0.085397147 0.72900003
-0.022066098 -0.08562801 0.72860003
-0.01734524 -0.08603286 0.72850007
-0.013461526 -0.086183444 0.72860003
-0.088174291 -0.081231438 0.72900003
-0.083314285 -0.081231438 0.72900003
-0.075677149 -0.081231438 0.72900003
-0.072344579 -0.081509158 0.72900003
-0.068039998 -0.081231438 0.72900003
-0.062069148 -0.081509158 0.72900003
-0.057382457 -0.082159325 0.72842866
-0.052611001 -0.082351267 0.72772729
-0.047162458 -0.08253596 0.72825003
-0.042300005 -0.082520105 0.72811121
-0.037385315 -0.082385644 0.72691673
-0.032732792 -0.082774431 0.72685724
-0.027682263 -0.083043933 0.72662503
-0.022110479 -0.08291477 0.72549999
-0.017284764 -0.082972392 0.72600007
-0.012949933 -0.083333619 0.7265715
-0.10236096 -0.076787636 0.7275455
-0.097302012 -0.07776805 0.72688895
-0.092434362 -0.077643156 0.72638464
-0.087476127 -0.077694096 0.72649997
-0.082590394 -0.078027539 0.72629994
-0.07749366 -0.078187481 0.72649997
-0.072130725 -0.078705966 0.72650003
-0.067805246 -0.078878582 0.72650015
-0.062358573 -0.07967858 0.72750008
-0.057362862 -0.07947778 0.7256667
-0.052476194 -0.079404764 0.72500002
-0.047686674 -0.07947778 0.7256667
-0.042868573 -0.079514287 0.72600001
-0.03797619 -0.079404764 0.72500008
-0.10357144 -0.073880956 0.72500002
-0.044040002 -0.090177149 0.73400003
-0.025864763 -0.090177149 0.73400003
-0.024466669 -0.090177149 0.73400003
-0.017126668 -0.091225713 0.73400003
-0.01421397 -0.091109209 0.73400009
-0.076593019 -0.086370796 0.73333335
-0.072720766 -0.086121909 0.73280007
-0.062132388 -0.085865721 0.73300004
-0.057542726 -0.086664632 0.7330001
-0.052660838 -0.087014645 0.73237497
-0.047539528 -0.087410957 0.73189998
-0.042350955 -0.087318577 0.73199999
-0.037665907 -0.087471239 0.73240006
-0.032630052 -0.0875073 0.73244452
-0.027975136 -0.08733917 0.7323333
-0.022157146 -0.088489346 0.73159999
-0.017693145 -0.089022294 0.73140001
-0.012956001 -0.089022294 0.73140001
-0.1023124 -0.080818288 0.73280007
-0.097706459 -0.0817471 0.73222232
-0.092521094 -0.082562998 0.73200005
-0.087764762 -0.083077669 0.73190916
-0.082068257 -0.083154403 0.73233342
-0.077531189 -0.083106905 0.73175001
-0.072318099 -0.083658785 0.73114288
-0.06737116 -0.083293885 0.73142856
-0.062992662 -0.083691701 0.73142856
-0.058480002 -0.084239051 0.73100001
-0.05360667 -0.084239051 0.73100001
-0.030263811 -0.095014289 0.73900002
-0.028152384 -0.095014289 0.73900002
-0.023225715 -0.095014296 0.73900002
-0.016187619 -0.096421912 0.73900002
-0.013372382 -0.09642192 0.73900002
-0.082345724 -0.090791434 0.73900002
-0.077517524 -0.091023818 0.73860008
-0.073900007 -0.090791434 0.73900002
-0.06733112 -0.090791434 0.73900002
-0.062341642 -0.091655925 0.73785716
-0.057859581 -0.091592923 0.73788887
-0.052702382 -0.091351919 0.73783344
-0.047714047 -0.091217384 0.73675001
-0.041995242 -0.091438673 0.73740005
-0.037615921 -0.091184095 0.73728579
-0.032096893 -0.091822952 0.73700005
-0.027361903 -0.092376299 0.73666668
-0.022213439 -0.09282995 0.73655558
-0.017535716 -0.093991905 0.73650002
-0.013605716 -0.094119243 0.73640007
-0.10064477 -0.086568579 0.73900002
-0.09774255 -0.086490482 0.7383334
-0.092224769 -0.086842552 0.73733342
-0.087255366 -0.087608941 0.73737502
-0.082633346 -0.087611876 0.73700005
-0.077481434 -0.088175006 0.73625004
-0.072015055 -0.088581145 0.73700005
-0.067382872 -0.087739378 0.73699999
-0.062433202 -0.088088445 0.73657149
-0.057478096 -0.08902096 0.73600006
-0.053973336 -0.08902096 0.73600006
-0.10141259 -0.08402019 0.73640007
-0.09752129 -0.084892064 0.73666668
-0.093927622 -0.084815241 0.73600006
-0.082011431 -0.084815241 0.73600006
-0.013444763 -0.10543524 0.74300003
-0.013444763 -0.10118953 0.74300003
-0.066516198 -0.09552858 0.74300003
-0.06218667 -0.095400006 0.74200004
-0.057265084 -0.095442861 0.74233341
-0.052329049 -0.095464289 0.74250007
-0.047025241 -0.095818102 0.74250007
-0.042428575 -0.096171908 0.74250007
-0.037280004 -0.096484371 0.74257147
-0.032711603 -0.096978799 0.74227273
-0.027560001 -0.096813343 0.74200004
-0.022153337 -0.097328588 0.74233341
-0.017939432 -0.097609915 0.74160004
-0.013706097 -0.099048577 0.74180007
-0.10118953 -0.091282859 0.74300003
-0.097651437 -0.091282859 0.74300003
-0.09305191 -0.091636673 0.74300003
-0.087378949 -0.092089422 0.74188894
-0.082735725 -0.09334334 0.74250001
-0.078033343 -0.092864767 0.74150002
-0.071899824 -0.09224268 0.74160004
-0.06761834 -0.092865251 0.74150002
-0.063428581 -0.093733341 0.74000001
-0.057085719 -0.093733341 0.74000001
-0.052223813 -0.093860008 0.74100006
-0.047219053 -0.093733341 0.74000001
-0.042448383 -0.093502104 0.74040002
-0.037352383 -0.093733341 0.74000001
-0.034533337 -0.093733341 0.74000001
-0.10187372 -0.088593334 0.74180007
-0.097438216 -0.088965833 0.74137497
-0.092801906 -0.089273341 0.741
-0.088800006 -0.089504771 0.74000001
-0.016384764 -0.10614477 0.74800003
-0.014940001 -0.10671429 0.74700004
-0.052716196 -0.10044572 0.74800003
-0.047017146 -0.10044572 0.74800003
-0.042742863 -0.10044572 0.74800003
-0.037502181 -0.10132913 0.7470001
-0.033248335 -0.10116835 0.74675006
-0.027757464 -0.10035619 0.74733341
-0.022297304 -0.10080874 0.74716663
-0.017503146 -0.10217706 0.74710006
-0.013983335 -0.10332461 0.74650002
-0.10183643 -0.096495479 0.74775004
-0.097596198 -0.096171431 0.74800003
-0.092609532 -0.096171431 0.74800003
-0.087174676 -0.096561342 0.74660009
-0.082414292 -0.095914289 0.74600005
-0.077649534 -0.096171431 0.74800003
-0.072159626 -0.096353531 0.74720007
-0.067963094 -0.097143583 0.74725008
-0.062245913 -0.097855054 0.74779999
-0.057639208 -0.098199844 0.74716675
-0.052558336 -0.098013572 0.74575001
-0.047873717 -0.098162107 0.74580002
-0.042630479 -0.098756194 0.74600005
-0.03831429 -0.09862382 0.74500006
-0.027671432 -0.098623827 0.74500006
-0.02412381 -0.09862382 0.74500006
-0.10178138 -0.09346164 0.74585718
-0.097400486 -0.093846522 0.74650002
-0.092423663 -0.094083659 0.74650002
-0.087980956 -0.09436667 0.74500006
-0.077545717 -0.094620012 0.7470001
-0.073229529 -0.094201915 0.74650002
-0.070997149 -0.10542001 0.75300002
-0.06956286 -0.10542001 0.75300002
-0.063825719 -0.10542001 0.75300002
-0.055220004 -0.10542001 0.75300002
-0.052317306 -0.10606682 0.75250006
-0.047125336 -0.10671277 0.75199997
-0.042255245 -0.10742858 0.75199997
-0.038128465 -0.10706244 0.75222224
-0.031974923 -0.10690445 0.75166672
-0.026968258 -0.10620338 0.75177777
-0.022188097 -0.10628334 0.75150007
-0.019285716 -0.10642858 0.75000006
-0.10111715 -0.10111715 0.75300002
