# .PCD v0.7 - Point Cloud Data file format
VERSION 0.7
FIELDS x y z
SIZE 4 4 4
TYPE F F F
COUNT 1 1 1
WIDTH 1319
HEIGHT 1
VIEWPOINT 0 0 0 1 0 0 0
POINTS 1319
DATA ascii
-0.032791238 0.01700381 0.63760006
-0.029028574 0.019352382 0.63500005
-0.010803947 0.01841048 0.63528579
-0.0076697841 0.016833769 0.63745463
-0.031037144 0.02069143 0.63900006
-0.028075386 0.022562716 0.63761544
-0.024431115 0.024431115 0.63600004
-0.019352382 0.02479524 0.63500005
-0.011616668 0.023339048 0.63650012
-0.0091214292 0.020675715 0.63850003
-0.022721654 0.028228706 0.63786674
-0.017483335 0.027928695 0.63575
-0.012989144 0.027680764 0.63740009
-0.021300003 0.031037144 0.63900006
-0.017013334 0.030988574 0.63800001
-0.013378573 0.031012859 0.63850003
-0.052133337 -0.0055200006 0.64400005
-0.042231113 -0.0055085719 0.6426667
-0.038026672 -0.0055200006 0.64400005
-0.025146669 -0.0055200006 0.64400005
-0.022938667 -0.0060106674 0.64400005
-0.0064400006 -0.005826667 0.64400005
-0.0028622225 -0.0059288898 0.64400005
-0.052236054 -0.002495971 0.64292318
-0.047687966 -0.002179252 0.64078563
-0.043133732 -0.0028497623 0.64091665
-0.038137358 -0.003468995 0.64244449
-0.03267704 -0.0026516404 0.64200008
-0.027196271 -0.0027529369 0.6417501
-0.022243446 -0.0026830037 0.64192313
-0.017083177 -0.0023269847 0.64213341
-0.012234346 -0.0024504168 0.64231259
-0.0072179055 -0.0023274925 0.64226675
-0.0024459525 -0.0024483337 0.64200008
0.0011030476 -0.0015929526 0.64300007
-0.0516981 0.0014307937 0.64366674
-0.04765524 0.002444762 0.6415
-0.044190478 0.0033523813 0.64000005
-0.0079238107 0.00060952385 0.64000005
-0.0020321433 0.0022359528 0.64024997
0.0012252382 0.0024476193 0.64250004
-0.046973221 0.0065805954 0.64262497
-0.043595526 0.0075728572 0.64110005
-0.002137064 0.007331985 0.64141673
0.0006117461 0.0067304773 0.64233339
-0.042107243 0.011873906 0.64260006
-0.038867623 0.013226985 0.64100003
-0.0033622622 0.011924407 0.64212501
-0.037415482 0.016821828 0.64225006
-0.034372069 0.018508574 0.64066672
-0.0057947617 0.017995715 0.64050007
-0.0037567348 0.016867213 0.64228576
-0.036465243 0.021144286 0.64350003
-0.03324021 0.022159526 0.64121431
-0.028647622 0.02499048 0.64000005
-0.0073280176 0.021991191 0.64141673
-0.032192577 0.025581909 0.6426
-0.027967451 0.027411779 0.64218193
-0.024990479 0.029866669 0.64000005
-0.010868954 0.028212575 0.64120007
-0.0087815877 0.025529526 0.64333338
-0.025760002 0.03066667 0.64400005
-0.022153702 0.033441909 0.64200008
-0.017095637 0.033581831 0.64108336
-0.012494721 0.033267364 0.64145452
-0.021057781 0.036595561 0.64400005
-0.017105186 0.037004448 0.64400005
-0.012523811 0.03669633 0.64371437
-0.058187626 -0.005962858 0.64766669
-0.04621429 -0.0067780958 0.64700001
-0.042116672 -0.0069855563 0.64716673
-0.036574896 -0.0075629442 0.64690906
-0.03193032 -0.0068806363 0.6468333
-0.027261648 -0.0068869274 0.64654541
-0.021709645 -0.0075458344 0.64662504
-0.017209882 -0.0061467863 0.64537501
-0.012295239 -0.0061480957 0.6455
-0.0075019053 -0.0076245717 0.64560002
-0.0027208165 -0.0079874843 0.64514291
0.0024670239 -0.0061634528 0.64712501
0.0059657148 -0.0059657148 0.648
-0.057923451 -0.0024636905 0.64700001
-0.054699689 -0.0022526986 0.64533341
-0.031955481 -0.0043016667 0.64525002
-0.02887143 -0.0043000001 0.64500004
-0.02027143 -0.0043000001 0.64500004
-0.017814286 -0.0043000001 0.64500004
-0.0092142867 -0.0043000001 0.64500004
0.0030755845 -0.0028516881 0.64572728
0.0063733333 -0.0026725926 0.64755559
-0.057623811 0.00086380955 0.64780003
-0.053408254 0.0029411642 0.64622217
0.0036910714 0.0024617857 0.64587504
0.0055485722 0.0018501589 0.64733338
-0.051555246 0.0059565092 0.64700001
-0.048583403 0.0079945587 0.6457144
-0.00061428576 0.0092142867 0.64500004
0.0022575662 0.0075915358 0.64622223
-0.046752658 0.012063948 0.64714283
-0.04427461 0.012914287 0.64566672
-0.0011414967 0.012563539 0.64571428
0.00086304761 0.011962858 0.64740002
-0.045051433 0.015428573 0.648
-0.042400002 0.017083984 0.64690906
-0.039652385 0.018135715 0.64550006
-0.0014367197 0.017458731 0.64700001
0.00061714288 0.015428573 0.648
-0.037803017 0.022394447 0.64716673
-0.005532858 0.02336143 0.64550006
-0.00360381 0.021542316 0.64628577
-0.035874289 0.026011432 0.64720005
-0.032473691 0.028164407 0.646375
-0.0070564109 0.027428137 0.64661545
-0.0040114289 0.02777143 0.648
-0.031442858 0.030825717 0.64733338
-0.027307544 0.032236114 0.64674997
-0.010450954 0.030738574 0.64550006
-0.0088368263 0.03062032 0.64733338
-0.025302859 0.035177145 0.648
-0.022027051 0.038144577 0.64600003
-0.017287757 0.039402045 0.6450001
-0.012702223 0.038515873 0.64533341
-0.020950478 0.041901909 0.64700001
-0.01722917 0.041845124 0.64612502
-0.013535239 0.041220956 0.64600003
-0.04042381 -0.01554762 0.65300006
-0.030473335 -0.01554762 0.65300006
-0.026120003 -0.01554762 0.65300006
-0.023010477 -0.015547621 0.65300006
-0.070879214 -0.011813175 0.6528334
-0.067339048 -0.011395768 0.65266669
-0.062391151 -0.011558192 0.65249997
-0.057481907 -0.012429526 0.65250003
-0.045674767 -0.011497144 0.65250003
-0.042047486 -0.012154697 0.65200007
-0.037239347 -0.012415655 0.65168744
-0.032156006 -0.012293017 0.65179998
-0.027316548 -0.012419048 0.65187502
-0.02235161 -0.012419943 0.65193748
-0.017656384 -0.01156419 0.65280002
-0.012811239 -0.010821144 0.65300006
-0.0070805713 -0.010808191 0.6522001
-0.0022198642 -0.011098505 0.6525715
0.0024859526 -0.011190001 0.65275002
0.0074567865 -0.011183929 0.65237498
0.010572381 -0.010572381 0.65300006
-0.066863343 -0.0074588447 0.65264285
-0.062071674 -0.0074500004 0.65175003
-0.058900002 -0.0080600008 0.65100002
-0.04522524 -0.0086738104 0.65050006
-0.042398371 -0.0087629948 0.65057153
-0.038380954 -0.0092857145 0.65000004
-0.032500003 -0.0089761913 0.65000004
-0.027238097 -0.0092857145 0.65000004
-0.022089845 -0.0092904773 0.6503334
-0.017366191 -0.0086840484 0.65125
-0.012410477 -0.0086873816 0.65150005
-0.0086738104 -0.0092928577 0.65050006
-0.0010349207 -0.0089003183 0.65200007
0.0024803574 -0.0086853579 0.651375
0.0077738469 -0.0077753132 0.65100002
0.010978891 -0.0070436518 0.65250009
-0.065681279 -0.0039365082 0.65266675
-0.062517062 -0.0025357578 0.65109092
0.0087571442 -0.0022110208 0.65014291
0.010556191 -0.0031047622 0.65200007
-0.061459213 0.0016560319 0.65183342
-0.057317268 0.0032536907 0.65062499
0.0074469056 0.0020166668 0.65149999
-0.056354564 0.0064789122 0.65228575
-0.052724864 0.0080648586 0.65130001
0.0043366672 0.0074352389 0.65050006
0.0055842865 0.0074466672 0.65149999
-0.051808834 0.011808487 0.65254551
-0.048762098 0.012781525 0.65140003
0.0031013337 0.012399811 0.65100002
0.0055971434 0.011816191 0.65300006
-0.046668578 0.017128 0.65160006
-0.043952383 0.019190477 0.65000004
0.0014490476 0.016959209 0.65150011
-0.045399051 0.021144763 0.65300006
-0.041964427 0.022180207 0.65207148
-0.039000001 0.023523811 0.65000004
-0.001583069 0.022790903 0.65066671
-0.040361907 0.025459049 0.65200001
-0.037314288 0.027363811 0.65300006
-0.0024791667 0.02649988 0.65087503
-0.032252621 0.032873813 0.65125006
-0.02909524 0.034047622 0.65000004
-0.0068231756 0.031430475 0.65133339
-0.0043466669 0.030426668 0.65200001
-0.031382859 0.035731908 0.65250003
-0.02729864 0.037225988 0.65142864
-0.024180003 0.039060004 0.65100002
-0.025987813 0.041406479 0.65280008
-0.023086285 0.042572197 0.65160006
-0.017353097 0.044003099 0.65075004
-0.013655 0.043450721 0.65175003
-0.02144786 0.045692623 0.65275007
-0.017386667 0.045329526 0.65200001
-0.013681905 0.045399051 0.65300006
-0.076705448 -0.01673755 0.65785718
-0.072590545 -0.017523274 0.65706247
-0.067701407 -0.017396383 0.65700001
-0.062704235 -0.016772807 0.65766668
-0.057727944 -0.017016511 0.65766668
-0.052248575 -0.015912572 0.65780002
-0.047352307 -0.017001512 0.65708339
-0.044358097 -0.016869843 0.65600002
-0.035611432 -0.016869208 0.65600008
-0.032523133 -0.017512655 0.65671432
-0.027861908 -0.01766176 0.65684623
-0.022353409 -0.017931577 0.65615392
-0.017825637 -0.016993575 0.65675008
-0.012934129 -0.016064605 0.65716672
-0.0071022226 -0.016084446 0.65800005
-0.0025058098 -0.016662193 0.6577
0.0026738532 -0.016786061 0.65718192
0.0073839049 -0.016647333 0.65710002
0.012528095 -0.016287383 0.65775001
0.017120637 -0.016076509 0.65766668
-0.076783054 -0.012776001 0.65760005
-0.073245727 -0.012873334 0.65620005
-0.067147762 -0.013822314 0.65542865
-0.062044289 -0.013950001 0.65583342
-0.059352383 -0.014369525 0.65600002
-0.051687762 -0.013480411 0.65614295
-0.047873855 -0.013005282 0.65590918
-0.043666668 -0.01434762 0.65500003
-0.034309525 -0.01434762 0.65500003
-0.017050795 -0.013931748 0.65500003
-0.01231065 -0.013219221 0.65527278
-0.007669264 -0.013238271 0.65618193
-0.0027064553 -0.013532699 0.65577781
0.0024959526 -0.013734524 0.65550005
0.0074857147 -0.013723809 0.65500003
0.012614543 -0.012614414 0.65566671
0.017531311 -0.012521666 0.65737504
0.020680001 -0.013160001 0.65800005
-0.071925625 -0.0081303809 0.65670007
-0.069242865 -0.0056142863 0.65500003
0.01337286 -0.0077471435 0.65610003
0.016434882 -0.0079817865 0.65737504
-0.067859344 -0.0021633701 0.6564616
-0.064252384 -0.0018714287 0.65500003
0.012423676 -0.0031284357 0.65685725
-0.066992953 0.0011274286 0.65740007
-0.062826127 0.0031287079 0.65685719
-0.059261907 0.004366667 0.65500003
0.0086171431 0.0036217147 0.65560001
0.010637144 0.001252381 0.65700006
-0.061367147 0.0062619057 0.65750003
-0.058134079 0.008265079 0.65633339
0.0081151593 0.007489603 0.65541679
0.010604762 0.008733334 0.65500003
-0.056460597 0.012043929 0.65687501
-0.053372003 0.013874478 0.65620005
0.0043733334 0.014369525 0.65600002
0.0076637235 0.012432208 0.65563649
0.010604762 0.010604762 0.65500003
-0.051420823 0.016902722 0.65728581
-0.048827052 0.018357337 0.65560001
0.0028104763 0.017478574 0.65549999
0.0060485722 0.016060635 0.65700001
-0.047311913 0.022404287 0.65710002
-0.044324286 0.023723334 0.65550005
0.0006266667 0.020680001 0.65800005
-0.045746669 0.025693335 0.65800005
-0.04232439 0.027047811 0.65740007
-0.038130052 0.028128998 0.65633339
-0.040733337 0.031333335 0.65800005
-0.037134636 0.032017577 0.65681821
-0.034388095 0.033763334 0.65649998
-0.0071312385 0.034164004 0.65700001
-0.0033758096 0.031874862 0.65620005
-0.035720002 0.035720002 0.65800005
-0.03235786 0.03767024 0.65650004
-0.02931905 0.039300002 0.65500003
-0.010637144 0.038794287 0.65700001
-0.0082652383 0.037196096 0.65750003
-0.030691113 0.041966032 0.65766668
-0.028130911 0.042906329 0.65636367
-0.011258334 0.042531911 0.65675002
-0.0090830959 0.041656911 0.65775007
-0.026084445 0.046118096 0.65733337
-0.022681907 0.047919832 0.65654552
-0.017475557 0.048058417 0.65533346
-0.012878194 0.047517814 0.65650004
-0.021669716 0.051230479 0.65760005
-0.017352037 0.051828753 0.65709096
-0.013988256 0.051152065 0.65766668
-0.08141946 -0.021549527 0.66271436
-0.076966755 -0.022081036 0.66241682
-0.072306767 -0.022083906 0.66250008
-0.06737683 -0.021524765 0.66255563
-0.062511429 -0.02115286 0.66300005
-0.058091436 -0.020837145 0.66300005
-0.052817151 -0.021964679 0.66236377
-0.047963977 -0.022089368 0.6626668
-0.043535717 -0.021452859 0.66250008
-0.031892765 -0.021556383 0.66180009
-0.027745834 -0.021440836 0.66212505
-0.02269274 -0.021433216 0.66187501
-0.018052954 -0.021083431 0.66280001
-0.006314286 -0.020837145 0.66300005
-0.0022715239 -0.021831717 0.66250008
0.0021464764 -0.021077145 0.6626001
0.0075771436 -0.020837145 0.66300005
0.011997144 -0.020837147 0.66300005
-0.08524286 -0.018942859 0.66300005
-0.082267396 -0.01796627 0.66191673
-0.078601673 -0.018078094 0.66025007
-0.066000007 -0.019485716 0.66000003
-0.062821776 -0.018604629 0.66057146
-0.057535481 -0.019178811 0.66025001
-0.053029787 -0.018363984 0.66072732
-0.048437148 -0.019186191 0.66050005
-0.043413974 -0.0195054 0.6606667
-0.02577143 -0.019485716 0.66000003
-0.016663097 -0.019178811 0.66025001
-0.012334476 -0.018503239 0.66079998
-0.0078033344 -0.018500287 0.66070002
-0.002514286 -0.019066667 0.66000009
0.0021371432 -0.019234288 0.66000003
0.0077547617 -0.019071272 0.66016674
0.012580953 -0.018871907 0.66050005
0.017876096 -0.01850619 0.66090006
0.021444762 -0.01766143 0.6622501
-0.08169096 -0.013019843 0.66150004
-0.079449847 -0.012158096 0.6603334
0.021597622 -0.012371588 0.66050005
-0.08047691 -0.0085207149 0.66275007
-0.077162087 -0.0077314284 0.66163647
-0.073861532 -0.0066683814 0.66060007
0.018717976 -0.0070770248 0.66062504
0.021081191 -0.0078654764 0.66075003
-0.072199538 -0.0027717145 0.66150004
0.013643652 -0.0014687304 0.66116667
0.017278954 -0.003278191 0.66210008
-0.071526036 0.0018936507 0.66266674
-0.067976303 0.0030110055 0.66155559
-0.06479191 0.0037747622 0.66050005
0.01287177 0.0027000685 0.6615001
0.015785715 0.0012628572 0.66300005
-0.066547088 0.0073635993 0.66266674
-0.063059822 0.0078041912 0.6608001
0.012333742 0.0062104766 0.6615715
-0.065037146 0.011997144 0.66300005
-0.062329151 0.01223962 0.66240013
-0.059028693 0.013066785 0.661125
-0.057387084 0.016486397 0.66214293
-0.053762544 0.018107938 0.66066676
0.0039085718 0.018537525 0.66200012
0.0076293126 0.017429525 0.66144454
-0.05243836 0.022178443 0.66190916
-0.049361672 0.023580715 0.66025001
0.0011360002 0.022598861 0.66280001
-0.051145718 0.025888573 0.66300005
-0.047852237 0.02758689 0.66176933
-0.043636385 0.029048953 0.66020006
-0.046094287 0.030940002 0.66300005
-0.042792387 0.032595675 0.66163641
-0.03860629 0.033827621 0.66020006
-0.0069142859 0.033314288 0.66000003
-0.00356508 0.033767622 0.6606667
-0.041523241 0.036979623 0.66260004
-0.037928704 0.037929337 0.66153347
-0.033969052 0.039000954 0.66050005
-0.0062871436 0.038352862 0.66016674
-0.0041535245 0.037635814 0.66080004
-0.036990862 0.041535623 0.66280001
-0.033027429 0.04260857 0.66180009
-0.00764762 0.042744499 0.66142863
-0.030940002 0.046094287 0.66300005
-0.027916506 0.048066985 0.66116667
-0.024514288 0.049657147 0.66000003
-0.011016191 0.048788097 0.66100001
-0.0091383345 0.046954051 0.66175008
-0.026704129 0.051935874 0.66233337
-0.02290505 0.053359907 0.66070002
-0.017977143 0.054434288 0.66000003
-0.012924049 0.052960247 0.66200006
-0.021247622 0.056589842 0.66266674
-0.017583281 0.056953866 0.66200006
-0.014522858 0.056197148 0.66300005
-0.087288581 -0.026122859 0.66900003
-0.082348771 -0.026346479 0.66820014
-0.077360958 -0.027102858 0.66799992
-0.072532833 -0.027537949 0.66761553
-0.067394212 -0.027340557 0.66758335
-0.062545337 -0.027078671 0.6674
-0.057146866 -0.027111048 0.66820008
-0.051905431 -0.027098954 0.66790009
-0.046857886 -0.026928995 0.66788894
-0.042009532 -0.027371114 0.66833341
-0.036926191 -0.027377618 0.66850013
-0.032473125 -0.027379788 0.66855556
-0.027999213 -0.027364289 0.66816676
-0.023073509 -0.027238011 0.66790915
-0.017840002 -0.026122859 0.66900003
-0.012306668 -0.02652159 0.66833347
-0.0085320016 -0.026871813 0.66860002
-0.00063714292 -0.026122859 0.66900003
0.00063714292 -0.026122859 0.66900003
0.0095571438 -0.026122859 0.66900003
0.012742858 -0.026122859 0.66900003
0.017202858 -0.026122859 0.66900003
0.021025715 -0.026122859 0.66900003
-0.096208587 -0.023574289 0.66900003
-0.092900842 -0.022907503 0.66812503
-0.087704822 -0.02288161 0.66731244
-0.08292339 -0.023743281 0.6657778
-0.077266671 -0.024700001 0.66500002
-0.071841151 -0.024454096 0.6652
-0.06700024 -0.023917619 0.66525
-0.06204303 -0.023561994 0.66536361
-0.057242606 -0.023578357 0.66581821
-0.051933333 -0.024700001 0.66500002
-0.047523178 -0.024712382 0.66533339
-0.043090597 -0.024080597 0.66537499
-0.038471431 -0.024505714 0.66659999
-0.032753475 -0.024224764 0.66685718
-0.027914168 -0.024107501 0.666125
-0.022821549 -0.024089167 0.66562498
-0.017592382 -0.023591343 0.6661818
-0.012677441 -0.022820421 0.66556245
-0.0080123814 -0.022659482 0.66590911
-0.0025485717 -0.024211431 0.66900003
0.0027148922 -0.02362762 0.66718185
0.0076292865 -0.023526115 0.66758341
0.012830405 -0.023272162 0.66592306
0.017772442 -0.022851966 0.66643751
0.022712385 -0.022622043 0.6677143
0.026122859 -0.021662857 0.66900003
-0.091490798 -0.018254923 0.66866672
-0.087899059 -0.017596737 0.66671431
-0.084233336 -0.015833335 0.66500002
0.024089884 -0.017749645 0.66562498
0.026122859 -0.019114286 0.66900003
-0.087301791 -0.013833691 0.66787499
-0.083916359 -0.012258573 0.66583341
0.023521431 -0.013984287 0.66750002
-0.082889952 -0.0077015883 0.6677779
-0.078592867 -0.0057042865 0.66550004
0.021882858 -0.0072947619 0.66600001
-0.077167779 -0.0028820517 0.66707695
-0.074100003 -0.0012666668 0.66500002
0.018366668 -0.0012666668 0.66500002
0.021720359 -0.0028539288 0.66587496
-0.075820006 0.00063714292 0.66900003
-0.073143937 0.0033324999 0.66637504
0.018015036 0.0027161224 0.66535711
0.02093143 0.0012685715 0.66600001
-0.071491435 0.0069923815 0.6672501
-0.068609715 0.0084973341 0.66580003
0.014127049 0.0085293343 0.66820014
0.016516192 0.0063523818 0.66700006
-0.067232385 0.012065851 0.66685718
-0.063333333 0.014566667 0.66500002
-0.06562572 0.015928572 0.66900003
-0.062063634 0.017378444 0.6668182
-0.05811429 0.018808257 0.6656667
0.008553572 0.019324049 0.66525006
-0.056725722 0.02239323 0.66755557
-0.053240478 0.024718571 0.66550004
0.0034200002 0.023053333 0.66500002
0.0068604341 0.022655588 0.66581815
-0.055431433 0.026122859 0.66900003
-0.052305438 0.028057052 0.66649997
-0.048766669 0.029766669 0.66500002
-0.00095095241 0.028839048 0.66549999
0.0022970696 0.02760374 0.66684622
0.0057171434 0.026044764 0.66700006
-0.051095404 0.032014448 0.66783345
-0.047142945 0.03306416 0.66645455
-0.043700002 0.034833334 0.66500002
-0.00088895246 0.032905716 0.667
-0.05033429 0.03504286 0.66900003
-0.046653815 0.036622141 0.66875005
-0.043031242 0.038206484 0.66640002
-0.0016939684 0.037515875 0.66766679
-0.045237146 0.040140003 0.66900003
-0.042212229 0.042211592 0.66816682
-0.038184766 0.043004576 0.66600001
-0.033566669 0.043700002 0.66500002
-0.0061349212 0.0433654 0.66633338
-0.0033232805 0.041939367 0.66833341
-0.040140003 0.04587429 0.66900003
-0.036782667 0.046838861 0.66820008
-0.033068053 0.047149789 0.66654551
-0.0069855792 0.046725444 0.66685718
-0.0038228575 0.04587429 0.66900003
-0.031965908 0.051068764 0.66860002
-0.029009841 0.052513972 0.66700006
-0.011194287 0.053438097 0.66533339
-0.0085469848 0.051929634 0.66766673
-0.026322288 0.056843814 0.6676001
-0.023493621 0.057782579 0.66670007
-0.017944448 0.058900006 0.66500008
-0.012626322 0.05725836 0.66600007
-0.0095571438 0.055431433 0.66900003
-0.021025715 0.06116572 0.66900003
-0.017321801 0.061439257 0.66811115
-0.014214922 0.061317783 0.66833341
0.028885717 -0.035304762 0.67400002
0.030080002 -0.035200004 0.67200005
-0.091702238 -0.030781589 0.67333335
-0.08707238 -0.030732146 0.67225003
-0.081943817 -0.031255133 0.67277771
-0.077590287 -0.032011624 0.67220002
-0.072982863 -0.032193229 0.67155558
-0.067827024 -0.031994168 0.671875
-0.062773108 -0.031388655 0.67258328
-0.057842229 -0.031234818 0.6723333
-0.052483525 -0.031183144 0.67369998
-0.047679909 -0.031659715 0.67290002
-0.042278931 -0.032031067 0.67262495
-0.036853746 -0.031915784 0.67214292
-0.032151576 -0.03244872 0.67207688
-0.027506351 -0.031984448 0.67166674
-0.022894384 -0.03197762 0.67150003
-0.017918019 -0.031357221 0.67191666
-0.013237937 -0.030530319 0.67250007
-0.0064000003 -0.030080002 0.67200005
-0.0025628572 -0.0305527 0.67300004
0.0022925171 -0.030719733 0.67400008
0.0079738777 -0.030706944 0.6737144
0.012813811 -0.030755479 0.67275
0.018012172 -0.030970689 0.67277783
0.022575345 -0.031123281 0.67300004
0.027353942 -0.031670477 0.67363638
0.031933717 -0.031934984 0.67333329
0.036227625 -0.0316649 0.67071432
-0.10077906 -0.026318099 0.67400002
-0.097461678 -0.026930718 0.67324996
-0.092105716 -0.027505144 0.67160004
-0.087839596 -0.02782109 0.67042863
-0.083279334 -0.028185716 0.67042863
-0.077847622 -0.029352384 0.67000002
-0.072530165 -0.029990477 0.67000002
-0.067638099 -0.029990477 0.67000002
-0.061257146 -0.028714288 0.67000002
-0.058066666 -0.029139683 0.67000002
-0.053600006 -0.028714288 0.67000002
-0.047091432 -0.029224763 0.67000002
-0.042114288 -0.029990477 0.67000002
-0.037009526 -0.029990477 0.67000002
-0.031904764 -0.029990477 0.67000002
-0.028076194 -0.029990477 0.67000002
-0.022971429 -0.029671431 0.67000002
-0.01788 -0.028097618 0.67050004
-0.013194287 -0.028303176 0.67033339
-0.0070202728 -0.027808845 0.67014289
-0.0027277928 -0.027569702 0.67036372
0.0027295239 -0.027584938 0.67072731
0.0074929884 -0.027592557 0.67090911
0.012768691 -0.028092265 0.67037505
0.018085716 -0.027873019 0.67022228
0.023152035 -0.027561909 0.67018193
0.027484233 -0.027484022 0.67111111
0.032034524 -0.027552146 0.67275
0.0365116 -0.027920609 0.67045462
-0.10077906 -0.023750478 0.67400002
-0.098298736 -0.022815134 0.67166668
-0.0070190481 -0.024885718 0.67000002
-0.0038285716 -0.024885716 0.67000002
0.02424762 -0.024885716 0.67000002
0.027701909 -0.023233907 0.67020005
0.031833906 -0.023140196 0.67119998
0.035573654 -0.024496829 0.671
-0.096143812 -0.01922762 0.67300004
-0.093537949 -0.017470319 0.67116678
0.027830955 -0.017912382 0.67175007
-0.091578387 -0.013080682 0.67242867
-0.088145092 -0.011709525 0.67066669
0.02447889 -0.012345556 0.67050004
0.026920956 -0.012819048 0.67299998
-0.09050858 -0.0089866668 0.67400002
-0.08738222 -0.0076800007 0.67216671
-0.084290959 -0.0063852388 0.67050004
0.024306549 -0.0076748817 0.67162502
0.026543621 -0.0080788583 0.67320007
-0.085373342 -0.0044933334 0.67400002
-0.081792586 -0.0028146671 0.67199999
-0.07848572 -0.00063809525 0.67000002
-0.080238104 0.00064190483 0.67400002
-0.077260002 0.0024892066 0.67166668
-0.076039247 0.0073100957 0.67320007
-0.073471919 0.0080938106 0.67083335
0.017309334 0.0078243818 0.67320007
-0.071965724 0.011746033 0.67266673
-0.068736389 0.013696382 0.67200005
0.013149159 0.01314828 0.67215389
0.016047619 0.010912382 0.67400002
-0.066290006 0.017933335 0.67250001
-0.063514531 0.019469287 0.67025006
0.012402065 0.017531591 0.67349994
-0.062512666 0.02216105 0.67250007
-0.058551114 0.024058733 0.67066669
0.0096142869 0.021793336 0.67300004
0.010880001 0.021120001 0.67200005
-0.060980957 0.025676193 0.67400002
-0.057398412 0.027524553 0.67211115
-0.0542381 0.029352382 0.67000002
0.0036158734 0.029565081 0.67000002
0.0065249535 0.027760381 0.67160004
-0.056243241 0.03113162 0.67259997
-0.053481437 0.033026192 0.67116666
0.0023839828 0.032492727 0.67136365
0.0060938098 0.031110002 0.6735
-0.051738814 0.036841668 0.67275
-0.048343655 0.038121115 0.67083335
-0.00063809525 0.038923811 0.67000002
0.001923016 0.037128735 0.67216671
-0.046886884 0.04176392 0.67233342
-0.044094287 0.044094287 0.671
-0.0010636509 0.042550638 0.67016667
0.0019197403 0.041804943 0.67154551
-0.042496331 0.046336062 0.67171425
-0.03834286 0.048568573 0.671
-0.0061711119 0.048732385 0.67033339
-0.0024294287 0.047568291 0.67130005
0.00063952385 0.046046194 0.67150003
-0.036255874 0.052069213 0.67311108
-0.032964088 0.053235378 0.67114294
-0.029990477 0.0542381 0.67000002
-0.006767239 0.05222667 0.67040008
-0.0040511116 0.050960958 0.67166674
-0.031682275 0.057302203 0.67253846
-0.02820354 0.05777688 0.67085719
-0.01084762 0.058704764 0.67000002
-0.0090777157 0.057406105 0.67120004
-0.030169526 0.060980957 0.67400002
-0.026828712 0.062173747 0.6730001
-0.023154361 0.062676132 0.671
-0.018508982 0.063732125 0.67014295
-0.013155874 0.063086674 0.67211109
-0.025034288 0.066116191 0.67400002
-0.022138627 0.067409955 0.67266673
-0.017926272 0.067226425 0.67225003
-0.014121906 0.066758096 0.67400002
-0.095706671 -0.035566669 0.67900002
-0.09247335 -0.035566669 0.67900008
-0.087723218 -0.036723383 0.67863637
-0.082983248 -0.036580384 0.67860001
-0.078893341 -0.035566669 0.67900002
-0.070486672 -0.035566669 0.67900002
-0.066740483 -0.035954133 0.67816675
-0.062304907 -0.036091026 0.67842859
-0.057468574 -0.035514288 0.67800009
-0.052822452 -0.036046125 0.67757148
-0.04780991 -0.036569722 0.67839998
-0.042680006 -0.036601335 0.67899996
-0.03728354 -0.037191566 0.67828578
-0.032365352 -0.036927402 0.67653859
-0.02707536 -0.036101073 0.67687505
-0.0225827 -0.036134448 0.67750001
-0.0016813334 -0.036084004 0.67900002
0.0021550795 -0.035989054 0.67883337
0.0077600004 -0.035566669 0.67900002
0.012929684 -0.035989054 0.67883337
0.017591642 -0.036980428 0.67855555
0.021874076 -0.036364239 0.67777783
0.026114861 -0.035892766 0.67540002
-0.11058001 -0.031686671 0.67900008
-0.10740268 -0.032182477 0.67853338
-0.10210199 -0.032315753 0.67753851
-0.09772709 -0.03205619 0.67699999
-0.093135722 -0.032979719 0.67630005
-0.087622859 -0.033504289 0.67650002
-0.082878105 -0.033710163 0.67633337
-0.078014292 -0.034172386 0.67700005
-0.071674287 -0.034222864 0.67800009
-0.066906668 -0.034096669 0.67550004
-0.06248223 -0.034138735 0.67633337
-0.057541914 -0.033709526 0.67633343
-0.052954923 -0.033659682 0.67533344
-0.047588333 -0.034084052 0.67525005
-0.042617146 -0.03422286 0.67800003
-0.037717529 -0.033854671 0.67580003
-0.02701024 -0.034084052 0.67524999
-0.021857144 -0.034071431 0.67500001
-0.018030239 -0.034134526 0.67624998
-0.012634098 -0.033133339 0.67680013
-0.00815746 -0.032200478 0.67616671
-0.0023616934 -0.03300127 0.67644453
0.0027911114 -0.033287197 0.67644453
0.007518413 -0.033292595 0.67655563
0.012880239 -0.033491671 0.67625004
0.017579686 -0.033445399 0.67533338
0.022280572 -0.033874858 0.67620009
0.026357144 -0.033750001 0.67500001
-0.10718774 -0.027353654 0.67844445
-0.10325557 -0.02734191 0.67550009
-0.097785719 -0.028950002 0.67550004
-0.094500005 -0.028928574 0.67500001
-0.1060016 -0.022621907 0.67866671
-0.10271583 -0.021907238 0.67660004
0.03422286 -0.020662859 0.67800003
0.035876907 -0.021009285 0.67875004
-0.10157113 -0.017585292 0.67833334
-0.097973444 -0.017765431 0.6759001
0.028928574 -0.017357145 0.67500001
0.032078542 -0.017906096 0.67633349
0.035514291 -0.017436191 0.67799997
-0.10116643 -0.014544525 0.67875004
-0.097455882 -0.012906509 0.67766678
-0.093865313 -0.012226667 0.67571437
0.028939288 -0.012861191 0.67524999
0.031649716 -0.01356324 0.67820001
0.035514288 -0.014851429 0.67800003
-0.095491111 -0.0092688892 0.67900008
-0.092345513 -0.0076648677 0.67700005
-0.089357145 -0.0057857148 0.67500001
0.02843143 -0.0081045721 0.67540002
0.030370954 -0.0090461913 0.67850006
-0.091045722 -0.0045200004 0.67800003
-0.087679259 -0.0025765309 0.6769287
-0.083602622 -0.0012859525 0.67524999
0.023495559 -0.0023711114 0.67900008
-0.086998522 0.0020833865 0.67888886
-0.082676515 0.0027102865 0.67713332
-0.079130009 0.0038604764 0.67550004
0.021986667 0.0019400001 0.67900002
-0.081920125 0.006948215 0.67862499
-0.078342445 0.0082440218 0.67733335
0.01908127 0.0081460327 0.67533338
0.021340003 0.008406667 0.67900008
-0.076635875 0.012258519 0.67744452
-0.072720818 0.014066395 0.67571437
0.017359905 0.012858763 0.67510009
-0.075660005 0.016166668 0.67900002
-0.072312787 0.017433256 0.67791671
-0.06841296 0.017652573 0.67640001
0.014142858 0.019285716 0.67500001
0.016945718 0.017160002 0.67566675
-0.070917785 0.020477779 0.67900008
-0.067503296 0.022109872 0.67736369
-0.063642859 0.023785716 0.67500001
0.0096428581 0.023785716 0.67500001
0.011997335 0.022315813 0.67720002
0.01680143 0.020031907 0.67850006
-0.065712385 0.025638733 0.67866677
-0.062754586 0.027319526 0.67650002
-0.05978572 0.028285716 0.67500001
0.0090322625 0.027097503 0.67737502
0.010993334 0.025220001 0.67900002
-0.06139484 0.031666942 0.67857146
-0.058114886 0.032520119 0.67612511
0.0045000003 0.034071431 0.67500001
0.0073088892 0.032451749 0.67700005
-0.057052862 0.036384925 0.67816675
-0.053988308 0.037985854 0.67600006
0.0045166668 0.037425242 0.67750007
0.0058114291 0.035514288 0.67800003
-0.052447829 0.041685298 0.67799997
-0.048775718 0.043619528 0.67683333
-0.046825524 0.046307433 0.67720002
-0.042452384 0.048901528 0.67740005
-0.00064380956 0.048285719 0.67600006
-0.041111115 0.051442545 0.67799997
-0.038499527 0.053341117 0.67750001
-0.0058200005 0.054320004 0.67900002
-0.035967242 0.057110865 0.67680007
-0.033659689 0.059386671 0.67533338
-0.007097688 0.057810619 0.67771429
-0.035566669 0.060140003 0.67900002
-0.031355239 0.062320959 0.67740005
-0.027975 0.063666433 0.67524999
-0.010928572 0.063000008 0.67500001
-0.0090274615 0.062557951 0.6771667
-0.030393336 0.065313339 0.67900002
-0.027172297 0.067313425 0.67781824
-0.023785716 0.06878572 0.67500001
-0.012231192 0.067923106 0.67600006
-0.0091744764 0.066289529 0.67840004
-0.025534047 0.071430713 0.67875004
-0.022412701 0.071821384 0.67666668
-0.017757144 0.071956202 0.67628586
-0.013916736 0.071431026 0.6774286
-0.10748572 -0.041040003 0.68400002
-0.091964655 -0.041831549 0.68362504
-0.08760298 -0.041771315 0.68262506
-0.082256198 -0.041020006 0.68366671
-0.077520005 -0.041365717 0.68400002
-0.072569147 -0.041300576 0.68400002
-0.067357719 -0.041300576 0.68400002
-0.062231846 -0.041581228 0.68371433
-0.056934863 -0.041300576 0.68400002
-0.051693715 -0.041276574 0.68360007
-0.047514286 -0.04193633 0.68342865
-0.042936437 -0.042287227 0.68308342
-0.037741669 -0.042297225 0.68325007
-0.032523405 -0.042653747 0.68300003
-0.027325444 -0.042662587 0.6831429
-0.022349209 -0.042746358 0.68350005
-0.014331429 -0.041040003 0.68400002
-0.0071657146 -0.041040003 0.68400002
-0.0023253064 -0.041572656 0.68357152
0.0026033334 -0.041645952 0.68325007
0.0078171436 -0.041691434 0.68400002
0.01309852 -0.041901909 0.68388891
0.016912382 -0.040980004 0.68300003
-0.11695389 -0.036379464 0.6838572
-0.11216295 -0.037547018 0.68290919
-0.10767984 -0.037541401 0.68193328
-0.10284267 -0.037408639 0.68221432
-0.097773723 -0.037317526 0.68260002
-0.092374124 -0.038426064 0.68172729
-0.087428585 -0.039504763 0.68000001
-0.082267493 -0.039233744 0.68171436
-0.077575102 -0.037815828 0.6818462
-0.072876967 -0.037804451 0.68199998
-0.067870677 -0.038616575 0.68260002
-0.062117252 -0.038743708 0.68177778
-0.057327017 -0.038436629 0.68190908
-0.052458219 -0.038817264 0.68212503
-0.047562286 -0.03900991 0.68040001
-0.04274286 -0.03907302 0.68000001
-0.038857147 -0.039504763 0.68000001
-0.031763177 -0.039543495 0.68066669
-0.027244644 -0.038922504 0.68112504
-0.021720191 -0.03849829 0.68279999
-0.017552143 -0.037707228 0.68258333
-0.012991371 -0.03767851 0.68206251
-0.0077914298 -0.037661552 0.68174994
-0.0030077924 -0.03827256 0.68109095
0.0028535237 -0.038526293 0.68099999
0.0077904775 -0.038305085 0.68166661
0.012978668 -0.038549151 0.68140006
0.016214287 -0.038915239 0.68099999
0.020076191 -0.038209528 0.68000001
-0.1205143 -0.033874288 0.68400002
-0.11720621 -0.032557052 0.68370003
-0.11317684 -0.032753337 0.68099999
-0.10556191 -0.034323812 0.68000001
-0.10426667 -0.034323812 0.68000001
-0.0064761909 -0.034323812 0.68000001
-0.0045333337 -0.034323812 0.68000001
-0.11521858 -0.027339049 0.68350005
-0.1124235 -0.027292542 0.68233341
-0.10920429 -0.026247144 0.68050003
-0.11530287 -0.024102859 0.68400002
-0.11206361 -0.022498945 0.68366671
-0.10834827 -0.021842433 0.68122226
0.036914289 -0.02137143 0.68000001
-0.10656541 -0.018447939 0.68366671
-0.10452223 -0.017526668 0.68166673
-0.10232155 -0.012669167 0.68212503
0.033518255 -0.011891905 0.68116665
0.035758734 -0.012350477 0.68266672
-0.1007254 -0.0084473025 0.68233341
-0.097550169 -0.0075684143 0.68133342
-0.093904771 -0.005828572 0.68000001
0.031873334 -0.0097571434 0.68300003
-0.096147619 -0.0041234926 0.68366671
-0.092547059 -0.0024679999 0.68239999
0.023961907 -0.00064761908 0.68000001
0.026394859 -0.002860381 0.68260008
-0.090808101 0.0016276191 0.68350005
-0.088551752 0.0041149212 0.68200004
0.023187621 0.0030800002 0.68099999
0.025644002 0.002213524 0.68340009
-0.086838827 0.007319048 0.68300003
-0.083429366 0.008430318 0.68083334
0.022479525 0.0071315877 0.68083334
-0.085988581 0.011074287 0.68400002
-0.082315795 0.013015001 0.68325007
-0.078694299 0.01362 0.68099999
-0.080125719 0.016285716 0.68400002
-0.077485964 0.017705955 0.68225002
0.018133335 0.018780954 0.68000001
-0.07661429 0.020618733 0.68366671
-0.07275743 0.022088667 0.68210006
-0.069295242 0.023961907 0.68000001
0.014076668 0.023173176 0.6821667
0.017022287 0.021962097 0.68220007
-0.071422696 0.026919525 0.68383336
-0.067840591 0.027605865 0.68138462
0.012681509 0.027310081 0.68275011
-0.067299053 0.031762477 0.68340009
-0.063155837 0.033283457 0.68187499
0.0092961919 0.032863177 0.68099999
0.011846286 0.03137086 0.68340009
-0.061013881 0.037427485 0.68257159
-0.058170326 0.038708419 0.68116677
0.0069647627 0.037232794 0.68242866
-0.057026666 0.042714924 0.68300009
-0.052820481 0.044394765 0.68050003
-0.055371433 0.046251431 0.68400002
-0.052028932 0.047151547 0.6828751
-0.048138291 0.047880005 0.68120003
-0.043390479 0.049866669 0.68000001
0.00065142859 0.048857145 0.68400002
-0.046640322 0.051630802 0.6833334
-0.043507051 0.052596577 0.68180007
-0.001952762 0.052735057 0.68360007
0.00065142859 0.050811432 0.68400002
-0.042823117 0.057140194 0.6833334
-0.038802024 0.057636552 0.68187505
-0.005828572 0.058933336 0.68000001
-0.002598393 0.057216495 0.68268752
0.0010857144 0.056891438 0.68400002
-0.041908573 0.061451435 0.68400002
-0.037736196 0.062459469 0.6831429
-0.033535399 0.063390329 0.68150008
-0.0064979768 0.062390838 0.68237501
-0.0035811907 0.060886431 0.68375003
-0.036860388 0.066296197 0.68380004
-0.032456852 0.067462571 0.68261546
-0.029142858 0.068647623 0.68000001
-0.0090880953 0.068800479 0.68150002
-0.030931668 0.07195691 0.68375003
-0.027839286 0.07311786 0.68241668
-0.022053335 0.074585721 0.68100005
-0.012177461 0.073289208 0.68099999
-0.096131906 -0.045605242 0.68900001
-0.092388585 -0.045867622 0.68800008
-0.088585719 -0.045277145 0.68900001
-0.082898736 -0.045277145 0.68900001
-0.077428006 -0.045460764 0.68780005
-0.072076514 -0.045648895 0.68800008
-0.067587629 -0.045277145 0.68900001
-0.062635519 -0.04578327 0.68814296
-0.057682626 -0.04588405 0.68825006
-0.052419052 -0.045867622 0.68800008
-0.047073614 -0.045764495 0.68785727
-0.042153023 -0.045867622 0.68800008
-0.037561052 -0.046332095 0.68710005
-0.032741528 -0.046757907 0.68760008
-0.027447412 -0.046668787 0.68800002
-0.022186562 -0.046631429 0.68744457
-0.018592063 -0.045714609 0.68900001
-0.0019685715 -0.045277145 0.68900001
0.003128466 -0.046202119 0.68755561
0.0075841914 -0.04616667 0.68660003
0.012086667 -0.045406669 0.68600005
-0.12651353 -0.041602477 0.68900007
-0.12205143 -0.042389899 0.68900007
-0.11745811 -0.041864954 0.68900007
-0.11273372 -0.042341914 0.68820012
-0.10766043 -0.042439476 0.68788892
-0.10201493 -0.042161595 0.68811119
-0.097552702 -0.042557359 0.68744451
-0.093787864 -0.043462623 0.68625009
-0.086629525 -0.043478575 0.68650007
-0.082379483 -0.042972703 0.68711114
-0.077032112 -0.043231569 0.68628573
-0.07231921 -0.043348417 0.68616676
-0.067995727 -0.043151908 0.68650007
-0.063130856 -0.043524764 0.68620008
-0.057809394 -0.043240685 0.68642867
-0.052579734 -0.043240685 0.68642867
-0.047693335 -0.043773334 0.68600005
-0.020253334 -0.04246667 0.68600005
-0.017179657 -0.042626064 0.68663633
-0.012429049 -0.042301431 0.68683338
-0.0076296306 -0.042363603 0.68666673
-0.0030081908 -0.04355029 0.68660009
0.0026133333 -0.043773334 0.68600005
0.007840001 -0.043773334 0.68600005
0.01176 -0.043773334 0.68600005
-0.12585734 -0.037665334 0.68900007
-0.12230739 -0.037935004 0.68675011
-0.11789397 -0.03900804 0.68644452
-0.11368001 -0.039853334 0.68600005
-0.10192001 -0.039853334 0.68600005
-0.098000005 -0.039853334 0.68600005
-0.12255552 -0.033049118 0.68814296
-0.11961811 -0.032028258 0.68633342
-0.12008286 -0.028216192 0.68900001
-0.11795656 -0.027973929 0.68712509
-0.11671763 -0.022950003 0.68850005
-0.11357271 -0.021144766 0.68666673
-0.11139144 -0.019001905 0.68800002
-0.1079796 -0.016733063 0.68714297
-0.10604896 -0.012714858 0.68820012
-0.10403144 -0.011122858 0.68700004
-0.10564668 -0.0098428577 0.68900001
-0.10282319 -0.008295238 0.68766677
0.028746668 -0.0058800005 0.68600005
0.032976761 -0.0079813348 0.6870001
0.035959527 -0.0091528576 0.68650007
-0.10039715 -0.0039371429 0.68900001
-0.097812034 -0.0022922622 0.68812501
-0.094802387 -0.0013071429 0.68650007
0.028937334 -0.0024885717 0.68740004
-0.095585093 0.0010936509 0.68900001
-0.092762746 0.0031094051 0.68712509
0.027357716 0.0024864764 0.68720001
-0.091559693 0.0063374611 0.68833339
-0.088361204 0.0088364296 0.68725002
0.024226192 0.0078585725 0.6875
0.025591429 0.0059057148 0.68900001
-0.086759433 0.012692383 0.68700004
-0.086315237 0.015515238 0.68833339
-0.082619309 0.017429007 0.68700004
-0.080477148 0.020282859 0.68700004
-0.076824605 0.022699844 0.68750012
-0.073826671 0.024173334 0.68600005
0.018093336 0.022888891 0.68666673
-0.075461909 0.026247621 0.68900001
-0.073444925 0.027896035 0.68650007
0.016346192 0.027459908 0.68650001
-0.071766272 0.032281637 0.68771434
-0.067826986 0.033806033 0.68700004
0.012634127 0.033328414 0.68616676
0.015585906 0.031827431 0.68760008
-0.066179052 0.036694288 0.68800002
-0.063839875 0.037669256 0.68700004
0.0084933341 0.03767556 0.68600005
-0.061724573 0.041804191 0.68800008
-0.059713338 0.043964766 0.68900001
0.0045733335 0.043773334 0.68600005
0.0059057148 0.043964766 0.68900001
-0.057477385 0.046996433 0.68774998
-0.052972071 0.049047619 0.68666673
0.0034351193 0.047427259 0.68687499
0.0059057148 0.045277145 0.68900001
-0.051352702 0.051352069 0.68833339
-0.048623651 0.05276778 0.68683338
0.0017439685 0.052086189 0.68650007
-0.047060318 0.057386458 0.68733335
-0.045834765 0.060892861 0.6875
-0.042778667 0.063708961 0.68680006
-0.039853334 0.064680003 0.68600005
-0.002709524 0.062717967 0.68700004
0.00065333338 0.060760003 0.68600005
-0.041316003 0.067549147 0.6886
-0.038347937 0.067761913 0.68633342
-0.033320002 0.069906674 0.68600005
-0.0067585721 0.067811906 0.68683338
-0.0099142864 -0.058824766 0.69400001
-0.11302286 -0.050893337 0.69400001
-0.091872387 -0.050893337 0.69400001
-0.087245725 -0.050893337 0.69400001
-0.081297152 -0.050893337 0.69400001
-0.077331431 -0.050893337 0.69400001
-0.074687622 -0.050893337 0.69400001
-0.061688893 -0.051333975 0.69400001
-0.057475876 -0.050868895 0.6936667
-0.05285643 -0.050875004 0.69375002
-0.047588579 -0.050893337 0.69400001
-0.042697527 -0.05115772 0.69400001
-0.037013337 -0.050893337 0.69400001
-0.032386668 -0.050893337 0.69400001
-0.028156573 -0.05115772 0.69400001
-0.022175649 -0.051428445 0.69357151
-0.017184762 -0.050893337 0.69400001
-0.0033047621 -0.050893337 0.69400001
-0.13638368 -0.046908576 0.69371432
-0.1322042 -0.04692553 0.69199997
-0.12754114 -0.046625119 0.69127274
-0.12246477 -0.046749216 0.69133341
-0.11725839 -0.047433041 0.69168758
-0.11239357 -0.047564398 0.69138473
-0.10808455 -0.046976119 0.69169235
-0.10278794 -0.046782862 0.69183344
-0.097568899 -0.047434498 0.69066674
-0.092047207 -0.048551962 0.69200009
-0.087282337 -0.04798745 0.69190919
-0.082740016 -0.047737464 0.69133347
-0.077677146 -0.048213769 0.69172734
-0.072474673 -0.048362479 0.69180006
-0.0669723 -0.047942515 0.69127274
-0.062594771 -0.048759528 0.69183338
-0.057870481 -0.048664287 0.69050002
-0.052656077 -0.048708931 0.69112504
-0.047494184 -0.048520427 0.69155556
-0.04223185 -0.048528153 0.69166672
-0.037620004 -0.049500003 0.69300002
-0.033000004 -0.049500003 0.69300002
-0.027827431 -0.049194288 0.6924001
-0.022777146 -0.049108576 0.69120002
-0.016760223 -0.047750112 0.69115394
-0.012518573 -0.047443181 0.69183338
-0.0079050604 -0.04743316 0.69168758
-0.0027865202 -0.047888651 0.69169235
0.0015390477 -0.048552066 0.69200009
-0.13577691 -0.043276433 0.69375002
-0.13238961 -0.042152308 0.69158334
-0.1288 -0.04271429 0.69000006
-0.12222858 -0.044028573 0.69000006
-0.11762858 -0.043700002 0.69000006
-0.11302858 -0.044028573 0.69000006
-0.10645715 -0.044028573 0.69000006
-0.10317144 -0.044028573 0.69000006
-0.011828572 -0.044028573 0.69000006
-0.0092000011 -0.044028573 0.69000006
-0.13118972 -0.037916575 0.69360006
-0.12842175 -0.037097305 0.69150007
-0.1265796 -0.033406805 0.69171435
-0.12400191 -0.031384133 0.69133341
-0.12624191 -0.029742859 0.69400001
-0.12279151 -0.027640734 0.69230771
-0.11894286 -0.025628572 0.69000006
-0.1212412 -0.023455001 0.69375002
-0.11802893 -0.021562977 0.69137502
-0.11605176 -0.018717781 0.6936667
-0.1127485 -0.016725812 0.69150001
-0.10974286 -0.01577143 0.69000006
-0.11178596 -0.012383572 0.69350004
-0.10849182 -0.012492954 0.69040006
-0.11104001 -0.0099142864 0.69400001
-0.10728037 -0.008238215 0.69212508
-0.10361358 -0.0062492862 0.69075006
0.033531114 -0.0059171431 0.69033337
0.036853813 -0.0065800007 0.69100004
-0.10509144 -0.0026438097 0.69400001
-0.10231362 -0.0023686669 0.69130003
-0.099228576 -0.0006571429 0.69000006
0.029571431 -0.0006571429 0.69000006
0.03266184 -0.0028225172 0.69178569
0.037377339 -0.0040939054 0.69340008
-0.10215411 0.001189524 0.69380003
-0.097830191 0.0029904761 0.69153845
0.029161906 0.0030692068 0.69066668
0.031049844 0.001981905 0.6936667
-0.097627625 0.0065087085 0.69328576
-0.092451245 0.0084297154 0.69139999
0.027801668 0.0075832559 0.69225001
0.031064764 0.005948572 0.69400001
-0.090948395 0.012277143 0.69300002
-0.088778578 0.013152858 0.69050002
-0.090550482 0.015201906 0.69400001
-0.087914765 0.017483335 0.69274998
-0.084771432 0.019057143 0.69000006
-0.08612366 0.021365877 0.69383335
-0.082487725 0.022439143 0.69290012
-0.079034679 0.023276573 0.69040006
0.019057143 0.023657145 0.69000006
0.020460002 0.020460002 0.69300002
-0.081297152 0.025777144 0.69400001
-0.077729881 0.027508227 0.69218177
0.018805334 0.028011048 0.69040006
-0.076009527 0.031725716 0.69400001
-0.07312192 0.033592701 0.69166672
-0.069000006 0.034828573 0.69000006
0.013860001 0.034980003 0.69300002
0.018413812 0.030908097 0.69050002
-0.071517944 0.037189689 0.69316667
-0.068103828 0.037668712 0.69042861
0.0098714288 0.038169526 0.69100004
0.012100953 0.037180323 0.69300002
-0.066641912 0.041569527 0.69280005
-0.063346483 0.043065336 0.69140005
0.0084540499 0.042373262 0.6915834
0.011228096 0.042270478 0.69350004
-0.061947193 0.047286883 0.69277787
-0.05883548 0.048317857 0.69025004
0.0046000001 0.049285717 0.69000006
0.0073978845 0.046938419 0.69200009
-0.060146671 0.050893337 0.69400001
-0.057090905 0.052254923 0.69255555
-0.053291626 0.053290863 0.69080001
0.0037878572 0.053181432 0.69150007
0.0059400005 0.051480003 0.69300002
-0.052814763 0.057434455 0.69316673
-0.048975002 0.058835953 0.69025004
0.0033047621 0.056180958 0.69400001
-0.052215241 0.060146671 0.69400001
-0.047059685 0.062669218 0.69266671
-0.001314762 0.063789055 0.69050002
-0.087653577 -0.055115957 0.69725001
-0.077084526 -0.055155482 0.69774997
-0.062443338 -0.055135719 0.69749999
-0.05118667 -0.055175241 0.69800001
-0.047729906 -0.055441149 0.69800001
-0.042529766 -0.055820238 0.69774997
-0.036766354 -0.055592068 0.69766665
-0.032542862 -0.055122547 0.69733334
-0.027899526 -0.055578899 0.69749999
-0.022593811 -0.055820242 0.69775003
-0.016175874 -0.055618417 0.69800007
-0.012181905 -0.056920953 0.69766665
-0.0096180951 -0.056050479 0.69650006
-0.14159429 -0.051851433 0.69800007
-0.13740954 -0.05177778 0.69700003
-0.13253117 -0.05163021 0.69628578
-0.12759081 -0.051966455 0.69655555
-0.12252559 -0.051914971 0.69757146
-0.11743198 -0.052415676 0.69663644
-0.11237811 -0.052545179 0.69585723
-0.10797843 -0.051556196 0.69700003
-0.10237335 -0.05118667 0.69800001
-0.097343251 -0.051659811 0.6972
-0.0928168 -0.052707739 0.69612503
-0.087465003 -0.053010236 0.69575012
-0.082222261 -0.052466936 0.69572735
-0.077159047 -0.053113062 0.69585723
-0.072484866 -0.052344482 0.69570011
-0.067620248 -0.052373733 0.69608343
-0.062750168 -0.05325016 0.6960001
-0.057668578 -0.05302953 0.6960001
-0.052754976 -0.05294599 0.69614297
-0.047725718 -0.053029526 0.6960001
-0.042129662 -0.053113062 0.69585729
-0.037107382 -0.05301024 0.69575012
-0.032480001 -0.05302953 0.6960001
-0.0275498 -0.053113062 0.69585723
-0.022953717 -0.053472955 0.69660008
-0.017240714 -0.053048812 0.69625008
-0.012600319 -0.052392066 0.69633341
-0.0079580955 -0.052392062 0.69633341
-0.0033095242 -0.052101366 0.69500011
-0.14558287 -0.049192384 0.69800001
-0.14238504 -0.048387621 0.69772732
-0.13826218 -0.048359867 0.69557154
-0.13238096 -0.049642861 0.69500005
-0.12708572 -0.049642861 0.69500005
-0.12245239 -0.049642861 0.69500005
-0.10656668 -0.049642861 0.69500005
-0.10269239 -0.049690481 0.69566673
-0.098623812 -0.049642861 0.69500005
-0.069500007 -0.049642861 0.69500005
-0.14026476 -0.044539049 0.69800001
-0.1376844 -0.041916788 0.69587511
-0.13655977 -0.038209766 0.69774997
-0.13327411 -0.036467053 0.69620007
-0.13164325 -0.033075999 0.69740003
-0.12859525 -0.031817146 0.69600004
-0.12765419 -0.027950056 0.69688886
-0.12579238 -0.023564287 0.69700003
-0.12310418 -0.022034645 0.69587505
-0.12076509 -0.017948573 0.69800007
-0.11780562 -0.016960477 0.69570011
-0.11699734 -0.013146286 0.6972
-0.11461937 -0.012586985 0.69566673
-0.11566858 -0.0099714296 0.69800001
-0.11228205 -0.0082423138 0.69642866
-0.10903367 -0.0064126994 0.69666672
-0.10742123 -0.002939048 0.69685721
0.036404766 -0.0013238096 0.69500011
-0.10626192 0.0019908843 0.69671434
-0.10282708 0.0036891159 0.69528586
0.032901589 0.0028715346 0.69555569
0.036190242 0.0019928573 0.69725001
-0.10554572 0.0059742862 0.69700003
-0.10233905 0.0062923813 0.69550002
-0.097230487 0.0088887615 0.69640005
-0.094652385 0.009928572 0.69500005
0.029123813 0.009928572 0.69500005
0.031828336 0.0072954767 0.69625008
-0.09635596 0.012294048 0.69774997
-0.093707159 0.01259762 0.69616669
0.028544765 0.011949208 0.69700003
-0.091872633 0.017247381 0.69650006
-0.089357145 0.01919524 0.69500005
0.023675874 0.018807938 0.69700003
-0.091028899 0.021926669 0.69766665
-0.088055767 0.023064658 0.69633341
-0.084061913 0.024490478 0.69500005
0.02122524 0.022554763 0.69650006
-0.086357623 0.025907144 0.69749999
-0.082343638 0.027889958 0.69572735
-0.078766674 0.029785717 0.69500005
0.020563334 0.027861431 0.69650006
-0.080378577 0.03188619 0.69749999
-0.077982463 0.032689936 0.69642866
0.017271906 0.033213809 0.69749999
-0.07572858 0.036536194 0.69749999
-0.073524289 0.03775667 0.69550002
0.013485397 0.038684767 0.69633341
0.015245715 0.035795242 0.69600004
-0.071436822 0.04091556 0.69666672
-0.068733498 0.043538895 0.69616675
0.012612382 0.041156195 0.69700003
-0.067161702 0.046813764 0.69666672
-0.063943103 0.048703574 0.69575012
0.0088887615 0.048681147 0.69640011
-0.061439212 0.052379847 0.69616675
-0.058247622 0.054276194 0.69500005
0.007075239 0.052832067 0.69633341
-0.057241749 0.057018578 0.69616669
0.0037563494 0.058096986 0.69583338
0.0066454769 0.056484528 0.69774997
-0.077104762 -0.061013337 0.70400006
-0.073081911 -0.061013337 0.70400006
-0.068388574 -0.061013337 0.70400006
-0.051626675 -0.061013337 0.70400012
-0.047295053 -0.061497718 0.70340008
-0.042880002 -0.061640482 0.70350003
-0.037937716 -0.061264195 0.70380008
-0.032853335 -0.061013337 0.70400012
-0.02728177 -0.061933748 0.70357156
-0.02296981 -0.061830577 0.70110005
-0.017821589 -0.061256833 0.70166671
-0.15142018 -0.05695064 0.70350003
-0.14734407 -0.056981646 0.70236367
-0.1426602 -0.05661124 0.70260006
-0.13746627 -0.056077145 0.70214295
-0.13277309 -0.056111295 0.70257157
-0.12684344 -0.055854481 0.70320004
-0.12235595 -0.056743577 0.70300007
-0.11754703 -0.056738529 0.70236367
-0.11226346 -0.057086751 0.7026155
-0.10715245 -0.057595536 0.70318758
-0.10242533 -0.0575739 0.70291674
-0.097720958 -0.057403877 0.70246673
-0.092469275 -0.05696727 0.70218182
-0.086991072 -0.05754941 0.70262504
-0.082286522 -0.057125088 0.70150012
-0.077480644 -0.05811239 0.7013334
-0.072140597 -0.057448689 0.70137507
-0.067275316 -0.057616565 0.70153856
-0.062880099 -0.057294462 0.70172727
-0.057599764 -0.056931034 0.70325005
-0.052335583 -0.057779804 0.70192868
-0.047358692 -0.058198459 0.70037508
-0.042697147 -0.058709051 0.70050001
-0.037680101 -0.05839324 0.70150006
-0.032252558 -0.058251522 0.70154554
-0.027534883 -0.058240362 0.70087504
-0.022678692 -0.058698457 0.70037496
-0.01760982 -0.057756495 0.70076931
-0.014000001 -0.058000006 0.70000005
-0.1516066 -0.052317929 0.70181829
-0.14747387 -0.052188836 0.70009094
-0.14333335 -0.053333342 0.70000005
