# .PCD v0.7 - Point Cloud Data file format
VERSION 0.7
FIELDS x y z
SIZE 4 4 4
TYPE F F F
COUNT 1 1 1
WIDTH 1329
HEIGHT 1
VIEWPOINT 0 0 0 1 0 0 0
POINTS 1329
DATA ascii
-0.067547619 -0.0076206354 0.667
-0.062265359 -0.0076219053 0.66712493
-0.057055686 -0.0074949213 0.66713333
-0.052103996 -0.0076226783 0.66718745
-0.04715823 -0.0074971439 0.66733336
-0.042369392 -0.0074367351 0.6668573
-0.037642386 -0.0082461908 0.66616666
-0.032823641 -0.0083628586 0.66627282
-0.027771212 -0.0080513554 0.66623074
-0.022997716 -0.007748446 0.66706675
-0.017987484 -0.007901499 0.66771436
-0.012724446 -0.0082692076 0.6680001
-0.0078044161 -0.0083815595 0.66772729
-0.0025457144 -0.0089128576 0.66850007
0.0025485717 -0.0089200009 0.66900009
0.007645715 -0.0089200009 0.66900009
0.01316762 -0.0091323815 0.66900009
0.015928572 -0.0095571438 0.66900003
0.021025715 -0.0082828579 0.66900003
0.026760001 -0.0095571438 0.66900003
-0.096845716 -0.0044600004 0.66900003
-0.094297148 -0.0044600004 0.66900003
-0.08091715 -0.0044600004 0.66900003
-0.077094287 -0.0044600004 0.66900003
-0.072252013 -0.0042051435 0.66900009
-0.068174288 -0.0040352386 0.66900003
-0.062015243 -0.0038228575 0.66900009
-0.057342861 -0.003822858 0.66900009
-0.052245717 -0.004141429 0.66900003
-0.047148574 -0.0044600004 0.66900003
-0.041414291 -0.0044600004 0.66900003
-0.026122859 -0.0044600004 0.66900003
-0.023574289 -0.0044600004 0.66900003
-0.16563669 -0.03197667 0.67150003
-0.16272129 -0.031393014 0.67266673
-0.15774201 -0.031503547 0.67254543
-0.15221383 -0.03162181 0.67210001
-0.14745677 -0.031617142 0.67199999
-0.14261383 -0.03197667 0.67150009
-0.13770156 -0.03202901 0.67136365
-0.13249327 -0.032005649 0.67207134
-0.12763463 -0.031270005 0.67233324
-0.12234839 -0.031517901 0.67259997
-0.11750837 -0.031492699 0.67177773
-0.11282557 -0.031673651 0.6718334
-0.10757409 -0.031782538 0.67188889
-0.1021526 -0.031776931 0.67177778
-0.097339869 -0.031561833 0.672077
-0.092580006 -0.031830911 0.67209095
-0.087488487 -0.03151343 0.67249995
-0.082119599 -0.031825583 0.67214286
-0.077940293 -0.031997245 0.67189997
-0.072905719 -0.03197667 0.67149997
-0.067683652 -0.031486411 0.67218184
-0.062774695 -0.031388648 0.67258334
-0.057804558 -0.031782541 0.67188895
-0.052230962 -0.03162219 0.67210001
-0.047561388 -0.031494375 0.67236364
-0.042070393 -0.032530304 0.67209095
-0.037091751 -0.031967513 0.67277777
-0.032022856 -0.032024287 0.67249995
-0.027075121 -0.031882975 0.67287505
-0.022871172 -0.031253852 0.67218184
-0.018246192 -0.031371906 0.67225003
-0.012196193 -0.030169528 0.67400002
-0.15505715 -0.029990477 0.67000002
-0.15250477 -0.029990477 0.67000002
-0.14740002 -0.029352382 0.67000002
-0.14293334 -0.029990477 0.67000002
-0.13676509 -0.029139683 0.67000002
-0.13314612 -0.028978098 0.67020005
-0.12727372 -0.02846762 0.67020005
-0.1229343 -0.028722858 0.67020005
-0.11740954 -0.029139683 0.67000002
-0.11230477 -0.029033337 0.67000002
-0.10698731 -0.029990477 0.67000002
-0.10145715 -0.029565081 0.67000002
-0.097025968 -0.02808667 0.67025006
-0.092746131 -0.028179323 0.67028576
-0.087965995 -0.028531974 0.67000002
-0.082967751 -0.028400596 0.67012501
-0.078230478 -0.028969526 0.67000002
-0.072742857 -0.029990477 0.67000002
-0.067638099 -0.029033333 0.67000002
-0.062557384 -0.028725004 0.67025
-0.057300955 -0.029480001 0.67000002
-0.052961908 -0.029565081 0.67000002
-0.047616575 -0.028722858 0.67020005
-0.043390479 -0.029990477 0.67000002
-0.037647624 -0.029990477 0.67000002
-0.032542862 -0.029352386 0.67000002
-0.02791667 -0.028873811 0.67000002
-0.022971429 -0.02828889 0.67000002
-0.018144354 -0.028902724 0.67014295
-0.012605196 -0.02759273 0.67090911
-0.0076832548 -0.027531985 0.67224997
-0.0026930477 -0.027454004 0.6735
0.0025090044 -0.026890999 0.67372721
0.0076984139 -0.026946988 0.6736666
0.013028043 -0.027125824 0.67277783
0.017324626 -0.027040549 0.67371428
0.022787621 -0.025997145 0.67400002
0.026318099 -0.02503429 0.67400002
-0.01212381 -0.024885716 0.67000002
-0.0070190481 -0.024885718 0.67000002
-0.0022801363 -0.024354698 0.67042863
0.0023032383 -0.02340324 0.67140001
0.008082252 -0.023202771 0.67163634
0.012713942 -0.023745457 0.67054552
0.017838538 -0.02344132 0.67076921
0.022749906 -0.023390098 0.671
0.026613971 -0.02320762 0.67066669
0.018504763 -0.01084762 0.67000002
0.023609526 -0.01084762 0.67000002
-0.16602811 -0.0057471432 0.67050004
-0.16231811 -0.0057514291 0.671
-0.15720573 -0.0057514291 0.671
-0.1527324 -0.0057514291 0.671
-0.14803812 -0.0057428577 0.67000002
-0.14303952 -0.0057471436 0.67050004
-0.13793048 -0.0057471436 0.67050004
-0.13272382 -0.0057428577 0.67000002
-0.12761906 -0.0057428577 0.67000002
-0.1225143 -0.0057428577 0.67000002
-0.1172543 -0.0057457145 0.67033339
-0.11247239 -0.0057514291 0.671
-0.10736001 -0.0057514291 0.671
-0.10400953 -0.0057428577 0.67000002
-0.089333341 -0.0057428577 0.67000002
-0.067638099 -0.0057428577 0.67000002
-0.037036192 -0.0057471432 0.67050004
-0.032591432 -0.0057514291 0.671
-0.028714288 -0.0057428582 0.67000002
-0.021057144 -0.0057428577 0.67000002
-0.016590476 -0.0057428577 0.67000002
-0.012767382 -0.0057450007 0.67025006
-0.0072780959 -0.0060015242 0.67040008
-0.0025557145 -0.0063873809 0.67075002
0.0025542858 -0.0063852384 0.67050004
0.0076659527 -0.0063873809 0.67075002
0.012523715 -0.0067717149 0.67090005
0.018031685 -0.0075422865 0.67139995
0.023012316 -0.007759525 0.67121434
0.027092703 -0.0067530167 0.67200005
-0.1664612 -0.002559524 0.67225003
-0.16271156 -0.0025608335 0.67262495
-0.15752822 -0.0025603576 0.67237496
-0.15245274 -0.0026881273 0.6724
-0.14718667 -0.0026862223 0.67213327
-0.14233468 -0.0026886989 0.67259997
-0.13709588 -0.0032019052 0.67266667
-0.1324805 -0.0025582542 0.67200005
-0.12779951 -0.002444986 0.6719411
-0.12260441 -0.003000733 0.67184609
-0.11757366 -0.00268527 0.67166674
-0.11257692 -0.0025577382 0.67162496
-0.10752959 -0.0025589881 0.67206252
-0.10243811 -0.0025588095 0.67224991
-0.097450279 -0.0021157512 0.67215395
-0.092159599 -0.0022838097 0.67200011
-0.087473541 -0.0025130161 0.67173332
-0.082595192 -0.0024279365 0.67160004
-0.0777684 -0.002263983 0.67081827
-0.072986417 -0.0017992208 0.67063642
-0.067553408 -0.0022098168 0.67061543
-0.062797822 -0.0017867622 0.67010009
-0.057449527 -0.0012764287 0.67025
-0.05234921 -0.0020212699 0.67033333
-0.047284562 -0.0022806122 0.6709286
-0.042259324 -0.0022802723 0.67085719
-0.037073992 -0.0025550595 0.67118752
-0.032153402 -0.002431619 0.67253333
-0.027822306 -0.0025553179 0.67158335
-0.022852972 -0.0021118682 0.67084622
-0.017886668 -0.0025535717 0.67075002
-0.012995443 -0.0028347624 0.67264283
-0.007691429 -0.003844762 0.67299998
-0.0025676191 -0.0044933334 0.67400002
0.0029500953 -0.0042339051 0.67360002
0.0074277557 -0.0039431294 0.67400008
0.012838096 -0.0044933334 0.67400002
0.017973334 -0.0044933334 0.67400002
0.021182859 -0.0044933334 0.67400002
-0.16689526 0.0012838097 0.67400002
-0.16304384 0.0012838097 0.67400002
-0.1598343 0.00064190483 0.67400002
-0.15469906 0.00064190483 0.67400002
-0.14635429 0.0012838097 0.67400002
-0.14442858 0.00064190483 0.67400002
-0.13094857 0.00064190483 0.67400002
-0.12773907 0.00064190489 0.67400002
-0.11746858 0.00064190489 0.67400002
-0.11289001 0.00064142863 0.6735
-0.10784002 0.00064190483 0.67400002
-0.10270477 0.00064190483 0.67400002
-0.097569533 0.00064190483 0.67400002
-0.093076199 0.00064190489 0.67400002
-0.087940961 0.00064190483 0.67400002
-0.081307948 0.001497778 0.67400002
-0.077215947 0.0021575759 0.67309088
-0.072777972 0.0011910206 0.67285717
-0.067890957 0.0010684128 0.67250001
-0.062751114 0.0019228572 0.67233336
-0.057907052 0.0016668573 0.67259997
-0.052498098 0.0012811905 0.67225003
-0.047413096 0.0012821429 0.67275
-0.042333338 0.0012833334 0.67349994
-0.038129147 0.0011554287 0.67400002
-0.026318099 0.0010698414 0.67400002
-0.022871116 0.0016397885 0.67333329
-0.018129006 0.0018083118 0.67327267
-0.16619335 -0.040740002 0.67900002
-0.10152667 -0.040740002 0.67900002
-0.16702011 -0.037408058 0.67630768
-0.16288815 -0.037009895 0.67807698
-0.15735145 -0.036993917 0.67776924
-0.15237448 -0.037450302 0.67793745
-0.14751491 -0.037457488 0.67807144
-0.14243406 -0.036578339 0.67775005
-0.13780858 -0.036460273 0.67842859
-0.13289417 -0.036127977 0.67737502
-0.12788272 -0.036815725 0.67816663
-0.12303459 -0.036574956 0.6785
-0.11768667 -0.036091026 0.67842859
-0.11202836 -0.036341168 0.67733341
-0.10720342 -0.037098493 0.67741674
-0.10252616 -0.037334926 0.67820001
-0.097375602 -0.03611441 0.67712504
-0.092685051 -0.036061093 0.67785722
-0.087534294 -0.036537718 0.67780006
-0.08255136 -0.03693993 0.67676926
-0.077836834 -0.03590953 0.67733335
-0.072400719 -0.035553575 0.67875004
-0.066835515 -0.036046125 0.67757148
-0.062225182 -0.036230616 0.67757154
-0.058027625 -0.035461906 0.67700005
-0.052868571 -0.035461906 0.67700005
-0.048184957 -0.035783432 0.67820007
-0.043714289 -0.036000002 0.67500001
-0.037097335 -0.035804387 0.67860001
-0.032672383 -0.035772953 0.67800009
-0.027419593 -0.036098506 0.67857146
-0.021986669 -0.035566669 0.67900002
-0.018753335 -0.035566669 0.67900002
-0.16585717 -0.034071431 0.67500001
-0.16218072 -0.034109287 0.67575008
-0.15757716 -0.034088258 0.67533338
-0.15253697 -0.034111809 0.67580009
-0.14728764 -0.034088258 0.67533338
-0.14271429 -0.034071431 0.67500001
-0.13692859 -0.034071431 0.67500007
-0.1305 -0.034071431 0.67500001
-0.12697469 -0.033834483 0.67540002
-0.12232382 -0.034121908 0.67600006
-0.11704405 -0.034084052 0.67524999
-0.11185715 -0.034071431 0.67500001
-0.10800001 -0.034071431 0.67500001
-0.10293334 -0.034096669 0.67550004
-0.097500011 -0.034071431 0.67500007
-0.091973349 -0.034088258 0.67533338
-0.087526433 -0.034109287 0.67575002
-0.083571434 -0.034071431 0.67500001
-0.075913817 -0.034096669 0.67550004
-0.072079286 -0.034109287 0.67575002
-0.06750001 -0.034071431 0.67500007
-0.063000008 -0.034071431 0.67500001
-0.057899527 -0.034096669 0.67550004
-0.052752383 -0.034096669 0.67550004
-0.047589764 -0.034084052 0.67525005
-0.044357147 -0.034071431 0.67500001
-0.037033096 -0.0338131 0.67625004
-0.032223575 -0.034159765 0.67675
-0.027120002 -0.03422286 0.67800003
-0.022611748 -0.034239687 0.6783334
-0.017647937 -0.033792384 0.67799997
-0.013123281 -0.03205556 0.67766666
-0.0077353185 -0.03158373 0.67675006
-0.0025763495 -0.031563967 0.67633343
0.0025777782 -0.031587146 0.67683339
0.0076788752 -0.031486321 0.6771819
0.012850305 -0.031511948 0.67772728
0.017679336 -0.031489808 0.67749995
0.022127016 -0.031754889 0.67790914
0.026461907 -0.030979365 0.67766678
-0.0019285716 -0.028285716 0.67500001
0.0036428575 -0.028500004 0.67500007
0.0064285719 -0.028928574 0.67500001
0.012214287 -0.028928574 0.67500007
0.018900001 -0.028414289 0.67500001
0.022500001 -0.028285718 0.67500007
0.026828228 -0.027529871 0.67509103
-0.15235715 -0.00064285717 0.67500001
-0.14850001 -0.00064285717 0.67500001
-0.14078572 -0.00064285717 0.67500001
-0.13757144 -0.00064285717 0.67500001
-0.12278573 -0.00064285717 0.67500007
-0.01157143 -0.00064285717 0.67500001
-0.0077142864 -0.0012857146 0.67500007
-0.0025730161 -0.0019293656 0.67550009
0.0023968834 -0.0018119483 0.67527282
0.0079315351 -0.0015002118 0.67522228
0.012882541 -0.0019304764 0.67633337
0.017855413 -0.0020472729 0.67618197
0.022444842 -0.0022529366 0.67658341
0.026519764 -0.0028961112 0.67641675
-0.16628692 0.0038683335 0.67675
-0.16194507 0.0036473018 0.67566669
-0.15753035 0.0027650346 0.67671436
-0.15247104 0.0026625597 0.67693764
-0.14762962 0.0027943659 0.67641675
-0.14242484 0.0027412502 0.67668754
-0.1375588 0.0025393653 0.67726666
-0.13282564 0.0027289381 0.67676938
-0.12741232 0.0030250556 0.67646152
-0.1223693 0.0025782147 0.67624998
-0.1172166 0.0032219847 0.6762501
-0.11204562 0.0032282544 0.67744446
-0.107573 0.0032228578 0.67636377
-0.10255367 0.0032195239 0.6758334
-0.097630829 0.0031009528 0.67563647
-0.092486382 0.0030192677 0.67546165
-0.087515056 0.0027053971 0.67600012
-0.082861245 0.0032174289 0.67550009
-0.076821439 0.0041785715 0.67500001
-0.072132379 0.0038650003 0.67625004
-0.067468472 0.0035069846 0.6761111
-0.062419366 0.004504445 0.67566675
-0.057456516 0.004073651 0.67533338
-0.052753337 0.0038604764 0.67550004
-0.047598213 0.0038596431 0.67537504
-0.042482741 0.0038625002 0.67587507
-0.036956452 0.0032232902 0.67645466
-0.032225836 0.0025809528 0.67675006
-0.027390322 0.0031161909 0.67666674
-0.02218643 0.0041802386 0.67525005
-0.017629717 0.0042468579 0.67560005
-0.012882978 0.002579167 0.67637503
-0.0077316072 0.0025791079 0.67656249
-0.0025833335 0.0025854763 0.67824996
0.0025835126 0.0025856548 0.67831248
0.0074910484 0.00168 0.67800003
0.012545334 0.00090533338 0.67900002
0.017460002 0.00064666674 0.67900008
0.021979287 0.00064642855 0.67875004
0.026513334 0.00064666674 0.67900008
-0.16710216 0.0061411909 0.67875004
-0.16320345 0.0060735242 0.67840004
-0.15972668 0.0058200005 0.67900002
-0.15261334 0.0058200005 0.67900002
-0.14744002 0.0058200005 0.67900002
-0.14265469 0.0060786675 0.67900002
-0.13704237 0.0064645242 0.67874998
-0.1325019 0.0064638099 0.67866671
-0.12842803 0.0060786675 0.67900002
-0.12256409 0.0063730618 0.67885715
-0.11764976 0.0064645242 0.67874998
-0.11187334 0.0058200005 0.67900002
-0.10691556 0.0062511116 0.67900002
-0.10209809 0.0064623812 0.6785
-0.097103924 0.0071062446 0.67822218
-0.092843905 0.0069888318 0.67827272
-0.088140287 0.0068501914 0.6785
-0.082519665 0.0069897841 0.67836362
-0.077466205 0.0071026995 0.67783332
-0.072319999 0.0064571435 0.67800003
-0.066925056 0.0068480968 0.67830002
-0.062226918 0.0074296035 0.67825001
-0.057898417 0.0068167201 0.67800003
-0.052948575 0.0064571439 0.67800003
-0.047667623 0.0068470486 0.67820001
-0.042617142 0.0064571435 0.67800003
-0.037492383 0.0064645242 0.67874998
-0.033303335 0.0061433339 0.67900002
-0.026513333 0.0061433339 0.67900002
-0.022225987 0.0065484364 0.67785722
-0.017805852 0.0063669397 0.67814285
-0.013321334 0.0060786675 0.67900002
-0.0080351029 0.0063730618 0.67885715
-0.0045266668 0.0058200005 0.67900002
-0.055371433 -0.046251431 0.68400002
-0.16587144 -0.040980004 0.68300003
-0.16247636 -0.041572656 0.68357152
-0.15744872 -0.042942051 0.6831429
-0.15223342 -0.042749967 0.68213344
-0.14750205 -0.042636875 0.68271428
-0.14249118 -0.042293426 0.68318194
-0.13795072 -0.041646194 0.68325001
-0.13234203 -0.042040005 0.68377781
-0.12750913 -0.042287223 0.68308342
-0.1225853 -0.041875031 0.6834445
-0.11725715 -0.041040003 0.68400002
-0.11269715 -0.041040003 0.68400002
-0.10793976 -0.040965006 0.68275005
-0.10283501 -0.041198812 0.68125004
-0.097590119 -0.041638691 0.68312502
-0.092424378 -0.042307541 0.68341672
-0.087395139 -0.041855242 0.68311113
-0.082412228 -0.041424289 0.68316668
-0.077520005 -0.041040003 0.68400002
-0.07269609 -0.041881699 0.6835556
-0.068149209 -0.041454289 0.68366671
-0.061451435 -0.04147429 0.68400002
-0.056877464 -0.042550005 0.68383336
-0.05254858 -0.042342864 0.68400002
-0.047862619 -0.041350715 0.68375003
-0.042529054 -0.041444287 0.68350005
-0.038030483 -0.041564088 0.68342865
-0.03255881 -0.041025005 0.68375003
-0.028011432 -0.041040003 0.68400002
-0.022148572 -0.041040003 0.68400002
-0.017328002 -0.041561145 0.68400002
-0.014331429 -0.041040003 0.68400002
-0.16238096 -0.039620955 0.68200004
-0.15801905 -0.039504763 0.68000001
-0.1457143 -0.039504763 0.68000001
-0.1421703 -0.039268956 0.68040001
-0.13718994 -0.038999457 0.68085724
-0.13266996 -0.039032657 0.68142867
-0.1277073 -0.039543495 0.68066669
-0.12236764 -0.039184496 0.68085724
-0.11750446 -0.038737252 0.68166673
-0.11296191 -0.038953338 0.68166673
-0.10782795 -0.039543495 0.68066669
-0.10038096 -0.039504763 0.68000001
-0.097249299 -0.038900718 0.68075001
-0.092097148 -0.038915243 0.68100005
-0.087752387 -0.039180957 0.68000001
-0.08275874 -0.039543495 0.68066669
-0.077716105 -0.038599145 0.68230003
-0.072721988 -0.038308181 0.68175
-0.067677893 -0.038705822 0.6811111
-0.062353339 -0.038972385 0.68200004
-0.057220876 -0.03836453 0.68275011
-0.052201651 -0.038486499 0.68281823
-0.047352176 -0.038273018 0.6811111
-0.042793166 -0.038426068 0.68172735
-0.03781005 -0.038399834 0.68127275
-0.032286324 -0.038426239 0.68172735
-0.027081272 -0.038781382 0.68244451
-0.02209135 -0.038337223 0.68225002
-0.01743325 -0.037881039 0.68254548
-0.013021311 -0.0377631 0.68362498
-0.0079373978 -0.03760254 0.68306673
-0.0027496708 -0.03734557 0.68238467
0.0025123812 -0.036558103 0.68371433
0.0080655236 -0.036817908 0.68300003
0.01326143 -0.036791336 0.68250006
0.017250955 -0.036128096 0.68350005
0.020194286 -0.035828575 0.68400002
-0.012999048 -0.034450002 0.68250006
-0.007788334 -0.034386907 0.68125004
-0.0025938097 -0.03434905 0.68050003
0.002594762 -0.034399524 0.68150002
0.0079192389 -0.03414553 0.68160009
0.013081905 -0.034064766 0.68000001
0.01752127 -0.034391116 0.68133342
0.022116192 -0.034475241 0.68300003
0.026265718 -0.03340286 0.68099999
-0.11513429 0.0039028577 0.68300003
0.0082120644 0.0041060317 0.68066669
0.013146495 0.0033615588 0.6809091
0.017508149 0.0032435982 0.68088895
0.022024287 0.0032392065 0.68016666
0.026390476 0.0034000003 0.67999995
-0.16795221 0.0079365717 0.68300003
-0.16268747 0.0085710827 0.68254548
-0.15756585 0.007881429 0.68224996
-0.15228677 0.0085710827 0.68254548
-0.14742158 0.0084449369 0.68190908
-0.14248487 0.008444286 0.68190008
-0.13772395 0.0090955961 0.68212509
-0.13260001 0.0091004772 0.68250006
-0.12746641 0.0085625127 0.68190914
-0.12251006 0.0088808471 0.68222225
-0.11729063 0.0091942865 0.68257153
-0.11283913 0.0079372916 0.68123078
-0.10798629 0.0086973337 0.6814
-0.10232382 0.0090666674 0.67999995
-0.097588196 0.009460954 0.68040007
-0.091961913 0.0097142868 0.68000001
-0.087322295 0.0092125712 0.68120003
-0.083283812 0.0094552394 0.68000001
-0.07777001 0.00972143 0.68050003
-0.072641432 0.0090804761 0.68100005
-0.067784131 0.0092825405 0.68000001
-0.061955564 0.0097142868 0.68000001
-0.056683019 0.0093039684 0.68150008
-0.05218463 0.0091775525 0.68128574
-0.04779429 0.0091961911 0.68000001
-0.042805716 0.0090809539 0.68099999
-0.037624408 0.0090827383 0.68112499
-0.032131035 0.0083319843 0.68158334
-0.027496507 0.0083374614 0.68200004
-0.022072976 0.0090889288 0.68162507
-0.017545715 0.0090980958 0.68233341
-0.01282736 0.0085733347 0.68272734
-0.0075786249 0.0088783083 0.68199998
-0.002467175 0.0079243192 0.68173343
0.0025975001 0.0077963113 0.68187505
0.0074783349 0.0072624618 0.68275011
0.013019049 0.0065100007 0.68350005
0.017571431 0.006508572 0.6833334
0.022240955 0.0072698421 0.68350005
0.026105857 0.0071553751 0.68285722
-0.15764573 0.011074287 0.68400002
-0.15215512 0.011632655 0.68400007
-0.14704521 0.012258704 0.68400002
-0.14229064 0.011632655 0.68400007
-0.13712573 0.011400001 0.68400002
-0.13224003 0.011818778 0.68400007
-0.12775238 0.011942859 0.68400002
-0.12246858 0.011725715 0.68400002
-0.11686735 0.012673922 0.68376923
-0.11225429 0.013207347 0.68357152
-0.10764103 0.012661687 0.68307698
-0.10291357 0.012559123 0.68292314
-0.097669788 0.012246408 0.68327278
-0.092295982 0.011926246 0.68300009
-0.087173954 0.012251344 0.68354547
-0.082027569 0.013021131 0.68356246
-0.077406675 0.013009526 0.68300003
-0.072859593 0.013012086 0.68306255
-0.067800701 0.012237404 0.68272734
-0.062021039 0.012450239 0.68191671
-0.057262857 0.013015002 0.68325001
-0.052095242 0.013024523 0.68374997
-0.047502145 0.013015955 0.68325007
-0.042952385 0.012365714 0.6833334
-0.037746038 0.012365714 0.6833334
-0.032544583 0.013018752 0.68343753
-0.027730573 0.012238381 0.68349999
-0.021939866 0.012737144 0.68328583
-0.017695153 0.012843206 0.68354553
-0.014982858 0.011074287 0.68400002
-0.0069030481 0.011592191 0.68380004
-0.0029965716 0.011334858 0.68400002
-0.080777153 0.016285716 0.68400002
-0.077520005 0.016611431 0.68400002
-0.073611438 0.016285716 0.68400002
-0.050160002 0.016285716 0.68400002
-0.048857145 0.016285716 0.68400002
-0.16199167 -0.046004344 0.68677783
-0.15717109 -0.047152739 0.68762499
-0.15258609 -0.046989404 0.68762499
-0.14721145 -0.046758477 0.68760008
-0.14247572 -0.046227716 0.68750006
-0.13757464 -0.045859408 0.68787515
-0.13228583 -0.045842979 0.68762499
-0.12709667 -0.046516858 0.68790007
-0.12225682 -0.045802016 0.68811119
-0.11745811 -0.045933336 0.68900007
-0.11330223 -0.045714609 0.68900007
-0.10761525 -0.045277145 0.68900001
-0.10170953 -0.045277145 0.68900001
-0.096903339 -0.045506667 0.6875
-0.092518575 -0.046014763 0.6877501
-0.08810056 -0.04578327 0.68814296
-0.082680002 -0.045277145 0.68900001
-0.077086128 -0.045802046 0.6884287
-0.07237158 -0.045970753 0.68814296
-0.068117388 -0.045195002 0.6877501
-0.062636606 -0.045782726 0.68814296
-0.05813228 -0.046784762 0.68755561
-0.052210856 -0.045930862 0.68700004
-0.047245719 -0.045277145 0.68900001
-0.042652383 -0.045277145 0.68900001
-0.037974764 -0.045178574 0.6875
-0.032784287 -0.045244288 0.68850005
-0.026247621 -0.045277145 0.68900001
-0.022091746 -0.045277145 0.68900001
-0.019029524 -0.045277145 0.68900001
-0.16572891 -0.042902227 0.68600005
-0.16268003 -0.043773334 0.68600005
-0.13680802 -0.043512005 0.68600005
-0.13393334 -0.043773334 0.68600005
-0.12223207 -0.043794602 0.68633336
-0.11768573 -0.043151908 0.68650001
-0.11245525 -0.043151908 0.68650007
-0.10738096 -0.043215718 0.6875
-0.10211716 -0.043652005 0.68820012
-0.097346678 -0.043773334 0.68600005
-0.086893342 -0.043773334 0.68600005
-0.081923813 -0.043359052 0.68633336
-0.077421926 -0.043240685 0.68642867
-0.073173337 -0.043773334 0.68600005
-0.067543499 -0.043359052 0.68633342
-0.063155241 -0.042806245 0.68677789
-0.058800004 -0.043773334 0.68600005
-0.052266672 -0.043120001 0.68599999
-0.046798371 -0.043249525 0.68657154
-0.042824764 -0.043478575 0.68650001
-0.037511811 -0.043524768 0.68620008
-0.032707263 -0.043175362 0.68687499
-0.027288575 -0.04300794 0.68766671
-0.022242025 -0.043175597 0.68687499
-0.017666193 -0.043183815 0.68700004
-0.012429049 -0.042301431 0.68683338
-0.0078467866 -0.041851781 0.686625
-0.0030566668 -0.041707464 0.68783349
0.0022310477 -0.040552575 0.68900007
0.0078742858 -0.041011907 0.68900001
0.017717144 -0.040027622 0.68900001
-0.0058800005 -0.039853334 0.68600005
-0.0019603176 -0.039437145 0.68633342
0.0026138097 -0.038338576 0.6861667
0.0077131437 -0.039353527 0.68640012
0.012162859 -0.039365526 0.68660009
0.017293744 -0.038602315 0.6870001
0.022259429 -0.037317336 0.68740004
0.025591429 -0.036090478 0.68900001
-0.16725335 0.009800001 0.68600005
0.0088235717 0.0094769057 0.68625009
0.012427779 0.0091585722 0.68683338
0.016992621 0.0091502387 0.68625009
0.021886669 0.0094733341 0.68600005
-0.16682968 0.012071294 0.68771434
-0.16248478 0.012555239 0.68718195
-0.15743545 0.012714607 0.68655556
-0.15288001 0.013393334 0.68600005
-0.14961334 0.013720001 0.68600005
-0.14211696 0.013466668 0.68640012
-0.1373792 0.013168572 0.68642867
-0.1326755 0.013398334 0.68625003
-0.12674668 0.013720001 0.68600005
-0.12282667 0.013720001 0.68600005
-0.11956001 0.013720001 0.68600005
-0.097346671 0.013720001 0.68600005
-0.092991114 0.013720001 0.68600005
-0.088200003 0.013720001 0.68600005
-0.065986671 0.013720001 0.68600005
-0.064680003 0.013720001 0.68600005
-0.026786668 0.013720001 0.68600005
-0.01503762 0.013076668 0.68650007
-0.012419367 0.012420002 0.68633348
-0.0084991846 0.012981635 0.68642867
-0.0023334695 0.013162861 0.68614298
0.0026157144 0.012423337 0.68650001
0.0073726196 0.011958335 0.68800008
0.012795715 0.011483333 0.68900001
0.017327486 0.011708437 0.68842864
0.022277856 0.01179524 0.68800002
0.025554288 0.01179524 0.68800002
-0.16120414 0.015529841 0.68900001
-0.157267 0.015529843 0.68900007
-0.15231942 0.016504189 0.68760008
-0.14741358 0.016356746 0.68691677
-0.14281419 0.015723454 0.68787503
-0.13770097 0.015737619 0.68850005
-0.13196111 0.016679781 0.68776935
-0.12721018 0.016366985 0.68733335
-0.12239626 0.016752316 0.68778586
-0.11756247 0.017106589 0.6864168
-0.11242729 0.017648891 0.68633342
-0.10750104 0.017473776 0.68730783
-0.10218912 0.017033989 0.68781263
-0.097265787 0.017227281 0.68807155
-0.092656538 0.016831635 0.68721443
-0.087690242 0.01701667 0.68712503
-0.082737438 0.017937049 0.68730009
-0.077129528 0.018418232 0.68714297
-0.071944453 0.018114818 0.68744451
-0.067812994 0.016838981 0.68750006
-0.063052393 0.017173907 0.68820018
-0.05786138 0.017250583 0.68777788
-0.05238067 0.017680287 0.68750006
-0.046961565 0.017441213 0.6874547
-0.042171296 0.015991159 0.68728584
-0.037760437 0.01623524 0.68681824
-0.032718018 0.017669447 0.68708336
-0.027384002 0.017166352 0.68786675
-0.022248177 0.017015319 0.68708342
-0.017419429 0.017028194 0.68760008
-0.012431431 0.015048574 0.68700004
-0.0075801369 0.015626125 0.68771434
-0.0030547623 0.015489683 0.68716669
0.0026247622 0.015092382 0.68900001
-0.15354858 0.020341907 0.68900001
-0.14764287 0.020341907 0.68900001
-0.12008286 0.020341907 0.68900001
-0.11734572 0.020322224 0.68833339
-0.11269905 0.020312384 0.68800008
-0.10892762 0.020341907 0.68900001
-0.10039715 0.020341907 0.68900001
-0.095803812 0.020341907 0.68900001
-0.093179047 0.020341907 0.68900001
-0.087929524 0.020341907 0.68900001
-0.082680002 0.020341907 0.68900001
-0.077430479 0.020341907 0.68900001
-0.072180957 0.020341907 0.68900001
-0.068243816 0.020341907 0.68900001
-0.049214289 0.020341907 0.68900001
-0.033465717 0.020341907 0.68900001
-0.16193335 -0.050893337 0.69400001
-0.15695921 -0.05143892 0.69371432
-0.15216605 -0.052190796 0.69366676
-0.14775637 -0.052054714 0.69345456
-0.14287117 -0.052068405 0.6936363
-0.13787469 -0.05115772 0.69400001
-0.13175641 -0.05114305 0.69380003
-0.12718916 -0.051378101 0.69340003
-0.12293714 -0.050893337 0.69400001
-0.11758631 -0.051526785 0.69362497
-0.11221942 -0.051489882 0.69312501
-0.10743944 -0.05114305 0.69380003
-0.10244763 -0.050893337 0.69400001
-0.097820953 -0.050893337 0.69400001
-0.092374675 -0.05114305 0.69380003
-0.087229885 -0.051545121 0.69387507
-0.082619056 -0.050893337 0.69400001
-0.07799238 -0.050893337 0.69400001
-0.074687622 -0.050893337 0.69400001
-0.062129531 -0.050893337 0.69400001
-0.057502862 -0.050893337 0.69400001
-0.045605719 -0.050893337 0.69400001
-0.044283811 -0.050893337 0.69400001
-0.16297117 -0.048865311 0.69200015
-0.15774003 -0.049500003 0.69300002
-0.1526781 -0.049357146 0.69100004
-0.14741334 -0.049357146 0.69100004
-0.14274821 -0.049165718 0.69200009
-0.13771394 -0.048762504 0.69187504
-0.13239537 -0.048744641 0.691625
-0.12762359 -0.049010716 0.69075006
-0.12231714 -0.048664287 0.69050002
-0.1170562 -0.048664287 0.69050002
-0.11226822 -0.048162501 0.69037503
-0.10790113 -0.048030954 0.69083345
-0.10283716 -0.047851212 0.69115394
-0.097654462 -0.048200786 0.69154549
-0.092284642 -0.048824497 0.6914286
-0.087095715 -0.04857143 0.69150001
-0.082729004 -0.047916885 0.69090915
-0.077861801 -0.048473019 0.69088888
-0.0724556 -0.048744645 0.69162506
-0.067182474 -0.048084047 0.69158334
-0.062219732 -0.048855111 0.69185716
-0.057474609 -0.049547624 0.6936667
-0.052375242 -0.048424527 0.69174999
-0.047440164 -0.048101425 0.69183344
-0.042238541 -0.047921035 0.69215387
-0.03732248 -0.048272572 0.6924001
-0.032909621 -0.047786575 0.69110006
-0.027878856 -0.046947815 0.69040006
-0.022461483 -0.047195245 0.69144452
-0.0173818 -0.046868365 0.69311112
-0.012227619 -0.045936197 0.69400001
-0.0079189297 -0.046192266 0.69287497
-0.0030825399 -0.046024449 0.6936667
0.0036352384 -0.045936197 0.69400001
0.0081028584 -0.046758793 0.69327271
0.012540424 -0.046860635 0.69299996
0.016523812 -0.046549939 0.69400001
-0.015782382 -0.044060476 0.69050002
-0.01186381 -0.044156194 0.69200003
-0.0078892866 -0.044044524 0.69025004
-0.0021942859 -0.043675557 0.69133341
0.0028974288 -0.043072484 0.69150001
0.0076746033 -0.043201804 0.69077784
0.012493758 -0.04274223 0.69044447
0.017274948 -0.042603888 0.69146156
0.022416428 -0.04219738 0.69225013
0.026050478 -0.041222386 0.6925
0.024314288 -0.038771432 0.69000006
0.026285715 -0.038114291 0.69000006
-0.16835096 0.013810001 0.69050002
0.0088750003 0.01347643 0.69025004
0.012222859 0.013274287 0.69000006
0.01669143 0.013537145 0.69000006
0.022342861 0.013800001 0.69000006
0.025628572 0.013800001 0.69000006
-0.16727056 0.017158171 0.69084626
-0.16311741 0.017274806 0.69036371
-0.15789106 0.01801124 0.69020003
-0.15245715 0.019057143 0.69000006
-0.14720002 0.019057143 0.69000006
-0.14263478 0.018404605 0.69016671
-0.13802466 0.018403452 0.69012505
-0.13434128 0.018628255 0.69033337
-0.12788001 0.018794287 0.69000006
-0.12354286 0.019057143 0.69000006
-0.057171434 0.019057143 0.69000006
-0.054542862 0.019057143 0.69000006
-0.045342859 0.019057143 0.69000006
-0.042365309 0.018505719 0.69042861
-0.037457149 0.019057143 0.69000006
-0.023657145 0.019057143 0.69000006
-0.015448334 0.018078335 0.69025004
-0.012491747 0.017752064 0.69033337
-0.0081139691 0.018201802 0.69077784
-0.0023692381 0.018030003 0.69090003
0.0026311115 0.017760638 0.69066668
0.0078938687 0.017103394 0.69068754
0.012508335 0.017118812 0.69125003
0.017135477 0.017138217 0.69200003
0.022600682 0.016858915 0.6921429
0.025712144 0.017144049 0.69225007
-0.16643953 0.020474764 0.69350004
-0.16247715 0.021135714 0.69350004
-0.15712479 0.022052003 0.69320011
-0.15207882 0.022018876 0.69290924
-0.14735335 0.022052193 0.69320005
-0.14249676 0.022320509 0.69333345
-0.13765977 0.022118811 0.69325012
-0.13222812 0.022165649 0.6932143
-0.12756915 0.021637907 0.69260007
-0.12267154 0.021766191 0.69250005
-0.11731073 0.022409288 0.69200003
-0.11195477 0.022722384 0.69150007
-0.10752153 0.022517543 0.6919167
-0.10265206 0.022375038 0.69092864
-0.097485192 0.022634562 0.69028586
-0.092011146 0.022813775 0.69046158
-0.087212011 0.023152575 0.69060004
-0.082783304 0.022927189 0.69136363
-0.077729538 0.023056513 0.69166672
-0.072406515 0.023040321 0.69116676
-0.067062862 0.022702316 0.69228572
-0.062434006 0.022573043 0.69230771
-0.057885218 0.022286734 0.6922667
-0.052776009 0.02243292 0.69268763
-0.047366232 0.022564195 0.69266683
-0.042225007 0.022433931 0.69274998
-0.037584133 0.022420002 0.69233334
-0.032857276 0.022506159 0.69093341
-0.028037878 0.022058098 0.69207692
-0.022150096 0.021493524 0.69220001
-0.017248414 0.021866351 0.69216675
-0.012530953 0.021106191 0.69250005
-0.0076416335 0.02103919 0.69342864
-0.0030390478 0.020748002 0.69380003
0.0026400001 0.020460002 0.69300002
0.0083188573 0.020730289 0.69320005
0.012558095 0.020489525 0.69400001
0.015201906 0.020489525 0.69400001
-0.13417335 0.025777144 0.69400001
-0.10178667 0.025777144 0.69400001
-0.097751431 0.025758572 0.69350004
-0.092849337 0.02601924 0.69340008
-0.086721271 0.026193015 0.69333339
-0.082559541 0.026419526 0.69350004
-0.077697143 0.026193015 0.69333339
-0.072911978 0.026317144 0.6932857
-0.068739057 0.025777144 0.69400001
-0.050893337 0.025777144 0.69400001
-0.046927623 0.025777144 0.69400001
-0.042278454 0.026424168 0.69362497
-0.037165001 0.026924526 0.69375002
-0.033438735 0.026180319 0.69300002
-0.16220193 -0.055175241 0.69800001
-0.15710382 -0.055468101 0.69749999
-0.1527859 -0.056464609 0.69749999
-0.1473394 -0.05707822 0.69687498
-0.14215715 -0.056796912 0.69749999
-0.13750717 -0.055800479 0.69749999
-0.13295239 -0.055175241 0.69800001
-0.12696953 -0.055175241 0.69800001
-0.1222731 -0.055155482 0.69774997
-0.11699811 -0.055175241 0.69800001
-0.11234477 -0.055175241 0.69800001
-0.095060959 -0.055175241 0.69800001
-0.092401914 -0.055175241 0.69800007
-0.088128433 -0.055578899 0.69749999
-0.084303819 -0.055096194 0.69700003
-0.16581017 -0.05290921 0.69733334
-0.16274492 -0.052734837 0.69585723
-0.15811335 -0.053411245 0.69580001
-0.1522381 -0.054607145 0.69500005
-0.14760476 -0.0549381 0.69500005
-0.1425743 -0.05467334 0.69500011
-0.13739252 -0.053046945 0.69500011
-0.13288233 -0.053135104 0.69614297
-0.12736049 -0.053288735 0.6965
-0.12262857 -0.05302953 0.6960001
-0.11781906 -0.053614289 0.69500005
-0.11260334 -0.05365286 0.69550002
-0.10714287 -0.053146128 0.69628584
-0.10238464 -0.053135104 0.69614297
-0.097897038 -0.05252286 0.6961112
-0.092913613 -0.053135108 0.69614297
-0.087371431 -0.053614289 0.69500005
-0.082240641 -0.052791748 0.69577789
-0.07728532 -0.053200681 0.69700009
-0.072505809 -0.052359905 0.69590008
-0.06741143 -0.051941801 0.69622231
-0.062442861 -0.05314333 0.69749999
-0.057931587 -0.052183658 0.6965
-0.052777011 -0.051640954 0.6964286
-0.047772866 -0.052420098 0.69670004
-0.042280614 -0.052536022 0.69663644
-0.037141334 -0.052132197 0.69640005
-0.032510482 -0.051753338 0.69666672
-0.027985446 -0.051704086 0.69728577
-0.022590121 -0.051823933 0.69762498
-0.017136192 -0.052205909 0.69740003
-0.012621431 -0.051814765 0.69749999
-0.0079016937 -0.052064877 0.69788891
-0.0026590477 -0.05118667 0.69800001
0.0033238097 -0.051186673 0.69800007
0.0079735722 -0.051168334 0.69774997
0.012285953 -0.051464047 0.69725001
0.016611747 -0.051162224 0.69766665
0.023266668 -0.05118667 0.69800001
-0.053614289 -0.049642861 0.69500005
-0.031109527 -0.049642861 0.69500005
-0.027858574 -0.049750004 0.69650006
-0.022539049 -0.04971429 0.6960001
-0.016562223 -0.049027942 0.69566673
-0.012755239 -0.048538096 0.69575012
-0.0079553574 -0.049061313 0.69612503
-0.0023881905 -0.048697334 0.69660002
0.0024709092 -0.048167713 0.69627279
0.0075582862 -0.049463812 0.69620007
0.012601588 -0.049738102 0.69633341
0.01774635 -0.04852964 0.69588894
0.022527561 -0.047706008 0.69568747
0.026457556 -0.047509801 0.69700009
0.02672286 -0.043948889 0.69566673
0.021180954 0.01919524 0.69500005
-0.16632859 0.023194859 0.69580013
-0.16261213 0.023744084 0.69528586
-0.1585262 0.024159525 0.69500005
-0.1522381 0.024490478 0.69500005
-0.14760476 0.024490478 0.69500005
-0.14495715 0.024490478 0.69500005
-0.1370143 0.024490479 0.69500005
-0.13370478 0.024490478 0.69500005
-0.12668858 0.024225716 0.69500011
-0.12245239 0.024490479 0.69500005
-0.11781906 0.024490478 0.69500005
-0.11329302 0.024513971 0.69566673
-0.10524286 0.024490478 0.69500005
-0.026306352 0.024096191 0.69633341
-0.022968892 0.024072699 0.69566679
-0.016878571 0.024159525 0.69500005
-0.012576192 0.023828574 0.69500011
-0.0081634931 0.023607938 0.69500011
-0.0024693508 0.023318356 0.6959092
0.002431958 0.022774184 0.69644445
0.0076772799 0.022651704 0.69657147
0.012594286 0.022538099 0.69600004
0.017433075 0.022019397 0.69672734
0.022344129 0.021461168 0.69688892
0.025907144 0.02125762 0.69749999
-0.16619048 0.026590478 0.69800001
-0.16238683 0.026669525 0.69757146
-0.15761852 0.026922438 0.69700003
-0.15245533 0.027089786 0.69681823
-0.14744543 0.027744923 0.69633341
-0.14281014 0.026948145 0.69627285
-0.13767499 0.026436873 0.6964286
-0.13236089 0.027719712 0.6967693
-0.1275463 0.027325323 0.69691676
-0.12213026 0.027737441 0.69723088
-0.11760822 0.027629308 0.69707698
-0.11328037 0.026742501 0.69762498
-0.10711773 0.026912956 0.69600004
-0.10280239 0.028218195 0.69550008
-0.098031923 0.028483331 0.69550008
-0.092385359 0.028197739 0.69662505
-0.087812774 0.028786287 0.69640005
-0.081986345 0.028950797 0.69611114
-0.077013344 0.028964659 0.69644451
-0.072092794 0.028894698 0.69628584
-0.067408994 0.028119864 0.69585723
-0.062516943 0.027566196 0.69621432
-0.057311069 0.027917808 0.6966154
-0.052875027 0.027791066 0.6960001
-0.047904544 0.028316412 0.69638467
-0.04273456 0.029089933 0.69642866
-0.037755717 0.029145241 0.69550002
-0.031873573 0.027890716 0.69725001
-0.027892224 0.02723032 0.69733334
-0.022809103 0.026795557 0.69755554
-0.017265476 0.02656262 0.69725001
-0.012621429 0.026571905 0.69749999
-0.0079695247 0.027229846 0.69733334
-0.003763492 0.026786989 0.69733334
-0.10569715 0.031243812 0.69800001
-0.10230048 0.031664606 0.69749999
-0.098384768 0.031243812 0.69800001
-0.089078099 0.031243812 0.69800001
-0.083760008 0.031908572 0.69800001
-0.077777147 0.031243812 0.69800007
-0.071794286 0.031243812 0.69800001
-0.067362547 0.031686988 0.69800007
-0.064481907 0.031908572 0.69800001
-0.051851429 0.031243812 0.69800001
-0.047862861 0.031243812 0.69800001
-0.043652698 0.031686988 0.69800007
-0.037226669 0.031243812 0.69800001
-0.16560763 -0.061013337 0.70400006
-0.16214001 -0.061640482 0.70350003
-0.15741271 -0.061625719 0.70333338
-0.15322687 -0.061264195 0.70380002
-0.14728127 -0.061013337 0.70400012
-0.14281145 -0.061013337 0.70400012
-0.12739049 -0.061013337 0.70400006
-0.12269714 -0.061013337 0.70400012
-0.111595 -0.061326906 0.70375001
-0.10720001 -0.061640482 0.70350003
-0.10253429 -0.060984448 0.70366669
-0.09743163 -0.061246861 0.70360005
-0.092902295 -0.061264195 0.70380002
-0.089046672 -0.060926672 0.70300001
-0.082468577 -0.061013337 0.70400006
-0.065036193 -0.061013337 0.70400006
-0.063695244 -0.061013337 0.70400006
-0.059001908 -0.061013337 0.70400006
-0.04626286 -0.061013337 0.70400006
-0.042910479 -0.061013337 0.70400006
-0.039558098 -0.061013337 0.70400006
-0.027489524 -0.061013337 0.70400006
-0.16623639 -0.057016578 0.70100003
-0.1626325 -0.057932049 0.70063651
-0.15771268 -0.058308858 0.70050013
-0.15258922 -0.058945403 0.70066667
-0.14768414 -0.05947461 0.70166671
-0.1425101 -0.059168387 0.70120001
-0.13745905 -0.058594711 0.70177776
-0.13231035 -0.058000591 0.70246166
-0.12740374 -0.058023639 0.70172739
-0.12248303 -0.058126193 0.70150012
-0.11753222 -0.058068663 0.70227283
-0.11208845 -0.057714969 0.70114291
-0.10737167 -0.05735454 0.70025003
-0.1028131 -0.057416663 0.70100003
-0.097596832 -0.057545278 0.70093346
-0.09257172 -0.058242954 0.70130008
-0.087633133 -0.058251329 0.70122224
-0.082573548 -0.057470411 0.70164293
-0.077792935 -0.057248302 0.70242864
-0.072453596 -0.056760442 0.70263642
-0.06741105 -0.057114284 0.70220011
-0.062794827 -0.057453513 0.70143753
-0.057646673 -0.057382166 0.70220023
-0.052160073 -0.057105135 0.70284617
-0.047475159 -0.057506274 0.70208347
-0.042738989 -0.057432808 0.70118761
-0.037554991 -0.05733861 0.70166683
-0.031917077 -0.05724211 0.70235717
-0.027401989 -0.057479128 0.70175004
-0.022927348 -0.057224635 0.70214295
-0.017392939 -0.056864366 0.70241678
-0.011760137 -0.056122318 0.70271432
-0.0073525403 -0.05614778 0.70183337
-0.0029425714 -0.056570571 0.70210004
0.0022788574 -0.055886097 0.70360005
0.0060342862 -0.055649526 0.70400006
0.023466669 -0.055649526 0.70400006
-0.16733335 -0.054000005 0.70000005
-0.070000008 -0.054000005 0.70000005
-0.068000004 -0.054000005 0.70000005
-0.056333341 -0.05366667 0.70000005
-0.052000005 -0.054000005 0.70000005
-0.037333336 -0.054000005 0.70000005
-0.032666668 -0.054000005 0.70000005
-0.027866667 -0.053733338 0.70000005
-0.022666669 -0.054000005 0.70000005
-0.018000001 -0.054000005 0.70000005
-0.012000001 -0.054000005 0.70000005
-0.0073333336 -0.054000005 0.70000005
-0.0026679765 -0.053362265 0.70037496
0.002271143 -0.052869242 0.70090008
0.0073539689 -0.053486988 0.70200002
0.012140954 -0.053625856 0.70257151
0.017905358 -0.053219166 0.70287502
0.022661909 -0.052920442 0.70172727
0.026049525 -0.052768894 0.7013334
0.0033333336 0.024666671 0.70000005
0.0073333336 0.024666671 0.70000005
0.01200762 0.024684288 0.70050001
0.017333334 0.024666669 0.70000005
0.022961635 0.024105309 0.70028579
0.026000002 0.024000002 0.70000005
-0.16600001 0.028666668 0.70000005
-0.16266668 0.028666668 0.70000005
-0.15666667 0.028666668 0.70000005
-0.14200002 0.028666668 0.70000005
-0.13800001 0.028666668 0.70000005
-0.12866667 0.028666668 0.70000005
-0.11133334 0.028333334 0.70000005
-0.10866667 0.028666668 0.70000005
-0.034000002 0.028666668 0.70000005
-0.022000004 0.028666668 0.70000005
-0.017333334 0.028666668 0.70000005
-0.012666668 0.028666668 0.70000005
-0.0015561905 0.027791431 0.70033336
0.0026753177 0.027416114 0.70208347
0.007357778 0.027425716 0.70233333
0.012024127 0.027392861 0.70150012
0.017348018 0.027356749 0.7005834
0.022713255 0.027389763 0.70141673
0.026762065 0.027432542 0.70250005
-0.16652383 0.032238416 0.70033336
-0.16278404 0.0321819 0.70135301
-0.15739423 0.031908255 0.70086658
-0.1522034 0.032045178 0.70093751
-0.14752963 0.032645453 0.70209098
-0.14291328 0.031953525 0.70186681
-0.13755442 0.032053571 0.70112509
-0.13232823 0.032505788 0.70092314
-0.12740928 0.032019921 0.70041668
-0.12288246 0.032292653 0.70014292
-0.11722579 0.03230973 0.70049995
-0.11222012 0.032065 0.70137513
-0.10751048 0.03207792 0.7003637
-0.10269159 0.033563651 0.7001667
-0.096984088 0.032692991 0.70054549
-0.092621587 0.032357298 0.70050013
-0.08752308 0.032831006 0.70033342
-0.082412094 0.032804862 0.70010006
-0.07711111 0.033111114 0.70000005
-0.072222233 0.033111114 0.70000005
-0.067666672 0.03366667 0.70000005
-0.06213326 0.032345477 0.70024991
-0.057409827 0.032476485 0.70030773
-0.052255247 0.033132698 0.70044446
-0.047333341 0.033333339 0.70000005
-0.042150956 0.032681048 0.70030004
-0.037408657 0.0325123 0.70141673
-0.032166798 0.032167684 0.70073348
-0.027574068 0.031889964 0.70092314
-0.022717202 0.032073632 0.70156252
-0.017370477 0.032070953 0.70150006
-0.012038811 0.032105953 0.70225
-0.0074850484 0.031679522 0.70170009
-0.002942286 0.031174665 0.70240003
0.0023944222 0.030740002 0.70385718
0.0077104773 0.030506667 0.70400006
0.012282223 0.031041374 0.70344448
0.017147144 0.031213621 0.70330006
0.022780001 0.030820478 0.70350003
0.026148573 0.03017143 0.70400006
-0.16604191 0.036154289 0.70300001
-0.16024382 0.035535239 0.70400006
-0.15890287 0.035535239 0.70400006
-0.15353906 0.035535239 0.70400006
-0.14817525 0.036205716 0.70400006
-0.14080001 0.035535239 0.70400006
-0.13711238 0.035870478 0.70400006
-0.1331697 0.035973813 0.70383346
-0.12739047 0.035535239 0.70400006
-0.12241524 0.035965398 0.70366681
-0.11062858 0.035535239 0.70400006
-0.10721941 0.036186788 0.70362502
-0.10280882 0.035832621 0.70325005
-0.097854048 0.035522621 0.70375007
-0.092525721 0.035535239 0.70400006
-0.087100007 0.036180481 0.70350003
-0.082715958 0.035832621 0.70324999
-0.077748343 0.035522621 0.70375001
-0.072207622 0.035434291 0.70200002
-0.067492388 0.035417467 0.70166671
-0.062724225 0.036102727 0.70385718
-0.057912387 0.036597911 0.70380008
-0.051989119 0.036095515 0.70371431
-0.047529105 0.036819477 0.70288897
-0.043213759 0.036521483 0.70288891
-0.031512383 0.035535239 0.70400012
-0.01944381 0.035535239 0.70400006
-0.16520001 -0.065405719 0.708
-0.16250288 -0.065405719 0.70800006
-0.15036573 -0.065405719 0.708
-0.14227431 -0.065405719 0.70800006
-0.11597715 -0.065405719 0.708
-0.11260572 -0.065405719 0.70800006
-0.16675144 -0.061858099 0.70600003
-0.16294667 -0.063966669 0.70700002
-0.15767239 -0.064011909 0.70750004
-0.15236926 -0.063352391 0.7065714
-0.14778107 -0.06288036 0.70612496
-0.14234382 -0.062991008 0.70611113
-0.13764611 -0.062703438 0.7064001
-0.13274477 -0.062562868 0.70633334
-0.12751512 -0.0631347 0.70628572
-0.12220732 -0.063011117 0.70633346
-0.11741382 -0.062676661 0.70609999
-0.1132241 -0.06290409 0.70585716
-0.10811049 -0.064057156 0.70800006
-0.10227429 -0.063250005 0.70650005
-0.097384296 -0.063503973 0.70683336
-0.09207271 -0.062501907 0.70566672
-0.087032527 -0.061892662 0.70528573
-0.082257532 -0.062873147 0.70679998
-0.077737965 -0.06178885 0.70628577
-0.07277143 -0.061990961 0.70750004
-0.067596331 -0.062018104 0.70671427
-0.061872225 -0.062323343 0.70616668
-0.057560548 -0.062365722 0.70628577
-0.052472506 -0.061892744 0.706375
-0.047750004 -0.062323339 0.70616674
-0.042971432 -0.062442861 0.70500004
-0.037417281 -0.06204341 0.70699996
-0.032286428 -0.061881676 0.70624995
-0.027548097 -0.062151432 0.70550001
-0.022604192 -0.06229943 0.70640004
-0.017801771 -0.061875522 0.70728576
-0.012361906 -0.060011432 0.70800006
-0.0074171433 -0.060011432 0.708
-0.0013485715 -0.060011432 0.708
0.0030342857 -0.060348574 0.708
0.0074171438 -0.060011432 0.70800006
0.011462858 -0.060011432 0.708
-0.085271433 -0.059757147 0.70500004
-0.076542862 -0.059757147 0.70500004
-0.072111428 -0.059488576 0.70500004
-0.068485722 -0.059757147 0.70500004
-0.055728573 -0.059757147 0.70500004
-0.052595239 -0.059757151 0.7050001
-0.035585716 -0.059757147 0.70500004
-0.03357143 -0.059757147 0.70500004
-0.021485716 -0.059757147 0.70500004
-0.017468097 -0.05979953 0.70550007
-0.01232159 -0.05847016 0.70566672
-0.0073961914 -0.058497146 0.70600003
-0.0024688891 -0.059028894 0.70700002
0.0029779593 -0.057945319 0.70628577
0.0075671435 -0.057341911 0.70624995
0.012109207 -0.057180956 0.70633334
0.017514922 -0.057260957 0.70733327
0.022826409 -0.057342779 0.70681828
0.026260002 -0.057233337 0.70700002
0.015442858 -0.054385718 0.70500004
-0.0067142863 0.034242861 0.70500004
-0.0022393654 0.033827618 0.70566672
0.0029129104 0.033390794 0.70588887
0.0072257146 0.033104286 0.70574999
0.011806669 0.033695109 0.70557141
0.017922539 0.033827625 0.70566672
0.022865357 0.033626072 0.70612502
0.026578097 0.033307623 0.70649999
-0.1658743 0.038434289 0.708
-0.16264977 0.037623961 0.7063846
-0.15752859 0.037989389 0.70685714
-0.15232985 0.037888095 0.70616663
-0.14744017 0.037646189 0.70583332
-0.1427083 0.037935376 0.7058571
-0.13790882 0.038467385 0.70549995
-0.1327861 0.038573336 0.70559996
-0.12778208 0.038336039 0.70616663
-0.12213868 0.03860667 0.70619994
-0.11713912 0.037792705 0.70606661
-0.11262398 0.037654921 0.70599997
-0.10750572 0.038970958 0.70550001
-0.10195247 0.038424157 0.70554543
-0.097294576 0.038488861 0.70649999
-0.092664681 0.038229696 0.70645458
-0.087471433 0.039026193 0.70649993
-0.082241394 0.03861979 0.70588887
-0.077782251 0.038189873 0.70572728
-0.072617784 0.03832699 0.70599997
-0.067206353 0.038308892 0.70566666
-0.062471747 0.038961589 0.70533335
-0.057321589 0.039185401 0.70533341
-0.052629102 0.038744025 0.70544446
-0.047760319 0.039689213 0.70633334
-0.042551029 0.03890232 0.70600003
-0.037700597 0.037700951 0.70687497
-0.032443374 0.038137142 0.70630765
-0.027580319 0.037672698 0.70633334
-0.022865359 0.037661787 0.7061249
-0.017349271 0.037793208 0.70606661
-0.012321022 0.037445381 0.70750004
-0.0075817863 0.036898214 0.70762491
-0.0031466668 0.036186669 0.70800006
0.0029861226 0.036315106 0.70800006
0.0074171438 0.035737149 0.70800006
0.013485715 0.035737146 0.708
0.01753143 0.035737146 0.708
0.022588573 0.036074288 0.708
0.026951905 0.035711907 0.70749998
-0.16182858 0.041131433 0.708
-0.15576001 0.041131433 0.708
-0.15441144 0.041131433 0.708
-0.1415 0.041776672 0.70749998
-0.13724318 0.042004656 0.70755565
-0.13208964 0.042121071 0.70762503
-0.12792273 0.041967031 0.70787501
-0.12267937 0.041991115 0.70733327
-0.11713991 0.041991331 0.70733339
-0.11260572 0.041131433 0.70800006
-0.10736048 0.04155191 0.70749998
-0.10243088 0.042455636 0.70758337
-0.097905248 0.042296909 0.70775008
-0.092377149 0.041131433 0.70800006
-0.087202288 0.041377909 0.70760006
-0.082068145 0.042352125 0.70790917
-0.07748159 0.042447094 0.70744449
-0.072473213 0.041967027 0.70787501
-0.067621484 0.042011112 0.7076667
-0.062907055 0.041624006 0.70719999
-0.057484448 0.041542228 0.70733333
-0.052557152 0.041776672 0.70749998
-0.047590669 0.041389529 0.70780003
-0.042480003 0.041131433 0.70800006
-0.037085719 0.041670863 0.708
-0.031916194 0.04158096 0.70800006
-0.027645718 0.041131433 0.70800006
-0.022925716 0.041131433 0.708
-0.017756194 0.041131433 0.70800006
-0.069451436 0.045177147 0.708
-0.15776001 -0.070040002 0.71400005
-0.15232001 -0.070040002 0.71400005
-0.14756003 -0.070040002 0.71400011
-0.1428 -0.070040002 0.71400005
-0.13622668 -0.07049334 0.71400011
-0.13260001 -0.070040002 0.71400011
-0.12761335 -0.070040002 0.71400011
-0.12308001 -0.070040002 0.71400011
-0.11764001 -0.070040002 0.71400011
-0.11424001 -0.070040002 0.71400005
-0.10812001 -0.070040002 0.71400005
-0.10132001 -0.070040002 0.71400005
-0.097920008 -0.070040002 0.71400005
-0.093840003 -0.070040002 0.71400005
-0.078880005 -0.070040002 0.71400005
-0.049640004 -0.070040002 0.71400005
-0.023800002 -0.070040002 0.71400005
-0.018133335 -0.070493333 0.71400011
-0.16613239 -0.068150006 0.71200001
-0.16256134 -0.067792013 0.71180004
-0.15738201 -0.067205034 0.71145463
-0.15259838 -0.06722182 0.71150017
-0.14746971 -0.066932909 0.71118182
-0.14235002 -0.06778691 0.71175003
-0.13751861 -0.067485213 0.71130782
-0.13256876 -0.066932917 0.71118194
-0.12747839 -0.067312978 0.71169245
-0.12242972 -0.067249916 0.7118001
