# .PCD v0.7 - Point Cloud Data file format
VERSION 0.7
FIELDS x y z
SIZE 4 4 4
TYPE F F F
COUNT 1 1 1
WIDTH 1327
HEIGHT 1
VIEWPOINT 0 0 0 1 0 0 0
POINTS 1327
DATA ascii
-0.027565503 -0.023477882 0.66622221
-0.023068573 -0.023915766 0.66666669
-0.017806351 -0.023528572 0.66766679
-0.012598845 -0.022572316 0.66621435
-0.007615 -0.022844881 0.66624993
-0.0024124447 -0.022990987 0.66680008
0.0025993939 -0.02236338 0.6673637
0.007763518 -0.022413485 0.66646159
0.012576889 -0.022741845 0.66693342
0.017611325 -0.021853864 0.66833347
0.021025715 -0.021025715 0.66900003
-0.091778092 -0.018015556 0.66766667
-0.087944843 -0.017432308 0.66653848
-0.083811119 -0.016255558 0.66500008
0.014566667 -0.019633334 0.66500002
0.018380955 -0.019331429 0.66550004
0.021631431 -0.019721907 0.66800004
-0.091430008 -0.013698572 0.66900003
-0.087694421 -0.012853779 0.66820002
-0.082666613 -0.012416804 0.66621429
-0.079166673 -0.010766667 0.66500002
-0.086014293 -0.0095571438 0.66900003
-0.08234334 -0.0091252383 0.66850013
-0.07730829 -0.0080559719 0.66661543
-0.072798692 -0.006501548 0.666125
-0.06903334 -0.0057000006 0.66500002
-0.075820006 -0.0044600004 0.66900003
-0.072199926 -0.0030735717 0.66791677
-0.067543574 -0.0020073811 0.66591668
-0.063966669 -0.0012666668 0.66500002
-0.067487627 0.0012738096 0.66850007
-0.062274657 0.0026879855 0.66669232
-0.057671025 0.0037123815 0.66542858
-0.060528576 0.0057342863 0.66900003
-0.056961637 0.0062688449 0.66771436
-0.051966928 0.0074431174 0.66618186
-0.047958892 0.0086623821 0.66550004
-0.043277781 0.0095000006 0.66500008
-0.050971434 0.01083143 0.66900003
-0.046730489 0.01238176 0.66792315
-0.042229868 0.012898574 0.66750014
-0.037777554 0.013680138 0.6658572
-0.034833334 0.014566667 0.66500002
-0.045237146 0.015928572 0.66900003
-0.041414291 0.015928572 0.66900003
-0.037087534 0.017764417 0.66827279
-0.033198975 0.017974524 0.66608328
-0.029359367 0.019220956 0.66533339
-0.032220762 0.021522859 0.66860008
-0.027896062 0.02262735 0.66785711
-0.022873215 0.022875238 0.66712499
-0.017909909 0.022993211 0.66686678
-0.013622143 0.02439262 0.66525006
-0.021025715 0.026122859 0.66900003
-0.017840002 0.026122859 0.66900003
-0.012263224 0.027799638 0.66684622
-0.0079238899 0.02842024 0.66558331
-0.0034833336 0.029450003 0.66500002
-0.01083143 0.031220002 0.66900003
-0.0073600011 0.031705581 0.66771442
-0.0025413497 0.032386906 0.66674995
0.0023901835 0.033415534 0.66584611
0.0074646892 0.033321686 0.66592306
-0.0012742858 0.03504286 0.66900003
0.0029711116 0.036723811 0.66866672
0.0074602612 0.037420955 0.66800004
0.0089200009 0.040140003 0.66900003
-0.1200362 -0.030169526 0.67400002
-0.11746859 -0.030811429 0.67400002
-0.11297525 -0.030811433 0.67400002
-0.10780071 -0.030800242 0.67375004
-0.10227039 -0.030959899 0.67255551
-0.097375721 -0.031392697 0.67266667
-0.092114732 -0.031481646 0.67209089
-0.087273166 -0.031499483 0.67245454
-0.082438178 -0.031396434 0.67275
-0.077739336 -0.031699322 0.67142856
-0.07266058 -0.031597715 0.67160004
-0.06787318 -0.031376831 0.67233336
-0.062995352 -0.030964868 0.67266667
-0.057590365 -0.030714883 0.671875
-0.052019525 -0.031373098 0.67224997
-0.047401831 -0.031388968 0.67258328
-0.042461272 -0.031224443 0.67211115
-0.037457418 -0.030681364 0.67314285
-0.031692192 -0.030408382 0.67360002
-0.027128894 -0.031403176 0.67288888
-0.023055954 -0.030743811 0.67250001
-0.019033335 -0.031010479 0.67366666
-0.007600409 -0.030858371 0.67300004
-0.0034567621 -0.030610669 0.67240006
0.0089723812 -0.030124765 0.67300004
0.01283 -0.030147145 0.6735
-0.12517144 -0.028885717 0.67400002
-0.12132001 -0.028457781 0.67400002
-0.11714498 -0.027450165 0.67377782
-0.11284016 -0.027335385 0.67230767
-0.10745423 -0.027503094 0.67158335
-0.10222208 -0.027473018 0.67083335
-0.096841075 -0.027882332 0.67044449
-0.092968442 -0.028191295 0.67057151
-0.088073693 -0.028081551 0.67012507
-0.083278507 -0.028185716 0.67042857
-0.077847622 -0.029671431 0.67000002
-0.072955564 -0.029565081 0.67000002
-0.06703271 -0.028728575 0.67033339
-0.062595569 -0.028317463 0.67066669
-0.057829142 -0.02846762 0.67020005
-0.052749213 -0.029139683 0.67000002
-0.047616575 -0.02846762 0.67020005
-0.042023133 -0.02834966 0.67000002
-0.037092701 -0.027873017 0.67022228
-0.032583021 -0.028111272 0.67083335
-0.027985038 -0.028167348 0.67000002
-0.02277397 -0.027882541 0.67044449
-0.017923336 -0.027528575 0.67216671
-0.012795398 -0.027508415 0.67166674
-0.0078755571 -0.027882332 0.67044449
-0.0025528574 -0.027706191 0.67030007
0.0025608733 -0.027525481 0.67208332
0.0076735727 -0.027504209 0.67158335
0.012776747 -0.027469609 0.67075002
0.017916512 -0.027514448 0.6718334
0.022251297 -0.026828712 0.6730001
-0.11618477 -0.023750478 0.67400002
-0.11249817 -0.023065377 0.6727857
-0.10748121 -0.023030836 0.67174995
-0.1022481 -0.023004884 0.671
-0.093800008 -0.024885716 0.67000002
-0.017228574 -0.024885718 0.67000002
-0.013400001 -0.024885716 0.67000002
0.0025523813 -0.024885716 0.67000002
0.0070190481 -0.024885718 0.67000002
0.014676192 -0.024885716 0.67000002
0.018148301 -0.02434939 0.67028582
0.022039525 -0.02331762 0.67075002
-0.11169144 -0.01989905 0.67400002
-0.10727954 -0.019081907 0.67349994
-0.10240226 -0.018225513 0.6732142
-0.097126856 -0.017890418 0.67093742
-0.093800008 -0.017228574 0.67000002
-0.10077906 -0.014763811 0.67400002
-0.09697441 -0.013750689 0.67333329
-0.093263462 -0.01231631 0.671875
-0.089971438 -0.01084762 0.67000002
-0.090627149 -0.0086452384 0.67250001
-0.087219767 -0.0074611912 0.67175001
-0.082633339 -0.006748043 0.67144448
-0.07784763 -0.0057428577 0.67000002
-0.081013978 -0.0036330163 0.67333335
-0.07747291 -0.0023807792 0.67127275
-0.073727861 -0.00095738098 0.67025006
-0.076084577 0.0016685715 0.67360002
-0.072533146 0.0017929524 0.67160004
-0.067654155 0.0037537417 0.67285717
-0.064543813 0.0044733337 0.671
-0.066116191 0.0057771434 0.67400002
-0.062630773 0.007639708 0.67261535
-0.057708681 0.0087313242 0.6707778
-0.053839684 0.0091507947 0.67033339
-0.062264767 0.010912383 0.67400002
-0.057206433 0.011698097 0.67299998
-0.052537076 0.012950111 0.67207688
-0.048732385 0.014258097 0.67033339
-0.051138416 0.016475556 0.67400002
-0.047455084 0.017597307 0.6718334
-0.04233532 0.018341321 0.6711539
-0.038923811 0.019142859 0.67000002
-0.041021906 0.021151431 0.67300004
-0.036973096 0.022482304 0.67125005
-0.03241881 0.024115715 0.67075002
-0.027438097 0.024885716 0.67000002
-0.035304762 0.025034288 0.67400002
-0.031710096 0.026574859 0.67400002
-0.027366312 0.027366074 0.67212498
-0.023158442 0.027569529 0.67036372
-0.017872192 0.027701719 0.67020005
-0.014676192 0.028076192 0.67000002
-0.025676193 0.031453334 0.67400002
-0.022875069 0.031257227 0.67227274
-0.017768061 0.031551063 0.67184609
-0.013108256 0.032502543 0.67133331
-0.008042858 0.033573907 0.67020005
-0.011329524 0.035697781 0.67333335
-0.0075061228 0.036886945 0.67271429
-0.0027389114 0.0373317 0.67085719
0.0021269843 0.038498417 0.67000002
0.0095714293 0.038923811 0.67000002
-0.0057771434 0.040440004 0.67400002
-0.0020836906 0.041174408 0.67287505
0.0027436058 0.04198157 0.67221433
0.0064034527 0.042267025 0.67237496
0.0032095241 0.045575242 0.67400002
-0.13515334 -0.035566669 0.67900002
-0.13321334 -0.035566669 0.67900002
-0.12998001 -0.035566669 0.67900002
-0.12286668 -0.035566669 0.67900002
-0.1179089 -0.035566669 0.67900008
-0.11058 -0.035566669 0.67900002
-0.10691558 -0.035997786 0.67900002
-0.10257953 -0.035989054 0.67883337
-0.097550802 -0.035531748 0.6783334
-0.093016431 -0.035527382 0.67825001
-0.087687835 -0.036411431 0.67866665
-0.082934715 -0.036405616 0.67855555
-0.077827767 -0.03609851 0.67857146
-0.072104216 -0.036098506 0.67857146
-0.067384928 -0.035954133 0.67816675
-0.061864451 -0.035997786 0.67900002
-0.057525396 -0.036195882 0.67866671
-0.053352386 -0.035927936 0.67766666
-0.047818098 -0.036187142 0.6785
-0.042598534 -0.036840785 0.67863637
-0.037582725 -0.03610599 0.67871433
-0.031945337 -0.035825338 0.67900002
-0.027584288 -0.035989054 0.67883337
-0.021975873 -0.035980325 0.67866671
-0.012286669 -0.035566669 0.67900008
-0.0097000003 -0.035566669 0.67900002
0.002586667 -0.035566669 0.67900002
-0.13558446 -0.032333337 0.67900002
-0.13245311 -0.032305479 0.67841667
-0.12765113 -0.032237444 0.67693758
-0.1224771 -0.032327622 0.67613345
-0.11728132 -0.033510361 0.67662501
-0.11246463 -0.033620819 0.67700011
-0.1076343 -0.033516429 0.67675
-0.10298397 -0.033470638 0.6758334
-0.097822621 -0.034109287 0.67575002
-0.092639059 -0.034096669 0.67550004
-0.087688573 -0.034172386 0.67700005
-0.082407624 -0.034121908 0.67600006
-0.077257149 -0.034121908 0.67600006
-0.072000012 -0.034071431 0.67500001
-0.066929288 -0.034109287 0.67575002
-0.062172662 -0.033621363 0.67700011
-0.057679601 -0.033394154 0.67614293
-0.052967459 -0.033668097 0.67550009
-0.047659289 -0.034134526 0.67625004
-0.042061906 -0.033693336 0.67600006
-0.037163604 -0.033297781 0.67666668
-0.032374378 -0.032962255 0.67618197
-0.027481718 -0.033935431 0.67740005
-0.022188168 -0.033606943 0.6767143
-0.017116511 -0.032731745 0.67677772
-0.01289524 -0.032241426 0.67699999
-0.007804445 -0.033155557 0.67666674
-0.0017691668 -0.03235893 0.67612511
0.0025770834 -0.03221387 0.6764375
0.0073130741 -0.03200762 0.67581826
0.012863453 -0.032160837 0.67537504
0.017853247 -0.031435583 0.67609102
0.022299528 -0.031709809 0.67670006
0.026342385 -0.031513572 0.67874998
-0.13256668 -0.029100005 0.67900008
-0.12779811 -0.027106808 0.67771429
-0.12252938 -0.026703445 0.67630786
-0.11855875 -0.025512382 0.67533338
0.023368891 -0.028514288 0.67533338
0.026210098 -0.028532384 0.67780012
-0.12195865 -0.022988029 0.67857146
-0.11775838 -0.021861732 0.67700005
-0.11549763 -0.019355714 0.67750001
-0.11219038 -0.017848574 0.67744452
-0.10805335 -0.016936509 0.67533338
-0.10414286 -0.016071429 0.67500001
-0.11058 -0.014873334 0.67900002
-0.10683668 -0.014000478 0.67850006
-0.10268261 -0.013060088 0.6765455
-0.098440692 -0.011672791 0.67557156
-0.1012616 -0.0088330163 0.67866671
-0.097248264 -0.0082524875 0.67822218
-0.093211204 -0.0074000801 0.67575014
-0.089357145 -0.0057857148 0.67500001
-0.095060006 -0.0045266668 0.67900002
-0.092227034 -0.003390834 0.67837501
-0.087671794 -0.0025753577 0.67687494
-0.082990766 -0.0019292381 0.67550009
-0.086006671 0.0012933334 0.67900002
-0.082515627 0.00245454 0.67793334
-0.077948004 0.0032219049 0.67640013
-0.072027385 0.0045016669 0.67524999
-0.080833338 0.0058200005 0.67900002
-0.077072978 0.0066248812 0.67862499
-0.0720677 0.0074674156 0.67735726
-0.06775412 0.0079075322 0.67636371
-0.064928576 0.0090000005 0.67500001
-0.070486672 0.011640001 0.67900002
-0.066931508 0.01269881 0.67791665
-0.062490653 0.01341446 0.6764546
-0.058218785 0.013888709 0.67600006
-0.05464286 0.014785715 0.67500001
-0.065313339 0.016166668 0.67900002
-0.061618418 0.016589843 0.67866671
-0.057511196 0.017286193 0.6785
-0.053066861 0.017904002 0.67620009
-0.047785722 0.019928573 0.67500007
-0.052380007 0.020477779 0.67900008
-0.047807466 0.022611748 0.67833328
-0.042763434 0.022798289 0.67620009
-0.039214287 0.023785716 0.67500001
-0.045913335 0.025866669 0.67900002
-0.042366199 0.026220862 0.67809999
-0.037303738 0.027091827 0.67725003
-0.032439187 0.028395923 0.67542869
-0.028928574 0.028928574 0.67500001
-0.035566669 0.031040002 0.67900002
-0.032028195 0.031382855 0.67799997
-0.027607067 0.032551352 0.67675006
-0.022522857 0.034105085 0.67566675
-0.018642858 0.034071431 0.67500007
-0.025220001 0.035566669 0.67900002
-0.021760318 0.037273496 0.67866671
-0.017524764 0.037094764 0.67733335
-0.013225714 0.037693411 0.67607707
-0.0090000005 0.039214287 0.67500001
-0.016166668 0.040740002 0.67900002
-0.012437977 0.041510597 0.67837501
-0.0078657158 0.042677402 0.67686677
-0.0030578573 0.043602623 0.67575002
0.0012857143 0.044357147 0.67500001
-0.0071133338 0.04643067 0.67900002
-0.0023667729 0.046661377 0.67733341
0.002518269 0.047155332 0.67654556
0.0063068569 0.046728574 0.67580003
-0.15113145 -0.041040003 0.68400002
-0.14722286 -0.041040003 0.68400002
-0.14222859 -0.041040003 0.68400002
-0.13810286 -0.041040003 0.68400002
-0.13224001 -0.041040003 0.68400002
-0.11074287 -0.041040003 0.68400002
-0.10736786 -0.041320719 0.68325001
-0.10264654 -0.041598372 0.68400007
-0.096411437 -0.041040003 0.68400002
-0.092359342 -0.042076293 0.68390006
-0.087640643 -0.041434288 0.68333334
-0.08161772 -0.041264575 0.68340009
-0.077286556 -0.042142026 0.68337506
-0.072880253 -0.042297225 0.68325013
-0.067930341 -0.042601105 0.68330777
-0.062468577 -0.041645959 0.68325007
-0.056835562 -0.041434295 0.6833334
-0.051708765 -0.041288573 0.68380004
-0.047691077 -0.042157505 0.68362504
-0.043103557 -0.042158619 0.68290919
-0.037761793 -0.041668933 0.68362498
-0.034525715 -0.041040003 0.68400002
-0.027229717 -0.041300576 0.68400002
-0.021959484 -0.042202428 0.68363643
-0.017588574 -0.041040003 0.68400002
-0.013452858 -0.041444287 0.68350005
-0.15569144 -0.039737146 0.68400002
-0.1524343 -0.037782863 0.68400002
-0.14707507 -0.03774542 0.68331242
-0.14223796 -0.037874728 0.68292314
-0.13771313 -0.037678711 0.68207157
-0.13263239 -0.038175389 0.6829232
-0.12767804 -0.037888639 0.6825
-0.12253828 -0.038211346 0.68209094
-0.11751144 -0.0380181 0.68233335
-0.1128543 -0.037620883 0.68192315
-0.10798629 -0.038549148 0.6814
-0.10248363 -0.038627431 0.68280005
-0.097559929 -0.038375001 0.68291676
-0.092396975 -0.038436629 0.6819092
-0.087382868 -0.039150476 0.68133342
-0.082328893 -0.038895875 0.68066669
-0.077598728 -0.038692493 0.68088889
-0.072845295 -0.038692489 0.68088895
-0.067322284 -0.038526669 0.68099999
-0.062392201 -0.038526289 0.68099993
-0.057136435 -0.038957383 0.68175006
-0.051962484 -0.038583051 0.6820001
-0.047300007 -0.038876511 0.68033338
-0.042872384 -0.038986672 0.68000001
-0.037538204 -0.038692493 0.68088895
-0.032682858 -0.03847732 0.68263644
-0.027004192 -0.038560767 0.68160003
-0.022064762 -0.038549148 0.6814
-0.017529048 -0.037656352 0.68166661
-0.013119416 -0.038063299 0.6809231
-0.0079446901 -0.03762909 0.68207699
-0.0025535533 -0.037291139 0.68323082
0.0028166138 -0.03792138 0.68255562
0.0077913497 -0.037011351 0.68175006
0.013025874 -0.03625413 0.68383336
0.017580003 -0.037113972 0.68366665
0.022116512 -0.037078254 0.68300009
0.027160868 -0.036984421 0.68345463
0.031438418 -0.036210477 0.68300003
-0.15178287 -0.033874288 0.68400002
-0.14687678 -0.03346343 0.68360007
-0.14240295 -0.032511033 0.68275011
-0.13824287 -0.032389905 0.68019998
-0.0032380957 -0.034323812 0.68000001
0.008419048 -0.034323812 0.68000001
0.013005476 -0.03446262 0.68275005
0.017537145 -0.034424763 0.68200004
0.022019049 -0.034323812 0.68000001
0.027871566 -0.03361252 0.68057144
0.030930795 -0.03395937 0.68133342
-0.14070858 -0.02801143 0.68400002
-0.13729256 -0.027630161 0.68266672
-0.13285355 -0.026490858 0.68180007
-0.13614859 -0.024102859 0.68400002
-0.13154072 -0.02344262 0.68375003
-0.12735343 -0.022089921 0.68225002
-0.12342858 -0.021388302 0.68057144
-0.11980953 -0.020076191 0.68000001
-0.12637715 -0.018240001 0.68400002
-0.12230502 -0.017564526 0.68308342
-0.11766228 -0.017364407 0.68162507
-0.11419684 -0.016622223 0.68000001
-0.12094858 -0.014548573 0.68400002
-0.11696866 -0.013236905 0.68358344
-0.11278898 -0.012999921 0.68258345
-0.10822117 -0.012039365 0.68133336
-0.10426667 -0.011009525 0.68000001
-0.11204573 -0.0094457148 0.68400002
-0.10750826 -0.0087474082 0.68322229
-0.10317506 -0.0071445717 0.68220001
-0.098895565 -0.0062746033 0.68166673
-0.10126024 -0.0035811907 0.68375003
-0.097759314 -0.0024726985 0.68340003
-0.0932412 -0.00097452383 0.68225002
-0.096281148 0.0016937144 0.68400002
-0.09238559 0.0026034527 0.68312496
-0.087580189 0.0030101305 0.68118179
-0.091590866 0.0063840002 0.68400002
-0.087162457 0.0064187767 0.68371433
-0.082300961 0.0081573632 0.68292314
-0.077886194 0.0088712703 0.68150008
-0.073828578 0.0097142868 0.68000001
-0.080125719 0.011725715 0.68400002
-0.077330306 0.012840434 0.68336368
-0.073056206 0.013184083 0.68228573
-0.068863496 0.014463494 0.68000001
-0.07174591 0.017057527 0.68360007
-0.06771975 0.017654115 0.68190914
-0.06263461 0.018358415 0.68033332
-0.057638098 0.018780954 0.68000001
-0.071005717 0.020194286 0.68400002
-0.067700006 0.020179525 0.68350005
-0.062295124 0.020982502 0.68312508
-0.05703776 0.021832723 0.68278575
-0.052794054 0.022904526 0.68225008
-0.055371433 0.025405716 0.68400002
-0.051939245 0.027206669 0.68339998
-0.047653817 0.02753 0.68170005
-0.04323969 0.028753337 0.68100011
-0.038857147 0.029142858 0.68000001
-0.050160002 0.030617144 0.68400002
-0.047348216 0.031728692 0.683375
-0.042927284 0.032242522 0.68292862
-0.037990749 0.032697964 0.68271434
-0.03287778 0.033959366 0.68133342
-0.035828575 0.035828575 0.68400002
-0.031901907 0.037110288 0.68360007
-0.027423812 0.037822541 0.68233329
-0.023577144 0.03914921 0.68133342
-0.018780954 0.039504763 0.68000001
-0.026697431 0.04232429 0.68370003
-0.02210119 0.042901788 0.68250006
-0.017655585 0.043048315 0.68200004
-0.013448573 0.043909051 0.68050003
-0.021497145 0.046251431 0.68400002
-0.016285716 0.046251431 0.68400002
-0.012737008 0.046761226 0.68328583
-0.0082614971 0.047994021 0.68228573
-0.0032457146 0.048666667 0.68133342
0.0032380957 0.049866669 0.68000001
0.0064761909 0.04921905 0.68000001
-0.0062971432 0.050594293 0.68400002
-0.002604286 0.051426034 0.68350005
0.0024515751 0.052495394 0.68307698
0.0071487627 0.051992763 0.68240011
0.0035828573 0.055697147 0.68400002
0.0065095243 0.055982385 0.68350005
-0.17126572 -0.045277145 0.68900001
-0.16732858 -0.045277145 0.68900001
-0.16295399 -0.045277145 0.68900001
-0.1587981 -0.045277145 0.68900001
-0.15158001 -0.045277145 0.68900001
-0.14698666 -0.045277145 0.68900001
-0.13386287 -0.045277145 0.68900001
-0.12861334 -0.045277145 0.68900001
-0.10170954 -0.045277145 0.68900001
-0.097046196 -0.045572385 0.68850005
-0.092704915 -0.045745719 0.68757141
-0.08821962 -0.045487054 0.68820012
-0.082680002 -0.045277145 0.68900001
-0.077022187 -0.045764495 0.68785721
-0.072297148 -0.04592327 0.68742859
-0.067138337 -0.045851193 0.68775004
-0.062635519 -0.04578327 0.68814296
-0.057724532 -0.045916907 0.68875009
-0.052445717 -0.0456708 0.68833345
-0.046928465 -0.046056721 0.68755561
-0.042387266 -0.046153691 0.68737507
-0.037930161 -0.045560002 0.68666673
-0.032980323 -0.045648895 0.68800008
-0.027480002 -0.045145717 0.68700004
-0.022267304 -0.04562699 0.68766677
-0.16716547 -0.042163897 0.68881828
-0.1626773 -0.042078666 0.68820018
-0.15731066 -0.042677581 0.68745458
-0.15285632 -0.042669646 0.686625
-0.14778751 -0.043159641 0.68662512
-0.14249188 -0.042944551 0.68666679
-0.1371582 -0.042798001 0.68710005
-0.13208781 -0.042643119 0.6869092
-0.12741612 -0.042692479 0.68750012
-0.12267294 -0.04256643 0.68758339
-0.11767031 -0.042438965 0.6874547
-0.11286439 -0.042816959 0.68740004
-0.1073211 -0.043322727 0.68771434
-0.10195643 -0.04378929 0.68625009
-0.098088577 -0.042618942 0.68611115
-0.093426675 -0.043773334 0.68600005
-0.087153032 -0.043359052 0.68633342
-0.082651839 -0.043240685 0.68642861
-0.079053335 -0.043773334 0.68600005
-0.067293338 -0.043773334 0.68600005
-0.062743574 -0.04378929 0.68625009
-0.057986356 -0.04338032 0.68666673
-0.052579738 -0.043240685 0.68642867
-0.04638667 -0.043773334 0.68600005
-0.041160002 -0.043773334 0.68600005
-0.037893333 -0.043773334 0.68600005
-0.032497145 -0.042597055 0.68618184
-0.027533337 -0.043213334 0.68600005
-0.024173334 -0.043773334 0.68600005
-0.017280819 -0.043249801 0.68657142
-0.012122381 -0.043246672 0.68800002
-0.0081395935 -0.041825306 0.68771434
-0.0026203571 -0.041928694 0.68787503
0.0026157144 -0.041859288 0.68675005
0.0078664292 -0.041951194 0.68825006
0.01246762 -0.042652383 0.68900007
0.016842686 -0.042432472 0.6873638
0.022295238 -0.041966192 0.68850005
0.02716629 -0.041602474 0.68900007
0.030840954 -0.040027622 0.68900001
-0.16601621 -0.03871524 0.68900001
-0.16182955 -0.037960749 0.6885556
-0.15763506 -0.037729613 0.68627274
-0.12348001 -0.039853334 0.68600005
-0.11694667 -0.039853334 0.68600005
-0.0058800005 -0.0392 0.68600005
-0.0028311112 -0.039853334 0.68600005
0.00196 -0.039853334 0.68600005
0.007840001 -0.039853334 0.68600005
0.012583453 -0.038731787 0.68637514
0.016594669 -0.039592002 0.68600005
0.022213334 -0.039853334 0.68600005
0.027855812 -0.039626863 0.68660009
0.032651436 -0.0378941 0.68839997
-0.16076668 -0.034121908 0.68900001
-0.1571887 -0.033139151 0.68770009
-0.15315786 -0.03207 0.68725002
-0.14816129 -0.031157147 0.68633342
-0.15223619 -0.029528573 0.68900001
-0.14681895 -0.028051326 0.6885556
-0.14295188 -0.027252171 0.68677789
-0.13916001 -0.025480002 0.68600005
-0.14188561 -0.022936311 0.68812501
-0.13749748 -0.022121081 0.68726671
-0.13250087 -0.021450194 0.68670005
-0.1315662 -0.018701429 0.68900001
-0.12780002 -0.016547484 0.68714297
-0.12422429 -0.01503762 0.68650007
-0.12664478 -0.012795715 0.68900001
-0.12298792 -0.012428857 0.68690008
-0.11912446 -0.011542222 0.68600005
-0.12073906 -0.0098428577 0.68900001
-0.11717492 -0.0091634933 0.68733335
-0.11250065 -0.0073433868 0.68722224
-0.10820572 -0.0062109525 0.68650007
-0.11155239 -0.0045933337 0.68900001
-0.10685134 -0.0032766671 0.68830007
-0.10317667 -0.0021247622 0.68674994
-0.10182159 0.0022565082 0.68777782
-0.098235004 0.0029433332 0.68650001
-0.10039715 0.0065619051 0.68900001
-0.097388417 0.006551906 0.68783343
-0.093259692 0.0076469849 0.68800008
-0.087042063 0.0087265093 0.68716669
-0.085836194 0.01179524 0.68800002
-0.082881711 0.012571049 0.68740004
-0.081070803 0.01551524 0.68833339
-0.077197388 0.017337382 0.68691671
-0.073200241 0.018300241 0.68625003
-0.076118097 0.020341907 0.68900001
-0.071980968 0.021624221 0.68800002
-0.067435242 0.022916507 0.68744451
-0.063032977 0.023413215 0.68762505
-0.058843337 0.024190955 0.68650007
-0.062249526 0.025554288 0.68800002
-0.057070863 0.027227432 0.68720007
-0.054305717 0.02944286 0.68700004
-0.055776194 0.030840954 0.68900001
-0.052397817 0.032093432 0.68769997
-0.047474861 0.034395624 0.68660009
-0.041160002 0.03462667 0.68600005
-0.045866668 0.036694288 0.68800008
-0.042223215 0.037152741 0.68737507
-0.037970673 0.037317336 0.68740004
-0.033601146 0.038830858 0.68640006
-0.032277741 0.041943215 0.68812501
-0.028978731 0.043359052 0.68633342
-0.027228575 0.046128985 0.68771434
-0.022645336 0.047515433 0.68720001
-0.017335359 0.047755599 0.68687499
-0.012439365 0.049095243 0.68733335
-0.011581905 0.050915241 0.68833339
-0.0080759525 0.052593734 0.68741667
-0.0026133333 0.05422667 0.68600005
-0.0063374611 0.056159686 0.68833339
-0.0023589525 0.056736674 0.68790019
0.0024380088 0.057994552 0.6870001
0.0063184137 0.058611117 0.68633336
-0.1321905 -0.050893337 0.69400001
-0.12723334 -0.051223814 0.69400001
-0.1235981 -0.050893337 0.69400001
-0.11897144 -0.050893337 0.69400001
-0.097160004 -0.050893337 0.69400001
-0.091872394 -0.050893337 0.69400001
-0.089228578 -0.050893337 0.69400001
-0.077331439 -0.050893337 0.69400001
-0.072043806 -0.051422101 0.69400001
-0.06754934 -0.05115772 0.69400001
-0.062085718 -0.050856672 0.69349998
-0.057502862 -0.050893337 0.69400001
-0.045605719 -0.050893337 0.69400001
-0.042300954 -0.050893337 0.69400001
-0.17032334 -0.046033815 0.69050002
-0.16727497 -0.048077811 0.69150013
-0.16276453 -0.047777869 0.6919167
-0.15711048 -0.047261477 0.69181818
-0.15267715 -0.047055006 0.69099998
-0.14756237 -0.047037434 0.69169998
-0.14245906 -0.046889704 0.69163638
-0.13757724 -0.046739135 0.6911819
-0.13230799 -0.04768689 0.69169235
-0.12727356 -0.047520734 0.69076937
-0.12241685 -0.047389824 0.69106257
-0.11721483 -0.04741554 0.6914376
-0.11237764 -0.047667421 0.69235724
-0.10756858 -0.047396775 0.69180012
-0.10269897 -0.047731515 0.69125009
-0.097679578 -0.048213597 0.69172734
-0.092334062 -0.04880619 0.69250011
-0.087242089 -0.048270654 0.69254541
-0.082596585 -0.047953334 0.69160002
-0.077924557 -0.048512492 0.69144446
-0.07248155 -0.048762266 0.69187504
-0.067081816 -0.048369434 0.69190001
-0.062534764 -0.048711907 0.69116676
-0.057911433 -0.048700001 0.69100004
-0.052763391 -0.048228152 0.69155556
-0.047753204 -0.04888545 0.69228572
-0.041880004 -0.0488449 0.69171441
-0.037070479 -0.048606906 0.69200003
-0.032638099 -0.047533333 0.69000006
-0.027609525 -0.047331668 0.69025004
-0.022312384 -0.047923818 0.69200003
-0.017122248 -0.047137629 0.69150007
-0.012526428 -0.047471508 0.69225001
-0.0079152398 -0.046827465 0.6925
-0.0026349209 -0.04677112 0.69166672
0.0026347619 -0.046783023 0.69183338
0.0080360007 -0.047299117 0.69166672
0.012505109 -0.047211953 0.691091
0.016961616 -0.046933629 0.69107699
0.022418415 -0.046816196 0.69233334
0.027647143 -0.046736352 0.69116676
0.032828659 -0.046752643 0.69318181
0.03633105 -0.046901342 0.69360006
-0.17163906 -0.042086355 0.69050002
-0.16888572 -0.040085718 0.69000006
-0.012485716 -0.044028573 0.69000006
-0.0074914293 -0.04376572 0.69000006
-0.0026285714 -0.044028573 0.69000006
0.0026285718 -0.044028573 0.69000006
0.007885715 -0.044028573 0.69000006
0.019057143 -0.044028573 0.69000006
0.022351667 -0.044044524 0.69025004
0.027893336 -0.043483544 0.6902858
0.033062927 -0.042283881 0.69153333
0.036300004 -0.042240001 0.69300002
-0.17202106 -0.03722753 0.69310009
-0.16827354 -0.036893718 0.69180006
-0.16428572 -0.036800005 0.69000006
0.034196667 -0.038799524 0.69050002
0.036300004 -0.038280003 0.69300002
-0.1665455 -0.033340715 0.69325006
-0.16286059 -0.032649145 0.69120002
-0.15870002 -0.031214289 0.69000006
-0.16207621 -0.02884762 0.6936667
-0.15740493 -0.028136831 0.69250011
-0.15232821 -0.027120003 0.69120002
-0.14812003 -0.026154285 0.69000006
-0.15187271 -0.022974921 0.69366676
-0.14729939 -0.022586463 0.69178575
-0.1433093 -0.021035954 0.69025004
-0.14607048 -0.019167621 0.69400001
-0.14262201 -0.017826764 0.69330007
-0.13761275 -0.017116398 0.69135725
-0.13299221 -0.016675847 0.69036371
-0.12945715 -0.015114287 0.69000006
-0.13655278 -0.013351239 0.69400001
-0.13226297 -0.012543175 0.69322217
-0.12848039 -0.012229715 0.69040006
-0.13020763 -0.0092533343 0.69400001
-0.12707882 -0.0087345243 0.69225001
-0.12263164 -0.0076150349 0.69121432
-0.11735131 -0.0064824498 0.69057149
-0.11368572 -0.0059142862 0.69000006
-0.12194572 -0.004296191 0.69400001
-0.11716225 -0.0028261906 0.69278568
-0.11261763 -0.0022355239 0.69069999
-0.10886668 -0.0015333336 0.69000006
-0.11610731 0.0011015874 0.69400001
-0.11200967 0.0016044901 0.69357151
-0.10750922 0.0023087305 0.69183338
-0.1034662 0.0035080954 0.69050014
-0.10509144 0.005948572 0.69400001
-0.10247468 0.0069920006 0.69240004
-0.097316191 0.0089080958 0.69274998
-0.092151172 0.0091122454 0.69042861
-0.088842861 0.0098714288 0.69100004
-0.0958381 0.011236191 0.69400001
-0.092228867 0.012288857 0.69370013
-0.08808586 0.012718233 0.69242871
-0.090991125 0.015642542 0.69400001
-0.08757855 0.017313188 0.69300008
-0.083139531 0.017331114 0.6910001
-0.079514287 0.019057143 0.69000006
-0.086295813 0.021012384 0.69380003
-0.082345724 0.021412658 0.6932857
-0.077997223 0.022704016 0.69235724
-0.072785854 0.023573063 0.6902858
-0.076615721 0.025758572 0.69350004
-0.072319776 0.027149446 0.69241679
-0.067180783 0.027665064 0.69156253
-0.06248286 0.028019432 0.69060004
-0.059274286 0.028520003 0.69000006
-0.066425718 0.031395242 0.69400001
-0.061839897 0.031910587 0.69322228
-0.057401378 0.03268709 0.69100004
-0.053074479 0.034636382 0.69140005
-0.056511432 0.036352381 0.69400001
-0.052162591 0.037070073 0.6932857
-0.048077144 0.037869047 0.69150001
-0.04271429 0.038771432 0.69000006
-0.046877861 0.04126548 0.69324994
-0.042176135 0.042178158 0.69193757
-0.037516274 0.042125322 0.69108343
-0.034059811 0.043265529 0.69040006
-0.04097905 0.045605719 0.69400001
-0.037013337 0.046927627 0.69400007
-0.032415479 0.047141355 0.69225001
-0.028189406 0.048632979 0.69237506
-0.02237762 0.049357146 0.69100004
-0.017085716 0.049285717 0.69000006
-0.026768574 0.051223814 0.69400001
-0.022248439 0.052507617 0.69285721
-0.017109226 0.05264435 0.69093752
-0.01278 0.053091329 0.69011116
-0.0098571433 0.054542862 0.69000006
-0.020930162 0.056621592 0.69400001
-0.016709525 0.057113618 0.69385713
-0.012533969 0.057394292 0.69266671
-0.0084086778 0.057537992 0.69088888
-0.0030685714 0.059390798 0.69033337
0.0006571429 0.059800003 0.69000006
-0.0070005725 0.06062305 0.69340003
-0.0021993653 0.061791118 0.69266671
0.0023536056 0.061870616 0.6921429
0.0065809526 0.061202861 0.69100004
-0.1362762 -0.055175241 0.69800001
-0.13295239 -0.055175241 0.69800001
-0.12962858 -0.055175241 0.69800001
-0.12032191 -0.055175241 0.69800001
-0.11899239 -0.055175241 0.69800001
-0.095725723 -0.055175241 0.69800001
-0.092269532 -0.055096194 0.69700003
-0.08771643 -0.055155482 0.69774997
-0.084424764 -0.055175241 0.69800001
-0.077112384 -0.055175241 0.69800001
-0.071691431 -0.055096194 0.69700003
-0.069086194 -0.055135719 0.69749999
-0.048527621 -0.055175241 0.69800001
-0.043209527 -0.055175241 0.69800001
-0.027255241 -0.055175241 0.69800001
-0.16650826 -0.052408364 0.69655561
-0.16239022 -0.052582767 0.69710004
-0.15774408 -0.052301299 0.69672734
-0.1526759 -0.052442223 0.69700003
-0.14720599 -0.05221324 0.69749999
-0.14245354 -0.052575238 0.69700003
-0.13763905 -0.052225899 0.69572741
-0.13253334 -0.052616961 0.69580007
-0.12741499 -0.053146128 0.69628578
-0.12224083 -0.052911788 0.69662505
-0.11741662 -0.052488998 0.69566679
-0.11276636 -0.052404922 0.69650006
-0.10744036 -0.05173203 0.69637507
-0.10239853 -0.052270055 0.69666672
-0.097753704 -0.052523457 0.69587505
-0.093005829 -0.05280032 0.695889
-0.087305032 -0.052480612 0.6959092
-0.082204051 -0.052373733 0.69608343
-0.077190898 -0.053135108 0.69614291
-0.0730654 -0.052757464 0.69533342
-0.067516193 -0.053124089 0.69600004
-0.062780641 -0.052833974 0.69633341
-0.056631278 -0.052871596 0.69683337
-0.052568104 -0.051907144 0.6965
-0.04795602 -0.052542686 0.69672734
-0.042453334 -0.053068094 0.6965
-0.037057988 -0.051941805 0.69622231
-0.03253746 -0.05245873 0.69722223
-0.027880002 -0.052442223 0.69700003
-0.022555955 -0.052411348 0.69658345
-0.017240718 -0.052386276 0.69625008
-0.01260434 -0.052409213 0.69655561
-0.0080968579 -0.052169044 0.69690007
-0.0025244763 -0.05221343 0.69749999
0.0023878096 -0.052161526 0.69680005
0.0079575004 -0.051731553 0.69637507
0.012606668 -0.051753338 0.69666672
0.017255001 -0.051095001 0.69675004
0.023107834 -0.052196302 0.69766665
0.028101273 -0.051998418 0.69700003
0.032298647 -0.051997144 0.69614297
0.035181906 -0.051113337 0.69700003
-0.16084287 -0.049642861 0.69500005
-0.15819526 -0.049642861 0.69500005
-0.15223812 -0.049642861 0.69500005
-0.14725858 -0.049750004 0.69650006
-0.14230955 -0.049642861 0.69500005
-0.13767619 -0.049642861 0.69500005
-0.052290481 -0.049642861 0.69500005
-0.032433338 -0.049642861 0.69500005
-0.027800003 -0.049642861 0.69500005
-0.0227254 -0.049642861 0.69500005
-0.017209526 -0.049642861 0.69500005
-0.0079428572 -0.049642861 0.69500005
-0.0026490476 -0.049678575 0.69550002
0.002647619 -0.049642861 0.69500005
0.0059571434 -0.049642861 0.69500005
0.012576192 -0.049642861 0.69500005
0.017887302 -0.049690481 0.69566673
0.022504762 -0.049642861 0.69500005
0.027800003 -0.049642861 0.69500005
0.032433338 -0.049642861 0.69500005
0.03574286 -0.049642861 0.69500005
0.037728574 -0.040376194 0.69500005
-0.17590953 -0.035181906 0.69700003
-0.17408097 -0.03574286 0.69500005
0.038279682 -0.038279682 0.69700003
-0.17233364 -0.032766957 0.69650006
-0.16850635 -0.031580638 0.69566673
-0.16696477 -0.028109312 0.69722223
-0.16299036 -0.026959594 0.69528586
-0.15819526 -0.025814287 0.69500005
-0.16212445 -0.023919685 0.69766665
-0.15742305 -0.023107708 0.69690913
-0.15338668 -0.021078859 0.69600004
-0.15105525 -0.018798098 0.69666672
-0.14779566 -0.016911034 0.69641674
-0.14297144 -0.015554762 0.69500005
-0.14602605 -0.013516827 0.69800007
-0.14253506 -0.012486096 0.69740003
-0.13811746 -0.012134923 0.69500011
-0.13436668 -0.011252382 0.69500005
-0.14092952 -0.0099714296 0.69800001
-0.1373412 -0.0088011911 0.69749999
-0.13304706 -0.0084885722 0.69640011
-0.12793145 -0.0064069848 0.6960001
-0.12579238 -0.0036500001 0.69700003
-0.12260342 -0.001987075 0.69585723
-0.11980477 -0.0013238096 0.69500005
-0.12159397 0.00066444452 0.69766665
-0.11711389 0.0029416331 0.69700009
-0.11294708 0.0036929254 0.69585729
-0.10921429 0.0046333335 0.69500005
-0.11197263 0.0063130958 0.69775003
-0.10749361 0.0079640821 0.69671428
-0.10291982 0.0094047626 0.69540006
-0.099947624 0.009928572 0.69500005
-0.10636191 0.011300953 0.69800001
-0.102026 0.01186381 0.69757152
-0.097440824 0.012594831 0.69600004
-0.093990482 0.013900001 0.69500005
-0.096096955 0.016880574 0.69779998
-0.092812635 0.017406583 0.69563645
-0.091540009 0.021228097 0.69650006
-0.087787628 0.023075623 0.69620007
-0.083002865 0.023960954 0.69500011
-0.086419053 0.025925716 0.69800001
-0.081783503 0.026918096 0.69688892
-0.077416912 0.027851192 0.69625002
-0.073030166 0.029344447 0.69500005
-0.07182496 0.031996384 0.69700003
-0.068145365 0.032996073 0.69637501
-0.062880956 0.033757146 0.69500005
-0.067140959 0.035232384 0.69800001
-0.061934646 0.036031075 0.697375
-0.05821361 0.037768167 0.69571441
-0.053879052 0.038522862 0.69500011
-0.055565085 0.040954925 0.69733334
-0.052294292 0.041670002 0.69725001
-0.048381075 0.043410122 0.69587505
-0.046905529 0.046374101 0.69760001
-0.042483959 0.047890995 0.69615394
-0.037486289 0.049406674 0.69540006
-0.033757146 0.049642861 0.69500005
-0.040550478 0.05118667 0.69800001
-0.036924671 0.05219857 0.69730002
-0.032500956 0.052400641 0.69644451
-0.028030165 0.053043071 0.69522232
-0.023828574 0.0549381 0.69500005
-0.031908572 0.055175241 0.69800001
-0.027893335 0.05578699 0.69733334
-0.022836603 0.057703815 0.69642866
-0.017892001 0.058182288 0.69580001
-0.016601523 0.060955435 0.6972
-0.16292572 -0.061013337 0.70400012
-0.11867429 -0.061013337 0.70400006
-0.11233022 -0.061575655 0.70385718
-0.1072 -0.061640482 0.70350003
-0.10325334 -0.061013337 0.70400006
-0.098113023 -0.061013337 0.70400012
-0.092525721 -0.061013337 0.70400006
-0.08714655 -0.061672982 0.70387501
-0.082774058 -0.06132691 0.70375007
-0.079786673 -0.061013337 0.70400006
-0.067000479 -0.060970005 0.70350003
-0.064319529 -0.060970005 0.70350003
-0.058331434 -0.061013337 0.70400006
-0.052508421 -0.061445877 0.70383334
-0.047570005 -0.061640482 0.70350003
-0.042880002 -0.061640482 0.70350003
-0.039558098 -0.061013337 0.70400006
-0.027482096 -0.061532386 0.70380008
-0.022380954 -0.061246861 0.70360005
-0.017432382 -0.061013337 0.70400006
-0.012739048 -0.062354289 0.70400006
-0.0026819047 -0.061013337 0.70400006
0.0020114288 -0.061683815 0.70400012
0.011666286 -0.061281528 0.70400006
0.016091431 -0.061013337 0.70400006
-0.16596168 -0.057437863 0.70125002
-0.16256416 -0.057519779 0.70176476
-0.15759313 -0.057127621 0.70184624
-0.15245216 -0.0568377 0.70208335
-0.14744401 -0.05694858 0.70180011
-0.14264327 -0.056837387 0.70208347
-0.13779937 -0.056978837 0.70200008
-0.13242429 -0.05751881 0.70225006
-0.12699324 -0.056699686 0.70222217
-0.12230097 -0.057714973 0.70228583
-0.11721796 -0.057455018 0.70207709
-0.11232059 -0.057499532 0.70200008
-0.10748716 -0.057416193 0.70100015
-0.10284929 -0.057437621 0.70125002
-0.097742461 -0.057750892 0.70157152
-0.092396371 -0.058258884 0.70163643
-0.087525465 -0.05813013 0.70154548
-0.082490012 -0.057411507 0.70092863
-0.077810004 -0.057891913 0.70190012
-0.072163463 -0.057696804 0.70218182
-0.067334726 -0.057622164 0.70127279
-0.062815897 -0.057473511 0.70168757
-0.057543755 -0.057545654 0.70256263
-0.052098036 -0.057443157 0.70131254
-0.047242686 -0.057553336 0.70045453
-0.042658482 -0.057517145 0.70060009
-0.037544891 -0.057322286 0.7014668
-0.03222229 -0.057628252 0.70193338
-0.027608227 -0.057584159 0.70081824
-0.022690956 -0.057396427 0.70074993
-0.017371491 -0.057463873 0.70156252
-0.012034168 -0.057500005 0.70200008
-0.0073486776 -0.056785293 0.70144451
-0.0026741074 -0.057483997 0.70181257
0.0026778576 -0.057560839 0.70275003
0.007366905 -0.057601355 0.70325011
0.012043394 -0.057545304 0.70256257
0.016809367 -0.057109695 0.70133346
0.021348096 -0.055372864 0.70050001
-0.15000001 -0.054000005 0.70000005
-0.14866668 -0.054000005 0.70000005
-0.11000001 -0.054000005 0.70000005
-0.10733335 -0.054000005 0.70000005
-0.10266668 -0.054000005 0.70000005
-0.061333336 -0.054000005 0.70000005
-0.058708098 -0.054038577 0.70050001
-0.053333338 -0.054000005 0.70000005
-0.03755556 -0.054000005 0.70000005
-0.0073333336 -0.054000005 0.70000005
-0.0033333334 -0.054000005 0.70000005
0.0040000002 -0.054000005 0.70000005
0.0073361909 -0.054025721 0.70033336
0.012000001 -0.054000005 0.70000005
0.017349644 -0.053381074 0.70062506
0.021111114 -0.053555559 0.70000005
-0.17533335 -0.031333335 0.70000005
-0.17279002 -0.030688096 0.70050001
-0.17533335 -0.029333334 0.70000005
-0.17242223 -0.027920809 0.70192319
-0.16878715 -0.026685242 0.70050001
-0.17147939 -0.023443811 0.70333338
-0.16756849 -0.022999717 0.7021001
-0.1629671 -0.021565611 0.70033342
-0.15866667 -0.020666668 0.70000005
-0.16549 -0.018759526 0.70350003
-0.16229169 -0.017963726 0.70336372
-0.15737212 -0.017540297 0.70223087
-0.15315831 -0.016835345 0.70088893
-0.15159009 -0.012430287 0.70180005
-0.14774743 -0.01148963 0.70055562
-0.14400001 -0.010000001 0.70000005
-0.15085715 -0.0087161912 0.70400006
-0.14743322 -0.0077387765 0.70228583
-0.14270668 -0.0074644173 0.70109099
-0.13789029 -0.0062735244 0.7008
-0.13204786 -0.0060021435 0.70025003
-0.14147049 -0.0042463494 0.70400012
-0.13746165 -0.0034783815 0.70270002
-0.13230649 -0.0028069213 0.70233345
-0.12797049 -0.0021676191 0.70075005
-0.12466668 -0.00066666672 0.70000005
-0.13074286 0.0013409525 0.70400006
-0.12774611 0.0022771431 0.70300001
-0.1229154 0.0031312092 0.70053852
-0.11894572 0.0042244452 0.70033336
-0.12207651 0.0073662442 0.70300007
-0.11747178 0.0072336802 0.70190918
-0.11309581 0.0081453342 0.70100003
-0.12001525 0.010057144 0.70400006
-0.1169981 0.010392382 0.70400006
-0.11219987 0.011756192 0.70242876
-0.10761172 0.013058778 0.70057148
-0.10309658 0.013737335 0.70020002
-0.099333338 0.014000001 0.70000005
-0.11092453 0.016421191 0.70375001
-0.1072254 0.016754605 0.70366669
-0.10224953 0.017216105 0.70254552
-0.098437786 0.017878203 0.70100003
-0.10124191 0.020784764 0.70400006
-0.096828461 0.021909166 0.70237505
-0.093122996 0.023210617 0.70200008
-0.090000004 0.024666669 0.70000005
-0.091055721 0.026781907 0.70300007
-0.087863006 0.027823543 0.70271432
-0.084262542 0.028235875 0.70033336
-0.08515048 0.03017143 0.70400006
-0.082160965 0.031086124 0.70300013
-0.077607557 0.032193333 0.70126671
-0.073359773 0.033345476 0.70025003
-0.071536198 0.036848154 0.70344448
-0.067456797 0.037585456 0.70127279
-0.063189521 0.038514048 0.70025003
-0.066377148 0.041346036 0.70400012
-0.062371176 0.042292733 0.70281821
-0.057794876 0.043102868 0.70123088
-0.053000007 0.044333339 0.70000005
-0.05664286 0.046733148 0.70300001
-0.052069128 0.047395956 0.70091677
-0.047666669 0.048333336 0.70000005
-0.050214291 0.050214291 0.70300001
-0.047116429 0.050460242 0.70175004
-0.042933423 0.052527022 0.70136374
-0.038666669 0.054000005 0.70000005
-0.028000001 0.058333334 0.70000005
-0.1611543 -0.065405719 0.708
-0.11710097 -0.065405719 0.70800006
-0.11395429 -0.065405719 0.708
-0.086308576 -0.065405719 0.708
-0.082937151 -0.065405719 0.70800006
-0.053942859 -0.065405719 0.708
-0.04787429 -0.065405719 0.708
-0.022251431 -0.066080004 0.708
-0.01142381 -0.065190166 0.70566672
-0.0077433344 -0.065650001 0.70700002
-0.16151908 -0.062726989 0.70566672
-0.15772296 -0.062490743 0.70690912
-0.15228096 -0.061990961 0.70750004
-0.14756431 -0.061990961 0.70749998
-0.14279763 -0.061968815 0.70725
-0.13745715 -0.061990958 0.70749998
-0.13302858 -0.061864771 0.7076
-0.12756845 -0.061813615 0.70657146
-0.12220616 -0.062418792 0.70609087
-0.11719969 -0.062821694 0.70588887
-0.11303858 -0.063585714 0.70649999
-0.10198039 -0.062209722 0.70539999
-0.097149402 -0.062942863 0.70628577
-0.092339054 -0.062980957 0.70600003
-0.08753334 -0.063966669 0.70700002
-0.082088098 -0.063473821 0.70649999
-0.077722587 -0.061968036 0.70614284
-0.072643571 -0.061881676 0.70624995
-0.067704909 -0.062712252 0.70585722
-0.061872229 -0.062323343 0.70616674
-0.057547908 -0.062523901 0.70590001
-0.05259601 -0.063357152 0.70620006
-0.047183096 -0.064034529 0.70775002
-0.042480003 -0.064057156 0.70800006
-0.037646785 -0.062185366 0.70587504
-0.032479364 -0.062045086 0.70555562
-0.027528573 -0.062442861 0.70500004
-0.023163132 -0.063339464 0.70642859
-0.017457144 -0.062890485 0.70500004
-0.011957144 -0.062478669 0.70539999
-0.0074020112 -0.06258148 0.70655549
-0.0030912382 -0.06274762 0.70540011
0.0047000004 -0.061100002 0.70500004
0.0073857149 -0.061100002 0.7050001
-0.15577143 -0.059757147 0.70500004
-0.15241431 -0.059757151 0.7050001
-0.1477143 -0.059757147 0.70500004
-0.14234287 -0.059757147 0.70500004
-0.13764286 -0.059757151 0.7050001
-0.13303572 -0.05979953 0.70550007
-0.12814096 -0.059366032 0.70566672
-0.076542862 -0.059757147 0.70500004
-0.073857144 -0.059757147 0.70500004
-0.035585716 -0.059757147 0.70500004
-0.0073857149 -0.059757151 0.7050001
-0.17289287 -0.022492858 0.70500004
-0.16987143 -0.021485716 0.70500004
-0.17098878 -0.01845924 0.70740002
-0.16773942 -0.01766393 0.70662504
-0.16248572 -0.015442858 0.70500004
-0.1658743 -0.01281143 0.708
-0.16294888 -0.013570886 0.70742857
-0.15744865 -0.01210905 0.70649999
-0.15404795 -0.011434605 0.70633334
-0.15291938 -0.0083085727 0.70733333
-0.14746001 -0.0060600005 0.70700002
-0.14670065 -0.0042682546 0.70766664
-0.14253727 -0.0024650798 0.7063334
-0.13764286 -0.00067142863 0.7050001
-0.13495715 -0.00067142863 0.70500004
-0.14092572 0.00067428575 0.708
-0.13716839 0.0021563808 0.70740002
-0.13291377 0.0027518617 0.70581818
-0.1289143 0.0047000004 0.70500004
-0.13148573 0.0065180957 0.70800006
-0.12745829 0.0072689536 0.70660001
-0.12421429 0.0087285722 0.70500004
-0.12609144 0.010114286 0.708
-0.12225025 0.011890239 0.70658338
-0.11771001 0.012930001 0.70524997
-0.11414286 0.014100001 0.70500004
-0.12069715 0.015508573 0.708
-0.11734416 0.017446149 0.70699996
-0.11331403 0.017655324 0.70554543
-0.10742858 0.019471429 0.70500004
-0.10407144 0.019471429 0.70500004
-0.11514001 0.020873334 0.70700002
-0.11203144 0.021195238 0.70650005
-0.10775726 0.021762116 0.70666677
-0.10232928 0.022693595 0.70645446
-0.098274872 0.023796003 0.7058
-0.094671436 0.024842858 0.70500004
-0.097365722 0.026615717 0.70749998
-0.093395725 0.027884286 0.70550001
-0.095074289 0.031017145 0.708
-0.092079051 0.031479049 0.70700002
-0.087544896 0.032410413 0.70599997
-0.082901917 0.03372515 0.70540011
-0.086645722 0.036074288 0.708
-0.081946671 0.036795814 0.70760006
-0.077291004 0.037515588 0.70681828
-0.073629811 0.038494837 0.70557147
-0.076194294 0.041131433 0.708
-0.072565556 0.042314459 0.70727283
-0.067719527 0.04284953 0.70574999
-0.063114285 0.044985719 0.70500004
-0.070750006 0.045819528 0.70749998
-0.066948406 0.046490222 0.7074545
-0.062560953 0.04776286 0.70633328
-0.05843851 0.048266809 0.70528579
-0.057273816 0.051210001 0.70749998
-0.15572001 -0.070040002 0.71400005
-0.15368001 -0.070040002 0.71400005
-0.13532001 -0.070040002 0.71400005
-0.13260001 -0.070040002 0.71400011
-0.12988001 -0.070040002 0.71400005
-0.11492001 -0.070040002 0.71400005
-0.10812001 -0.070040002 0.71400005
-0.10200001 -0.070040002 0.71400005
-0.097920008 -0.070040002 0.71400005
-0.094066672 -0.07049334 0.71400011
-0.071400002 -0.070040002 0.71400005
-0.065960005 -0.070040002 0.71400005
-0.062152006 -0.070312001 0.71400005
-0.057120007 -0.070040002 0.71400005
-0.051000003 -0.070040002 0.71400005
-0.047464002 -0.071128003 0.71400005
-0.043520004 -0.070720002 0.71400005
-0.03672 -0.070720002 0.71400005
-0.032924496 -0.070608579 0.71385723
-0.16037002 -0.066313818 0.7105
-0.15718003 -0.067305289 0.71161544
-0.15221342 -0.067316286 0.71263653
-0.1476811 -0.066636071 0.71212506
-0.14269261 -0.066711858 0.71233338
-0.13714036 -0.067120254 0.71318197
-0.1324762 -0.067257784 0.71333343
-0.12768944 -0.067086674 0.71281826
-0.12216038 -0.067189328 0.71260005
-0.11752804 -0.067534022 0.712143
-0.11248449 -0.067085817 0.71150011
-0.10744686 -0.067333765 0.71281832
-0.10272097 -0.067035235 0.71240008
-0.097600482 -0.067101598 0.71166676
-0.092393003 -0.067248061 0.71190912
-0.087920003 -0.06725572 0.71150005
-0.082684644 -0.067436799 0.71162498
-0.077346303 -0.066899441 0.71240002
-0.072325714 -0.067306869 0.71240008
-0.067580357 -0.066967197 0.71154547
-0.062378332 -0.067125015 0.7119168
-0.057326008 -0.06722182 0.71150005
-0.052314289 -0.067220546 0.71133339
-0.047591504 -0.067610845 0.71153855
-0.042274904 -0.067333765 0.71281826
-0.03758724 -0.067035235 0.71240008
-0.032533336 -0.067101285 0.71166676
-0.027099367 -0.067069702 0.71133339
-0.023677781 -0.06697493 0.71033335
-0.15620001 -0.064238101 0.71000004
-0.15292668 -0.064283341 0.7105
-0.14746216 -0.064260721 0.71025002
-0.14204928 -0.064260721 0.71025002
-0.13746002 -0.064328574 0.71100008
-0.13220701 -0.063847624 0.71066666
-0.12721333 -0.064283341 0.7105
-0.11021905 -0.064238101 0.71000004
-0.10751431 -0.064238101 0.71000004
-0.10278096 -0.064238101 0.71000004
-0.098047629 -0.064238101 0.71000004
-0.093990482 -0.064238101 0.71000004
-0.077085719 -0.064238101 0.71000004
-0.07235238 -0.064238101 0.71000004
-0.066942856 -0.064238101 0.71000004
-0.062885717 -0.064238101 0.71000004
-0.050714288 -0.064238101 0.71000004
-0.037224766 -0.064298421 0.71066666
-0.031780954 -0.064238101 0.71000004
-0.027737465 -0.064268261 0.71033335
-0.17583144 -0.016477145 0.71100008
-0.17274801 -0.016097715 0.71020001
-0.16904762 -0.015552382 0.71000004
-0.17587334 -0.014260001 0.71300006
-0.17211621 -0.012889949 0.71244454
-0.16813822 -0.01197016 0.7115556
-0.16293657 -0.010997501 0.71062499
-0.16700363 -0.0082889525 0.71340007
-0.16217716 -0.0079633342 0.71175003
-0.15761362 -0.0073162862 0.71150011
-0.15304039 -0.0066300961 0.71040004
-0.1494381 -0.0060857148 0.71000004
-0.15743716 -0.0041761911 0.71385723
-0.1524113 -0.0027146032 0.7128334
-0.14784725 -0.002165905 0.71079999
-0.14402857 -0.00067619054 0.71000004
-0.1505674 0.0016997621 0.71375006
-0.14721197 0.0025324679 0.71290922
-0.14276461 0.0030487305 0.71100008
-0.13866788 0.00405881 0.71025002
-0.14620002 0.0068000006 0.71400005
-0.14237431 0.0070174602 0.71300006
-0.13744049 0.0075997147 0.71230012
-0.13285021 0.0078259883 0.71014291
-0.13629355 0.011278667 0.71340007
-0.13243751 0.012051723 0.71200007
-0.12772346 0.012560074 0.71130782
-0.12374286 0.014200001 0.71000004
-0.13124001 0.015640002 0.71400005
-0.12687059 0.016982753 0.71322232
-0.12275006 0.01780078 0.71136367
-0.11977001 0.018947143 0.7105
-0.12231524 0.021065239 0.71350002
-0.11725366 0.021464448 0.7116667
-0.1127642 0.023203049 0.71240002
-0.10683811 0.023666669 0.71000004
-0.11170334 0.025464289 0.71300006
-0.10734142 0.027189746 0.71230781
-0.10279232 0.027040368 0.71115392
-0.098346107 0.028543431 0.71020001
-0.10634572 0.030918572 0.71350008
-0.10240287 0.031757623 0.71325004
-0.097976215 0.032757834 0.71228588
-0.093041904 0.034171909 0.7105
-0.092042193 0.036952659 0.71285719
-0.087721094 0.0380098 0.71085715
-0.082985401 0.039463177 0.71033335
-0.079114288 0.03989524 0.71000004
-0.091120005 0.040800001 0.71400005
-0.08719863 0.042052381 0.71344453
-0.082533598 0.04259178 0.71190912
-0.077624016 0.042907409 0.71011114
-0.076909535 0.046870641 0.71150005
-0.072705142 0.047658667 0.71079999
-0.057226542 -0.076595515 0.71900004
-0.05326286 -0.075797148 0.71700001
-0.1555824 -0.072332859 0.71650004
-0.15256502 -0.071675964 0.71675003
-0.1476768 -0.071104884 0.717875
-0.14249702 -0.071396068 0.71785718
-0.13791005 -0.071968235 0.71718186
-0.13261239 -0.072459772 0.71775007
-0.1275087 -0.071768373 0.71766663
-0.12277456 -0.071604684 0.71727276
-0.11769724 -0.071862437 0.71736366
-0.11247611 -0.071888678 0.71750003
-0.10764781 -0.071721725 0.71719998
-0.10271969 -0.072201602 0.71744448
-0.097298414 -0.073146887 0.71777785
-0.092492476 -0.072492816 0.71745461
