# .PCD v0.7 - Point Cloud Data file format
VERSION 0.7
FIELDS x y z
SIZE 4 4 4
TYPE F F F
COUNT 1 1 1
WIDTH 1330
HEIGHT 1
VIEWPOINT 0 0 0 1 0 0 0
POINTS 1330
DATA ascii
-0.062689528 0.014174525 0.61374998
-0.057306673 0.014034288 0.61400002
-0.052586511 0.013438415 0.61349994
-0.047604766 0.01362088 0.61361533
-0.042085718 0.014028335 0.61374998
-0.037265051 0.013550001 0.61329997
-0.034500953 0.014619049 0.61400002
-0.07543429 0.016958097 0.61400002
-0.072500885 0.016955953 0.61391664
-0.068132073 0.016822223 0.61377776
-0.061908048 0.016435452 0.61388886
-0.057306673 0.016373334 0.61400002
-0.05246925 0.016710764 0.6135
-0.047610994 0.016769964 0.61369228
-0.04192616 0.017121468 0.6133846
-0.037345063 0.017506134 0.61268753
-0.033285718 0.017518889 0.61316663
-0.11750122 0.0089301309 0.61772734
-0.11239014 0.0083455462 0.61823535
-0.10726654 0.0089109167 0.61753857
-0.10205416 0.0084744226 0.61685729
-0.097552985 0.0086284252 0.61676931
-0.092484035 0.0086449087 0.61792308
-0.08707422 0.0083756056 0.61807692
-0.082374468 0.008235774 0.61781251
-0.077912666 0.0079922443 0.61842865
-0.072394766 0.0078058331 0.6186251
-0.067155413 0.0083280681 0.61694115
-0.062262509 0.0082210721 0.61675006
-0.057609528 0.0082276203 0.61724997
-0.052708019 0.0082001127 0.61776483
-0.047868889 0.0084350798 0.61800003
-0.043624766 0.0088428576 0.61900002
-0.12055953 0.012942381 0.61750007
-0.11748887 0.012924821 0.61681259
-0.11268549 0.012912024 0.6162501
-0.10739525 0.012910381 0.61620009
-0.10199811 0.012896189 0.61550003
-0.09723863 0.012886847 0.61506236
-0.092546143 0.012577143 0.61588895
-0.087537579 0.012789763 0.61605018
-0.08223547 0.012860895 0.61547059
-0.077253342 0.012569736 0.61555552
-0.073028654 0.011927683 0.61606663
-0.067653194 0.012123957 0.61523074
-0.062085718 0.012065715 0.61499995
-0.057400007 0.011714287 0.61500001
-0.052714288 0.011128572 0.61500001
-0.046845339 0.011035047 0.61640006
-0.042274769 0.011153651 0.61650008
-0.037718382 0.011042952 0.61690009
-0.033595957 0.012143097 0.61708337
-0.12085239 0.015917145 0.61900002
-0.11734465 0.016637739 0.618375
-0.11248352 0.01757363 0.61756259
-0.10733584 0.017340358 0.61712509
-0.10219448 0.017622085 0.6166876
-0.097485848 0.017620001 0.61662507
-0.092661738 0.017732773 0.61694127
-0.087386228 0.017528271 0.61668426
-0.082125783 0.017598752 0.61593753
-0.077464968 0.017618859 0.61526662
-0.072658814 0.019336428 0.61524999
-0.066782005 0.018394573 0.61509991
-0.062575474 0.018612143 0.61549997
-0.057434648 0.018754644 0.61537504
-0.052952226 0.018953811 0.61550009
-0.046962865 0.019002859 0.61528575
-0.04275715 0.019328572 0.61500001
-0.10788286 0.020633334 0.61900002
-0.10238063 0.020633336 0.61900008
-0.093734294 0.020633334 0.61900002
-0.087249525 0.020633334 0.61900002
-0.082013771 0.021774981 0.61790913
-0.077612385 0.022345239 0.61737508
-0.072577253 0.022474708 0.61733335
-0.067278206 0.022188997 0.61666679
-0.062318992 0.022343274 0.61731261
-0.057788234 0.022092592 0.61735725
-0.052615773 0.022486771 0.6176666
-0.04732376 0.022194341 0.61683333
-0.042244468 0.022296844 0.61606252
-0.037539288 0.022290355 0.61587501
-0.033730481 0.02238212 0.61655551
-0.072118424 0.025349526 0.61900008
-0.063079052 0.025349526 0.61900002
-0.052467622 0.025791669 0.61900002
-0.046744131 0.025728889 0.61866665
-0.042210136 0.026376018 0.61790913
-0.037546303 0.026677879 0.61823082
-0.033322129 0.026975607 0.61884618
-0.11766858 0.0041600005 0.62400001
-0.11291429 0.0041600005 0.62400001
-0.10756572 0.0041600005 0.62400001
-0.10400001 0.0041600005 0.62400001
-0.090925723 0.0041600005 0.62400001
-0.088106357 0.0041577783 0.6236667
-0.082928367 0.0034959794 0.6234445
-0.077130482 0.0041533336 0.62300003
-0.072068587 0.0037615877 0.6236667
-0.067941234 0.0036468031 0.62342864
-0.062796205 0.0039619049 0.62400007
-0.056984529 0.0041550002 0.62325001
-0.052170482 0.0041500004 0.6225
-0.048137143 0.0041600009 0.62400001
-0.11724477 0.005919762 0.62175
-0.11297905 0.0055710482 0.62239999
-0.10738698 0.0058515347 0.62144446
-0.10322305 0.0058055236 0.62220001
-0.097243175 0.0061130165 0.6213333
-0.092393219 0.0059208334 0.62187499
-0.087696359 0.0057265083 0.62216663
-0.082933336 0.0053314287 0.62200004
-0.07757353 0.0053297146 0.62180007
-0.072329529 0.0053357142 0.6225
-0.067531437 0.0053314287 0.62200004
-0.062298484 0.0053400001 0.62300003
-0.05737048 0.0053228578 0.62100005
-0.052410167 0.0055168262 0.62066668
-0.047146536 0.0058393199 0.62214291
-0.042410333 0.0069836634 0.62315392
-0.037600115 0.0074352948 0.62317652
-0.032627091 0.0077115349 0.62288898
-0.031988572 0.010070477 0.62200004
-0.12149497 0.018711839 0.62228578
-0.11778232 0.018828847 0.62057143
-0.11278096 0.019485716 0.62
-0.10746668 0.018895239 0.62
-0.12192064 0.022197463 0.62244451
-0.11746846 0.022256024 0.62164706
-0.11256236 0.022373399 0.62140006
-0.10719587 0.022271909 0.62235719
-0.10233661 0.023039445 0.62291676
-0.09755592 0.022467174 0.62170595
-0.092321731 0.022618987 0.62166667
-0.087532073 0.023066983 0.62100005
-0.083601527 0.023768384 0.62080002
-0.056685716 0.024209525 0.62
-0.11648001 0.025554288 0.62400001
-0.11311239 0.02555429 0.62400001
-0.10122668 0.026346672 0.62400007
-0.097361907 0.02633757 0.62377781
-0.092687085 0.027076602 0.6238572
-0.087857448 0.027308272 0.62331253
-0.082621798 0.027072739 0.62300003
-0.077313162 0.02725482 0.6220625
-0.072405443 0.027492791 0.62171435
-0.067565307 0.027266372 0.62231249
-0.062672518 0.027334986 0.62120003
-0.05782387 0.027330644 0.62141174
-0.052352734 0.027975587 0.62018174
-0.047474291 0.027988572 0.61999995
-0.042924192 0.028734479 0.62080002
-0.038380958 0.028933337 0.62
-0.032476194 0.028933335 0.62
-0.07606858 0.030308573 0.62400001
-0.072502866 0.030308573 0.62400001
-0.067748576 0.030308573 0.62400001
-0.062201917 0.030804086 0.62371433
-0.057233498 0.030498575 0.62383342
-0.05182036 0.031033214 0.62362504
-0.047718864 0.031220192 0.62320012
-0.042754285 0.03087857 0.62350005
-0.037357222 0.03161158 0.62261546
-0.033185482 0.032004524 0.62225008
-0.11778113 -0.00099825405 0.62883335
-0.11283716 -0.00083790487 0.62819999
-0.10774286 -0.0011976191 0.62850004
-0.10323589 -0.00059904763 0.62900007
-0.09704572 -0.00059904763 0.62900001
-0.092198692 -0.0011977381 0.62862498
-0.087709911 -0.00083790481 0.62819999
-0.082635 -0.00059880957 0.62874997
-0.077876195 -0.00059904763 0.62900001
-0.072777703 -0.0011121089 0.62857145
-0.067438588 -0.00079825404 0.62849998
-0.062251434 -0.0011976191 0.62849998
-0.057474166 -0.0011977381 0.62862504
-0.053058293 -0.00083847623 0.62879997
-0.049121909 -0.00059904763 0.62900001
-0.038339049 -0.00059904763 0.62900001
-0.032148894 -0.00059904763 0.62900007
-0.029353335 -0.0011980953 0.62900001
-0.11731763 0.0018731295 0.62621427
-0.11208382 0.0017873019 0.62600005
-0.10728588 0.0017869843 0.62583333
-0.10246122 0.0022674289 0.62720007
-0.097556308 0.0023531658 0.62752944
-0.092548698 0.0022655244 0.62640005
-0.087359644 0.0019691575 0.62530768
-0.081985511 0.0015232805 0.62633336
-0.077587314 0.0017885717 0.62666672
-0.072996959 0.001549143 0.62620002
-0.067520291 0.0013111428 0.62629998
-0.062248062 0.001787546 0.62615383
-0.057287864 0.0017883334 0.62658346
-0.05253429 0.0017893653 0.62683344
-0.047650848 0.0019739196 0.62723082
-0.042685501 0.0022541799 0.6273334
-0.03747496 0.002631373 0.62694126
-0.032364942 0.0029907359 0.62827277
-0.029353335 0.0023961908 0.62900001
-0.10059524 0.005357143 0.625
-0.097619057 0.005357143 0.625
-0.044642862 0.005357143 0.625
-0.036328256 0.0053599998 0.62533337
-0.031836573 0.0056041908 0.62600005
-0.13224889 0.017952066 0.62833333
-0.12799288 0.018540319 0.62800002
-0.1245043 0.019062381 0.62550002
-0.12569952 0.022747144 0.62849998
-0.12320763 0.024521906 0.62800002
-0.11964287 0.024404764 0.625
-0.11071429 0.024404764 0.625
-0.1077381 0.024404764 0.625
-0.12520096 0.026358098 0.62900001
-0.12184089 0.027382227 0.62773341
-0.1172612 0.027948812 0.62658334
-0.11221429 0.02762788 0.62606668
-0.10732555 0.027428873 0.62606251
-0.10300954 0.027985334 0.62519997
-0.097704083 0.028656462 0.625
-0.092857152 0.029166669 0.625
-0.082738101 0.029166669 0.625
-0.12520096 0.031150477 0.62900001
-0.12213916 0.031350158 0.62900001
-0.11741716 0.031627364 0.62872732
-0.11274108 0.031328574 0.6285556
-0.10725842 0.030902222 0.62800002
-0.10235321 0.031881105 0.62792313
-0.097744338 0.031460524 0.62754548
-0.092258222 0.032248456 0.62700003
-0.087340899 0.032137088 0.62688237
-0.082487509 0.032280959 0.62762499
-0.077843472 0.032522522 0.62735724
-0.072812706 0.032826986 0.62666667
-0.06795691 0.032787226 0.6259166
-0.062823422 0.033049129 0.62524998
-0.057330392 0.032861125 0.62527275
-0.052848812 0.033198096 0.62524998
-0.047246989 0.033549845 0.62533331
-0.042873815 0.033346906 0.62524998
-0.038452383 0.033690479 0.625
-0.091354765 0.035643335 0.62900001
-0.087836675 0.035733812 0.62883329
-0.08446572 0.035343811 0.62900001
-0.077037528 0.035823051 0.62900001
-0.072559059 0.036717582 0.62884629
-0.067331113 0.036956728 0.62811118
-0.062140603 0.037047148 0.62737501
-0.057382621 0.037061792 0.62762505
-0.052627321 0.037079707 0.6279375
-0.047809534 0.037054405 0.62750006
-0.04267307 0.037167571 0.62716675
-0.03733471 0.036872387 0.62666678
-0.032795481 0.036970403 0.62608337
-0.065296195 0.040136192 0.62900001
-0.062300954 0.040136192 0.62900001
-0.058506988 0.040535562 0.62900007
-0.051518098 0.040136192 0.62900001
-0.046126671 0.040136192 0.62900001
-0.043011621 0.04037581 0.62900001
-0.036684647 0.040877026 0.62887502
-0.032493249 0.041311089 0.62863648
-0.11761843 -0.0056298412 0.63333333
-0.11110096 -0.0054342858 0.634
-0.1008362 -0.0060380958 0.634
-0.098219685 -0.0058368258 0.63400006
-0.093855008 -0.0057340479 0.63375002
-0.086344764 -0.0054342858 0.634
-0.083929531 -0.0054342858 0.634
-0.079099052 -0.0054342858 0.634
-0.07064572 -0.0054342858 0.634
-0.06735307 -0.0059506129 0.63385719
-0.063165724 -0.0058339685 0.63366669
-0.057965718 -0.0054342858 0.634
-0.053114053 -0.0054321429 0.63375002
-0.048908576 -0.0054342858 0.634
-0.037436191 -0.0054342858 0.634
-0.034417145 -0.0054342858 0.634
-0.11751448 -0.0033397409 0.63218182
-0.1124296 -0.0031130954 0.63241667
-0.1070708 -0.0034161911 0.63277781
-0.10221484 -0.0026665314 0.63185722
-0.097486943 -0.002666259 0.63185722
-0.092656203 -0.0036107148 0.63174999
-0.087382272 -0.0031999999 0.63276923
-0.082389846 -0.0030155554 0.63299996
-0.077580616 -0.0026845026 0.63236368
-0.072091967 -0.0034149208 0.63255554
-0.067507535 -0.003121905 0.63236368
-0.062598817 -0.0036121428 0.63200003
-0.057737149 -0.0036090475 0.63150007
-0.05238352 -0.0031965571 0.63223076
-0.047387995 -0.0021789016 0.63230771
-0.042013273 -0.0021542178 0.63278568
-0.037171975 -0.0026688441 0.63242859
-0.032541983 -0.0028250553 0.63184613
-0.10276286 0.00060095242 0.63100004
-0.035456192 0.00060095242 0.63100004
-0.032331239 0.0010817144 0.63100004
-0.12559906 0.028244764 0.63100004
-0.12439715 0.029446669 0.63100004
-0.12559906 0.033052385 0.63100004
-0.12249064 0.033680484 0.63150001
-0.11774154 0.034035619 0.63140005
-0.11226805 0.033767726 0.63188893
-0.10756963 0.033330388 0.63169998
-0.10236223 0.03425429 0.63100004
-0.096979201 0.033862703 0.6311667
-0.12199377 0.037449356 0.63327265
-0.11745621 0.036674768 0.63299996
-0.11240382 0.036695678 0.63323075
-0.10732508 0.037277464 0.63333333
-0.10242537 0.037357144 0.63262498
-0.097643577 0.037370831 0.63287508
-0.093165889 0.037890315 0.63316667
-0.087372907 0.038243379 0.63190913
-0.08241155 0.037447385 0.63162506
-0.07789591 0.037866198 0.63110006
-0.07301572 0.038761429 0.63100004
-0.10204382 0.040455244 0.634
-0.097817153 0.040455241 0.634
-0.092624389 0.040696766 0.634
-0.087659895 0.041897427 0.63323528
-0.082074925 0.041641593 0.63366663
-0.07702928 0.042071946 0.63286668
-0.07233566 0.042197321 0.63293755
-0.067804135 0.041888576 0.63283336
-0.062614612 0.042747628 0.63216668
-0.05755166 0.042458907 0.63199997
-0.052905146 0.042477727 0.63173336
-0.047751967 0.042264346 0.63168764
-0.042164475 0.042535756 0.6317693
-0.037747741 0.043161552 0.631625
-0.033052385 0.043869525 0.63100004
-0.076080002 0.045285717 0.634
-0.07185334 0.045285717 0.634
-0.0694381 0.045285717 0.634
-0.057361912 0.045285717 0.634
-0.052358914 0.045630757 0.63400006
-0.047097147 0.045285717 0.634
-0.042467937 0.045285717 0.634
-0.037062671 0.045512956 0.63379997
-0.032999866 0.046096746 0.6332857
-0.11724415 -0.0066593657 0.63566673
-0.11257763 -0.0069172382 0.63690001
-0.10755366 -0.0066739693 0.63683343
-0.10291296 -0.0067906673 0.63640004
-0.097118102 -0.0074876193 0.63733339
-0.091912769 -0.0069137141 0.63660008
-0.087323532 -0.0074238838 0.63707697
-0.082579143 -0.0068887449 0.63627285
-0.077410616 -0.0061551025 0.63714296
-0.072642542 -0.006532487 0.6362223
-0.067813024 -0.0076933331 0.6376667
-0.062488575 -0.007281905 0.63700002
-0.057305712 -0.007127143 0.63675004
-0.051519051 -0.0068423133 0.63642859
-0.047106482 -0.0066794292 0.63740003
-0.042657237 -0.0065689175 0.63736373
-0.038048733 -0.0070842868 0.63750005
-0.033092577 -0.0061832382 0.63640004
-0.076200008 -0.0042333337 0.63500005
-0.045784131 -0.0038323812 0.63533342
-0.043542862 -0.0042333337 0.63500005
-0.12034763 0.039309528 0.63500005
-0.11768668 0.039067622 0.63500005
-0.11248572 0.039309528 0.63500005
-0.10825239 0.039309528 0.63500005
-0.12196137 0.042744212 0.63658345
-0.11752539 0.042579945 0.63705879
-0.11268382 0.042333849 0.63680005
-0.1077083 0.042536527 0.63641191
-0.10274909 0.042826161 0.63607705
-0.097531952 0.043011948 0.63607705
-0.092996933 0.042968579 0.63544452
-0.08652699 0.044170797 0.63533342
-0.082279295 0.044165 0.63525009
-0.079223812 0.044147622 0.63500005
-0.067128569 0.044147622 0.63500011
-0.11136858 0.045642864 0.63900006
-0.10650001 0.04564286 0.63900006
-0.10176393 0.046546791 0.63887501
-0.097308204 0.046830088 0.63858336
-0.092617057 0.046552099 0.63810003
-0.087497152 0.046544764 0.63800001
-0.082452729 0.047130413 0.63792872
-0.077828027 0.047581363 0.63700008
-0.072826818 0.047666378 0.63600016
-0.06756971 0.047498751 0.6363126
-0.062621631 0.047353953 0.63694113
-0.05739579 0.047614835 0.63628578
-0.052124389 0.048125334 0.6364001
-0.047270484 0.047878414 0.63633347
-0.042378839 0.047695756 0.63638467
-0.03773091 0.047976278 0.63618195
-0.033546098 0.048563242 0.63580006
-0.077532008 0.050754856 0.63900006
-0.073240831 0.050999187 0.63857144
-0.067529909 0.050495621 0.63880008
-0.062074289 0.050511431 0.63900006
-0.057205718 0.050511431 0.63900006
-0.052317385 0.050491672 0.63875008
-0.047232702 0.051287729 0.63855553
-0.042701434 0.051461436 0.63869995
-0.037390333 0.051991217 0.63876927
-0.033539224 0.052104592 0.63818187
-0.034080002 0.055380005 0.63900006
-0.11626592 -0.011395048 0.64320004
-0.11273651 -0.011642541 0.64333344
-0.10815429 -0.011168573 0.64250004
-0.10295953 -0.010418572 0.64350003
-0.097021192 -0.010882621 0.64375007
-0.092099056 -0.011283811 0.64285719
-0.088334881 -0.011157501 0.64187503
-0.082616962 -0.010404001 0.6426
-0.076840572 -0.011520955 0.64340013
-0.072528772 -0.011395049 0.6432001
-0.067804456 -0.010824762 0.64333338
-0.062818572 -0.010725239 0.64350003
-0.05698096 -0.010415873 0.64333338
-0.052707147 -0.010418572 0.64350003
-0.047765717 -0.010410476 0.64300001
-0.042766672 -0.010386191 0.6415
-0.039191432 -0.010410476 0.64300001
-0.11632077 -0.0084224772 0.64080006
-0.11228358 -0.0091535719 0.64075005
-0.1072762 -0.009142858 0.64000005
-0.10248096 -0.0091500003 0.64050007
-0.097676195 -0.0091571435 0.64100003
-0.092793822 -0.0091571435 0.64100003
-0.089600004 -0.009142858 0.64000005
-0.081730478 -0.0089190481 0.64140004
-0.077545837 -0.0085489294 0.64112496
-0.072867148 -0.0087531758 0.64116669
-0.067100003 -0.0091500003 0.64050007
-0.061845563 -0.008748414 0.64083338
-0.057489526 -0.0089104772 0.64080006
-0.052880011 -0.0087460335 0.64066672
-0.047709908 -0.0089076189 0.64060009
-0.042300954 -0.008899048 0.64000005
-0.037478417 -0.0087590478 0.64166677
-0.034960002 -0.0079733338 0.64400005
-0.12228668 0.047693748 0.64200008
-0.11750823 0.047740355 0.64262509
-0.11251018 0.048058171 0.64123082
-0.10748287 0.047858786 0.64071435
-0.10295822 0.048505127 0.64062506
-0.097523816 0.049371433 0.64000005
-0.09224128 0.048965082 0.6400001
-0.087817147 0.048990797 0.64033341
-0.084114291 0.049371433 0.64000005
-0.11665601 0.051642668 0.64400005
-0.11267117 0.051963985 0.64327288
-0.10777842 0.052053656 0.64300013
-0.10286692 0.05204707 0.6429168
-0.097406194 0.05257025 0.64275002
-0.092654556 0.052397694 0.64185715
-0.087881021 0.052702084 0.64211768
-0.082816206 0.052564882 0.64175004
-0.077641517 0.053221192 0.64108336
-0.071825437 0.053382006 0.64130002
-0.067170322 0.053126827 0.64116669
-0.062247965 0.05274646 0.64078581
-0.057384446 0.053112544 0.64100003
-0.052500959 0.053112701 0.64099997
-0.047836337 0.053761501 0.64042866
-0.042463493 0.053841274 0.6400001
-0.039212704 0.053841274 0.64000005
-0.095066674 0.055813339 0.64400005
-0.091737159 0.056339055 0.64400005
-0.087356202 0.056339055 0.64400005
-0.082186669 0.055813339 0.64400005
-0.077157341 0.056058671 0.64400005
-0.07323572 0.056076672 0.64350003
-0.067057788 0.056222226 0.64400005
-0.062488817 0.056361198 0.64324999
-0.057608575 0.056383338 0.64350009
-0.05272691 0.056405004 0.64375007
-0.047382686 0.056960866 0.64309102
-0.042967118 0.057414088 0.64266664
-0.037787303 0.057354294 0.64200008
-0.034240004 0.058088258 0.64200008
-0.046000004 0.060720004 0.64400005
-0.044773336 0.060720004 0.64400005
-0.037636191 0.060927626 0.64360005
-0.034851432 0.060531434 0.64200002
-0.11602287 -0.015428573 0.648
-0.11223429 -0.015416668 0.64750004
-0.10800001 -0.015428573 0.648
-0.10244572 -0.015428573 0.648
-0.098125719 -0.015428573 0.648
-0.091337144 -0.015428573 0.648
-0.087634295 -0.015428573 0.648
-0.082649179 -0.016036786 0.64762497
-0.077670477 -0.016027857 0.64725006
-0.072567202 -0.016240848 0.64755559
-0.067872271 -0.016232699 0.64722222
-0.063279241 -0.015665906 0.64760005
-0.058628574 -0.015428573 0.648
-0.040114287 -0.015428573 0.648
-0.11658762 -0.013843334 0.64600003
-0.1119293 -0.014145001 0.64575005
-0.10687067 -0.01317543 0.64639997
-0.10218239 -0.012927938 0.64633334
-0.09744551 -0.013335873 0.64622223
-0.092590764 -0.013630206 0.64628577
-0.08691556 -0.013199367 0.64622223
-0.082420334 -0.012917461 0.64583337
-0.078034773 -0.013517938 0.64516675
-0.072113022 -0.01372635 0.64533335
-0.067429326 -0.013166859 0.64600003
-0.062675953 -0.012824047 0.64625001
-0.058043078 -0.012747692 0.64676917
-0.052785929 -0.012530053 0.64700001
-0.046856303 -0.012657144 0.6464445
-0.042322226 -0.012944127 0.64716661
-0.03705512 -0.012404763 0.64712495
-0.032547738 -0.011260835 0.64787495
-0.028960954 -0.010475239 0.64700001
-0.035068575 -0.0092285722 0.64600003
-0.03163778 -0.0078060324 0.64716661
-0.029005716 -0.0074057151 0.648
-0.1210143 0.049757145 0.64500004
-0.12291144 0.052783187 0.64593339
-0.11849593 0.053354118 0.64527273
-0.11322116 0.054459628 0.64540005
-0.10753334 0.054688383 0.64520007
-0.1020112 0.054692626 0.64525002
-0.098900005 0.054671433 0.64500004
-0.12528001 0.057394288 0.648
-0.12226744 0.057864882 0.64773327
-0.11724667 0.057510253 0.64715379
-0.11210334 0.056667864 0.64674997
-0.10714191 0.057424448 0.64716667
-0.10233711 0.057951361 0.64731246
-0.097430997 0.058017518 0.64666671
-0.092665724 0.058970053 0.64722222
-0.08724995 0.058919363 0.64666665
-0.082469061 0.058117345 0.64621431
-0.07759776 0.058577139 0.64618176
-0.072299771 0.058353733 0.6460833
-0.067911714 0.058685243 0.64590001
-0.062742978 0.059052031 0.64587504
-0.057821553 0.059051789 0.64587498
-0.052921548 0.059074644 0.64612502
-0.048774291 0.059094287 0.64500004
-0.041157145 0.059585717 0.64500004
-0.039928574 0.059585717 0.64500004
-0.10553144 0.061097145 0.648
-0.10306286 0.061097145 0.648
-0.097508579 0.061097145 0.648
-0.092089057 0.061461434 0.64750004
-0.08735089 0.061612658 0.64785713
-0.08260899 0.061626129 0.64800006
-0.07755319 0.062470112 0.64746153
-0.072818175 0.062477514 0.64753842
-0.068111241 0.062065721 0.64779997
-0.062537149 0.061508577 0.648
-0.057967149 0.06228381 0.64749998
-0.052875392 0.06245546 0.64730763
-0.048147243 0.062924124 0.64646667
-0.042622242 0.063049361 0.64641178
-0.037232228 0.063386671 0.64616662
-0.033803176 0.063304767 0.64533341
-0.047302388 0.066428736 0.64783335
-0.042755403 0.066189058 0.64750004
-0.037028573 0.066034287 0.648
-0.03394286 0.066034287 0.648
-0.092249215 -0.020937463 0.65300006
-0.08768858 -0.020522859 0.65300006
-0.080225721 -0.020522859 0.65300006
-0.077116191 -0.020522859 0.65300006
-0.11629476 -0.018004287 0.65183342
-0.11274945 -0.017881386 0.65145463
-0.10776213 -0.017795242 0.65115398
-0.10278961 -0.018096266 0.65169233
-0.097458988 -0.017672699 0.65180004
-0.092508443 -0.017635105 0.65128577
-0.087468661 -0.017991431 0.65136367
-0.082814015 -0.018512245 0.65100002
-0.077722229 -0.018656615 0.65055561
-0.072685316 -0.018680682 0.65071434
-0.0671525 -0.01861155 0.651375
-0.062063657 -0.018000161 0.6516667
-0.056924634 -0.017646533 0.65171427
-0.05236014 -0.017129388 0.65228575
-0.0472054 -0.016770953 0.6521666
-0.042370047 -0.016870998 0.65163642
-0.037238099 -0.016759047 0.65166664
-0.032754764 -0.016300954 0.65200001
-0.05509524 -0.014238096 0.65000004
-0.051690482 -0.013928573 0.65000004
-0.048542224 -0.013839366 0.65066671
-0.032571625 -0.013747239 0.65020007
-0.11266668 0.058809526 0.65000004
-0.10709524 0.058809526 0.65000004
-0.12130167 0.062049527 0.65149999
-0.11749168 0.061850876 0.65158343
-0.11295936 0.062066738 0.6516875
-0.1081445 0.062178649 0.65100002
-0.10273186 0.063045084 0.65111113
-0.09791553 0.062839918 0.65070003
-0.09334144 0.063398257 0.65050006
-0.088303819 0.063533917 0.65020007
-0.083101906 0.063533917 0.65020007
-0.065928571 0.063452385 0.65000004
-0.062857859 0.063476913 0.65025008
-0.11206724 0.06604629 0.65300006
-0.10771319 0.065456986 0.65250003
-0.10157779 0.065714613 0.65300012
-0.096639045 0.066245183 0.65277779
-0.091924146 0.066459842 0.65216672
-0.087057538 0.067188196 0.65200007
-0.082282923 0.067070067 0.65206259
-0.077317074 0.06676279 0.65208334
-0.07217817 0.067133978 0.65146673
-0.067202069 0.066912323 0.6515882
-0.062089831 0.067057677 0.65193754
-0.057061907 0.066987388 0.65125012
-0.052444253 0.06733539 0.65138465
-0.047606356 0.068511747 0.65200001
-0.041866943 0.068244092 0.65057153
-0.037157621 0.068121679 0.65025002
-0.034047622 0.068095244 0.65000004
-0.087066673 0.07027524 0.65300006
-0.082713336 0.07027524 0.65300006
-0.071519062 0.07027524 0.65300006
-0.067165717 0.07027524 0.65300006
-0.061568581 0.07027524 0.65300006
-0.057150245 0.070194528 0.65224999
-0.052219287 0.070248336 0.65275007
-0.046863433 0.070480965 0.65260005
-0.042519052 0.070746809 0.65242863
-0.037228577 0.070113815 0.65149999
-0.033531908 0.070789054 0.65200001
-0.052013338 -0.025693335 0.65800005
-0.11702326 -0.022530083 0.65708339
-0.11274288 -0.022106377 0.65738469
-0.10763464 -0.022261705 0.65707147
-0.10281851 -0.022263952 0.65714294
-0.097623885 -0.021904049 0.65708339
-0.092840768 -0.021618288 0.65600002
-0.087395519 -0.021336464 0.65614295
-0.08248318 -0.021750901 0.65666676
-0.077767231 -0.022518653 0.65675008
-0.072709389 -0.022088427 0.65684623
-0.067403182 -0.021494392 0.65733331
-0.062869623 -0.021666763 0.65750003
-0.057642028 -0.021302737 0.65787506
-0.052122861 -0.021926856 0.65780008
-0.048077859 -0.02145524 0.65775001
-0.043866672 -0.020680001 0.65800005
-0.035720002 -0.020680001 0.65800005
-0.11790001 -0.019338097 0.65500003
-0.051152386 -0.019338097 0.65500003
-0.047409527 -0.019338097 0.65500003
-0.042516191 -0.019382382 0.65649998
-0.037473097 -0.019360241 0.65575004
-0.032478258 -0.018946826 0.65583336
-0.12226668 0.064252384 0.65500003
-0.11790001 0.064252384 0.65500003
-0.12257036 0.067540362 0.65662503
-0.11742233 0.067455895 0.6558125
-0.11249553 0.068172663 0.65550011
-0.10724477 0.068185024 0.65572739
-0.10261752 0.068286672 0.65540004
-0.097781233 0.068545043 0.6551429
-0.09232381 0.069242865 0.65500003
-0.077976197 0.069242865 0.65500009
-0.12303557 0.070813343 0.65800011
-0.11776929 0.070786431 0.65775001
-0.11247705 0.071576931 0.65733337
-0.10750499 0.071601063 0.65755558
-0.10239848 0.071729533 0.65720004
-0.097636193 0.071976364 0.65716672
-0.092606038 0.071958423 0.65700006
-0.087321386 0.073005028 0.65618193
-0.082372099 0.072949246 0.65638471
-0.077537455 0.072536148 0.65656251
-0.072684109 0.072974227 0.65661544
-0.067611121 0.073246524 0.65733337
-0.062737584 0.073042944 0.65723079
-0.05754485 0.073181838 0.65675008
-0.052520167 0.073154449 0.6565001
-0.0476523 0.073211789 0.65600008
-0.042275563 0.073514082 0.65600008
-0.037457466 0.073042065 0.65550005
-0.034309525 0.072985716 0.65500003
-0.082093343 0.075826675 0.65800005
-0.077330671 0.076328009 0.65800005
-0.07309255 0.076225251 0.65783334
-0.06141334 0.075826675 0.65800005
-0.057653338 0.075826675 0.65800005
-0.051700003 0.076140009 0.65800005
-0.047354952 0.07679458 0.6577
-0.042580642 0.077022076 0.65750003
-0.037566751 0.077012308 0.65741676
-0.03414024 0.078617387 0.65775007
-0.11665969 -0.026805079 0.66133338
-0.11216037 -0.026465835 0.66162509
-0.10738191 -0.026553607 0.6615715
-0.10232667 -0.026590858 0.66160005
-0.097286887 -0.026966879 0.66188896
-0.092957906 -0.026109526 0.66220009
-0.087768577 -0.025888573 0.66300005
-0.081664771 -0.026309527 0.66300011
-0.077436037 -0.026303019 0.66283339
-0.072339438 -0.026133334 0.66280001
-0.067170963 -0.026806194 0.66225004
-0.063078418 -0.026283493 0.66233343
-0.058301907 -0.025888573 0.66300005
-0.052606668 -0.026144765 0.66150004
-0.048577558 -0.026587896 0.66242868
-0.11502858 -0.024514288 0.66000003
-0.11188573 -0.024514288 0.66000003
-0.10811429 -0.024514288 0.66000003
-0.10182858 -0.024514288 0.66000003
-0.098130956 -0.024532858 0.66050005
-0.092399433 -0.023824763 0.66180015
-0.087256752 -0.024043676 0.66185725
-0.083272576 -0.024063049 0.66140002
-0.076685719 -0.024514288 0.66000003
-0.072360009 -0.02453905 0.6606667
-0.068185039 -0.023986124 0.66028577
-0.062469214 -0.02410762 0.6603334
-0.0579275 -0.023927262 0.66112506
-0.053693019 -0.023700638 0.6606667
-0.047352862 -0.023755955 0.66075003
-0.042682454 -0.022963677 0.66185725
-0.037943311 -0.022818226 0.66180003
-0.032706991 -0.02254813 0.66126674
-0.029587623 -0.02266524 0.66100007
-0.02954286 -0.019485716 0.66000003
-0.12197025 0.072710715 0.66100001
-0.11702535 0.073298462 0.66062498
-0.11207239 0.074325994 0.66057146
-0.10758306 0.074365146 0.66060007
-0.10434286 0.073542863 0.66000003
-0.096872389 0.074856669 0.66050005
-0.092447311 0.074837789 0.6603334
-0.089885719 0.074800007 0.66000003
-0.12157678 0.075622492 0.66280007
-0.11733945 0.076334298 0.66240013
-0.11230953 0.076976672 0.66250008
-0.10749906 0.076364771 0.66266674
-0.10184528 0.076614216 0.66230786
-0.097031675 0.077500246 0.66158342
-0.092061363 0.077559456 0.66208351
-0.087265246 0.077570379 0.66110009
-0.083027415 0.077572383 0.66100001
-0.078263268 0.077904083 0.66042864
-0.072531432 0.07819207 0.6603334
-0.067988575 0.077432707 0.66100013
-0.063203625 0.077684201 0.66100001
-0.05772667 0.078297459 0.66122228
-0.053455982 0.078052595 0.66033334
-0.047771432 0.0792 0.66000003
-0.042742856 0.079828575 0.66000003
-0.037714288 0.079828575 0.66000003
-0.09597715 0.080191433 0.66300005
-0.089031436 0.080191433 0.66300005
-0.082085721 0.080191433 0.66300005
-0.076365083 0.080151118 0.66266674
-0.072206542 0.080861233 0.66257155
-0.067511439 0.080762394 0.66250008
-0.063079372 0.080531761 0.66233343
-0.058324087 0.080861241 0.66257155
-0.052735519 0.080861233 0.66257155
-0.048372224 0.080972552 0.66250008
-0.042621147 0.082340769 0.66200012
-0.037790954 0.08251065 0.66133344
-0.034152385 0.081504762 0.66000003
-0.11596001 -0.031220002 0.66900003
-0.11192477 -0.031220002 0.66900003
-0.10704001 -0.031538572 0.66900003
-0.10239372 -0.031164004 0.66780007
-0.09748286 -0.031220002 0.66900003
-0.092953816 -0.031196669 0.66850007
-0.087925725 -0.031220002 0.66900003
-0.082322553 -0.031613655 0.66833347
-0.077615246 -0.031810477 0.6680001
-0.072907358 -0.031766128 0.66900009
-0.067384295 -0.031150002 0.66750002
-0.063714288 -0.031220002 0.66900003
-0.043325715 -0.031220002 0.66900003
-0.11624858 -0.029856192 0.66700006
-0.11302857 -0.029211191 0.66675001
-0.10788918 -0.029194169 0.66637504
-0.10275675 -0.029242996 0.66542858
-0.097631119 -0.02937429 0.6656667
-0.09253484 -0.028448649 0.66624999
-0.087416045 -0.028358903 0.6662308
-0.082722582 -0.028802002 0.66609997
-0.07715258 -0.028805906 0.66620004
-0.072145715 -0.028663293 0.66609097
-0.067114569 -0.029255785 0.66571426
-0.062193863 -0.028733548 0.66711122
-0.057087228 -0.028281193 0.6672501
-0.053941272 -0.028558414 0.66633338
-0.046640199 -0.028596193 0.66720003
-0.042373151 -0.027984321 0.66673344
-0.037643563 -0.027908191 0.66693342
-0.032892004 -0.027815053 0.66673332
-0.029789049 -0.026620477 0.66550004
-0.033566669 -0.024700001 0.66500002
-0.12108668 0.078401595 0.6656667
-0.11784406 0.078879766 0.66525
-0.11277548 0.079196438 0.66525
-0.10750968 0.078708574 0.66571426
-0.10413016 0.078784138 0.66533339
-0.10591429 -0.035304762 0.67400002
-0.10270478 -0.035304762 0.67400002
-0.097783506 -0.035304762 0.67400002
-0.094360009 -0.035304762 0.67400002
-0.081441283 -0.035269845 0.67333335
-0.078954294 -0.035304762 0.67400002
-0.11675983 -0.033123624 0.67140007
-0.11259916 -0.033034712 0.67133331
-0.1077026 -0.03334368 0.67142856
-0.10226656 -0.033237502 0.67112499
-0.097171433 -0.033243574 0.67124999
-0.092412665 -0.033365581 0.67185718
-0.087655723 -0.033059843 0.6718334
-0.083253153 -0.033379238 0.67140007
-0.077934533 -0.033856906 0.67075002
-0.07266286 -0.033705141 0.6728
-0.067840002 -0.033281907 0.67200005
-0.062549941 -0.032416873 0.67114288
-0.057598099 -0.031999525 0.67199999
-0.052196052 -0.032186229 0.67276919
-0.04750308 -0.032441542 0.6719231
-0.041699208 -0.032125559 0.67016667
-0.037090953 -0.031976908 0.67149997
-0.032455478 -0.032458097 0.67149997
-0.060619052 -0.029990477 0.67000002
-0.059342861 -0.029990477 0.67000002
-0.1164 -0.040740002 0.67900002
-0.11316667 -0.040740002 0.67900002
-0.11611906 -0.037134711 0.67611116
-0.11231678 -0.037528194 0.67700011
-0.10755934 -0.037575651 0.67685717
-0.10254382 -0.037936192 0.6771819
-0.09738975 -0.037195455 0.67722225
-0.092499159 -0.036769815 0.67730004
-0.087728754 -0.037416372 0.67731261
-0.082668729 -0.037841033 0.6769231
-0.077505626 -0.036639366 0.67755562
-0.071849406 -0.03632893 0.67812502
-0.067212559 -0.036861219 0.67681819
-0.062332626 -0.036758341 0.67708337
-0.05785111 -0.036490694 0.67744446
-0.052862264 -0.036101311 0.676875
-0.048026476 -0.036538102 0.67780006
-0.042938922 -0.03610599 0.67871433
-0.037097335 -0.035804387 0.67860001
-0.032732703 -0.036178105 0.6783334
-0.088071436 -0.034071431 0.67500001
-0.06235715 -0.034071431 0.67500007
-0.057857148 -0.034071431 0.67500001
-0.05464286 -0.034071431 0.67500001
-0.042459052 -0.034096669 0.67550004
-0.037340954 -0.034121908 0.67600006
-0.034121908 -0.034121908 0.67600006
-0.11652604 -0.042590797 0.68099999
-0.11308593 -0.042021379 0.6811111
-0.10774119 -0.041540481 0.68150002
-0.10264156 -0.04157798 0.68212503
-0.097446322 -0.042185891 0.68336374
-0.092103742 -0.042430628 0.68215388
-0.087247029 -0.042356107 0.68227273
-0.082351744 -0.042262223 0.68266672
-0.077632681 -0.042133242 0.6827001
-0.073093444 -0.041861702 0.68322223
-0.067687027 -0.041653935 0.68337506
-0.062423576 -0.041615721 0.68275005
-0.057430163 -0.041393973 0.68266678
-0.051597502 -0.041831791 0.68362504
-0.04751524 -0.042309314 0.6834445
-0.043229718 -0.042058293 0.68360007
-0.038162101 -0.041288573 0.68380004
-0.034525715 -0.041040003 0.68400002
-0.10038096 -0.039504763 0.68000001
-0.097287625 -0.039562859 0.68099999
-0.09260954 -0.039504763 0.68000001
-0.077282548 -0.03907302 0.68000001
-0.073071435 -0.038724292 0.68050003
-0.06755048 -0.039620955 0.68200004
-0.062263813 -0.039562859 0.68099999
-0.056694925 -0.039168261 0.68166673
-0.052650325 -0.038999844 0.68250006
-0.047537148 -0.039111115 0.68066669
-0.042596195 -0.038705397 0.6811111
-0.037819397 -0.038410742 0.6814546
-0.032808986 -0.038944222 0.68314296
-0.029271431 -0.038378097 0.68300003
-0.11709449 -0.046550099 0.68839997
-0.11324667 -0.045692697 0.6886667
-0.10958382 -0.045277145 0.68900001
-0.10090762 -0.045211431 0.68800002
-0.097607151 -0.04585667 0.68783343
-0.093168996 -0.045884628 0.68685716
-0.087753691 -0.045842979 0.68762499
-0.082441054 -0.046267908 0.68810004
-0.077353343 -0.046064027 0.68766671
-0.072075881 -0.045648895 0.68800008
-0.06728667 -0.045775812 0.68860006
-0.062826864 -0.045513339 0.6886
-0.057252705 -0.0456708 0.68833339
-0.052391551 -0.045842506 0.68762505
-0.04748686 -0.04539429 0.68680006
-0.043964766 -0.045277145 0.68900001
-0.038059048 -0.045277145 0.68900001
-0.033465713 -0.045277145 0.68900001
-0.11172001 -0.043773334 0.68600005
-0.10868905 -0.043869048 0.6875
-0.10277461 -0.043858416 0.68733335
-0.099960007 -0.043773334 0.68600005
-0.0719181 -0.043805242 0.68650007
-0.06739144 -0.043837145 0.68700004
-0.062765718 -0.043805242 0.68650007
-0.057360321 -0.043401591 0.68700004
-0.053266428 -0.043462623 0.68625009
-0.041813336 -0.043773334 0.68600005
-0.0376366 -0.043240413 0.68642867
-0.032535154 -0.042648751 0.6870001
-0.028978733 -0.041616194 0.68633336
-0.030706668 -0.039853334 0.68600005
-0.029400002 -0.039853334 0.68600005
-0.11574048 -0.050636671 0.69050002
-0.11269461 -0.051285084 0.69333339
-0.10773525 -0.050893337 0.69400001
-0.10376953 -0.050893337 0.69400001
-0.091211438 -0.050893337 0.69400001
-0.087245725 -0.050893337 0.69400001
-0.082578741 -0.050868895 0.6936667
-0.079314291 -0.050893337 0.69400001
-0.11634763 -0.048511431 0.69020003
-0.1121126 -0.048342865 0.69111109
-0.10765586 -0.047389332 0.69107145
-0.1028928 -0.047687218 0.69128579
-0.097613744 -0.048667081 0.69185722
-0.092283227 -0.048779882 0.69212508
-0.087548427 -0.048711907 0.69116676
-0.08309906 -0.04889524 0.69066668
-0.077641636 -0.0488449 0.69171441
-0.072453342 -0.048348382 0.69160002
-0.067367524 -0.048204765 0.69122225
-0.061749883 -0.048086312 0.69162506
-0.058042184 -0.048072927 0.6914286
-0.052571431 -0.047971431 0.69000006
-0.046556573 -0.047347814 0.69240004
-0.04198892 -0.046901997 0.69181818
-0.037346672 -0.047131706 0.6914286
-0.032814763 -0.04705058 0.69189996
-0.029401669 -0.046580717 0.69375002
-0.10676667 -0.044156194 0.69200003
-0.029040001 -0.044220004 0.69300002
-0.087748572 -0.055175241 0.69800001
-0.029166669 -0.055679053 0.69600004
-0.11221572 -0.053237304 0.69583338
-0.10717895 -0.05281746 0.6961112
-0.102485 -0.052404758 0.69650006
-0.097283922 -0.051999472 0.69700003
-0.092600495 -0.052513815 0.69575006
-0.087465003 -0.05301024 0.69575006
-0.082194291 -0.053029526 0.6960001
-0.077123918 -0.052670375 0.69611114
-0.072977744 -0.051749885 0.69662505
-0.067659296 -0.051740956 0.6965
-0.062365599 -0.051750362 0.69662499
-0.057515405 -0.05154429 0.69683337
-0.047176193 -0.051162224 0.69766665
-0.042628955 -0.051393908 0.6972
-0.037200958 -0.051150002 0.69749999
-0.032541588 -0.051137783 0.69733334
-0.028537622 -0.053089689 0.69683337
-0.097300008 -0.049642861 0.69500005
-0.065528579 -0.049642861 0.69500005
-0.063542858 -0.049642861 0.69500005
-0.056261908 -0.049642861 0.69500005
-0.053102382 -0.049785718 0.69700003
-0.04821334 -0.049320638 0.69666672
-0.042361908 -0.049642861 0.69500005
-0.037094764 -0.049678575 0.69550002
-0.032494288 -0.049738102 0.69633341
-0.028845001 -0.048739288 0.69625008
-0.11171563 -0.056996763 0.70240003
-0.1073226 -0.057534698 0.70242864
-0.10284985 -0.056595664 0.7027778
-0.09751837 -0.056759924 0.70263648
-0.092445202 -0.056952558 0.70200014
-0.086733073 -0.057472657 0.7028572
-0.082290918 -0.056908578 0.70145452
-0.077498734 -0.056790315 0.70150006
-0.072492525 -0.056065589 0.70200002
-0.067224227 -0.056325179 0.70285726
-0.062680326 -0.055990797 0.7026667
-0.057639763 -0.05562976 0.70375001
-0.052744132 -0.056096509 0.70400012
-0.047581594 -0.056293651 0.70366669
-0.042861525 -0.056658674 0.70320004
-0.037701193 -0.056467623 0.70375007
-0.032400142 -0.056289665 0.70242864
-0.028707622 -0.05808286 0.70100003
-0.10133334 -0.054000005 0.70000005
-0.098000005 -0.054000005 0.70000005
-0.072000012 -0.054000005 0.70000005
-0.067364767 -0.054025721 0.70033336
-0.062754773 -0.054077148 0.70100003
-0.057024449 -0.05368413 0.70166671
-0.052105479 -0.05277532 0.70141673
-0.047367148 -0.053371906 0.70050001
-0.042597421 -0.053461637 0.70042866
-0.037394408 -0.053419884 0.70112503
-0.032690004 -0.053371906 0.70050001
-0.028133336 -0.052400004 0.70000005
-0.11657863 -0.062669635 0.70755559
-0.11257172 -0.06219865 0.70657146
-0.10763703 -0.061892748 0.706375
-0.10240132 -0.06197989 0.70737505
-0.097633347 -0.061946675 0.70700002
-0.09326423 -0.061887901 0.70742857
-0.087636672 -0.061795086 0.70783341
-0.082110912 -0.062201064 0.70733339
-0.077505723 -0.060881592 0.70766664
-0.072822861 -0.060348574 0.708
-0.067833148 -0.060820576 0.708
-0.06203429 -0.061360005 0.708
-0.057314288 -0.061360009 0.70800006
-0.052594289 -0.061360005 0.708
-0.046901915 -0.06192559 0.70785719
-0.042430323 -0.061961435 0.70716667
-0.039277785 -0.06172223 0.70700002
-0.034388572 -0.061360005 0.708
-0.11640429 -0.059548575 0.70649999
-0.11347144 -0.059085719 0.70500004
-0.10541429 -0.059757147 0.70500004
-0.10165747 -0.05933778 0.70533335
-0.097357154 -0.059757151 0.7050001
-0.092721432 -0.05979953 0.70550007
-0.087886676 -0.059624195 0.70660001
-0.083257154 -0.059757147 0.70500004
-0.078630172 -0.059813656 0.70566672
-0.07261683 -0.058497779 0.70600003
-0.06675747 -0.058918413 0.70566666
-0.062518783 -0.058870617 0.70585716
-0.057811271 -0.058484614 0.70583332
-0.05216229 -0.058750667 0.7058
-0.047739051 -0.059170481 0.70600003
-0.042971432 -0.059309527 0.70500004
-0.037457384 -0.058959763 0.70550001
-0.032676198 -0.058861908 0.70500004
-0.11764001 -0.070040002 0.71400005
-0.11731006 -0.067133337 0.71200013
-0.11296614 -0.066423543 0.71271437
-0.098600015 -0.065960005 0.71400011
-0.085000008 -0.065960005 0.71400005
-0.08296001 -0.065960005 0.71400005
-0.071400002 -0.065960005 0.71400011
-0.055080004 -0.065960005 0.71400005
-0.053720005 -0.065960005 0.71400005
-0.11162319 -0.064268261 0.71033335
-0.10721286 -0.064464286 0.71250004
-0.10234319 -0.064388894 0.7116667
-0.097644761 -0.064419046 0.71200001
-0.09213753 -0.064184763 0.71240008
-0.087720193 -0.063859999 0.71180004
-0.083965719 -0.064328574 0.71100003
-0.077179052 -0.063476823 0.7115556
-0.072511114 -0.063025817 0.7115556
-0.067831859 -0.063466981 0.7114445
-0.062374167 -0.063731544 0.71187508
-0.057249799 -0.063839458 0.71200007
-0.052557554 -0.063594557 0.7114287
-0.048640639 -0.064028576 0.71266669
-0.11709429 -0.070530482 0.71900004
-0.095181912 -0.070530482 0.71900004
-0.092442863 -0.070530489 0.71900004
-0.089019053 -0.070530482 0.71900004
-0.11540286 -0.068968579 0.71700001
-0.11197543 -0.06877239 0.71780008
-0.10775958 -0.067514725 0.71736366
-0.10271923 -0.067797326 0.7177273
-0.097237863 -0.068187863 0.71775001
-0.092611708 -0.067427978 0.71645463
-0.087579928 -0.067719653 0.71690917
-0.082246035 -0.067666672 0.71766675
-0.077506945 -0.066782862 0.71657151
-0.072704099 -0.067826264 0.71728581
-0.068089843 -0.067180328 0.71733332
-0.06259238 -0.066890076 0.71771437
-0.057078648 -0.067227222 0.71714294
-0.052364767 -0.067132004 0.71780008
-0.048093338 -0.067242123 0.71799999
-0.043140005 -0.066421911 0.71900004
-0.04705143 -0.064780958 0.71600002
-0.042337142 -0.06487143 0.71700001
-0.038922861 -0.06487143 0.71700001
-0.090891436 -0.075054288 0.72300005
-0.08813715 -0.075054288 0.72300005
-0.11736314 -0.07258001 0.72185725
-0.11271747 -0.072168581 0.72166675
-0.10742859 -0.072308578 0.72181833
-0.10281013 -0.071573935 0.72087514
-0.097607389 -0.071832865 0.72175002
-0.092362456 -0.072929256 0.72142863
-0.087398522 -0.072287209 0.72133332
-0.083151117 -0.071983077 0.72288895
-0.077384628 -0.071681775 0.72271436
-0.073004 -0.07108058 0.72180003
-0.067455955 -0.070898332 0.72275007
-0.063348576 -0.070922859 0.72300005
-0.057151433 -0.070922866 0.72300005
-0.051608101 -0.071562394 0.72250003
-0.047478579 -0.071562387 0.72250009
-0.042764086 -0.071471028 0.72257155
-0.039248575 -0.071611434 0.72300005
-0.081749849 -0.069385409 0.72133344
-0.077558741 -0.069321275 0.72066677
-0.072685719 -0.069257148 0.72000003
-0.066313148 -0.068785533 0.7208001
-0.06251429 -0.069385402 0.72133338
-0.05877262 -0.069081672 0.72175008
-0.052946672 -0.069449529 0.72200006
-0.047314294 -0.069257155 0.72000003
-0.042298198 -0.06836424 0.72022229
-0.039140001 -0.067981914 0.72100008
-0.11712725 -0.076749921 0.72599995
-0.11253362 -0.076963358 0.72670001
-0.10779507 -0.076711617 0.7268182
-0.10258608 -0.076768756 0.72736371
-0.097442195 -0.077069059 0.72770005
-0.092884131 -0.077033333 0.72722226
-0.086989634 -0.077162765 0.72555548
-0.082752272 -0.076454289 0.72611117
-0.077612273 -0.076228455 0.72762507
-0.072084561 -0.07655672 0.72855562
-0.067315243 -0.076336831 0.72866672
-0.062884577 -0.075934105 0.72880006
-0.052256193 -0.0760708 0.72833341
-0.047257964 -0.076460421 0.72514284
-0.044880956 -0.076642863 0.72500008
-0.1015 -0.073880956 0.72500008
-0.098047629 -0.073880956 0.72500002
-0.081246041 -0.073420644 0.72500008
-0.077359289 -0.073906437 0.72525007
-0.071907625 -0.073522553 0.72600001
-0.067450754 -0.073178917 0.7258572
-0.061951246 -0.072877727 0.72600001
-0.057466984 -0.073393658 0.72700012
-0.053240955 -0.07329239 0.72600007
-0.047642857 -0.073880956 0.72500008
-0.11650238 -0.080575719 0.73250008
-0.11270287 -0.080862097 0.73320001
-0.10743476 -0.080226198 0.73250008
-0.10231239 -0.080818288 0.73280001
-0.09737467 -0.081332587 0.73240006
-0.09238632 -0.081232272 0.73212504
-0.088073537 -0.080538675 0.73280001
-0.082720645 -0.080390483 0.73400009
-0.077489845 -0.080979377 0.73300004
-0.072751597 -0.080655091 0.73216671
-0.068506673 -0.080390483 0.73400003
-0.10234001 -0.078669526 0.73100001
-0.080758102 -0.078669526 0.73100001
-0.077277146 -0.078669533 0.73100007
-0.072635882 -0.078669533 0.73100007
-0.067530483 -0.078669533 0.73100007
-0.062370617 -0.078088164 0.73114288
-0.057560291 -0.077491142 0.7317
-0.053092577 -0.078177147 0.73160005
-0.049530957 -0.078134768 0.73250002
-0.11472096 -0.085160956 0.73900002
-0.10064477 -0.085160956 0.73900002
-0.097829536 -0.085864767 0.73900002
-0.087272391 -0.085160956 0.73900002
-0.081641912 -0.085160956 0.73900002
-0.077419057 -0.085160956 0.73900002
-0.073900007 -0.086568579 0.73900002
-0.11573572 -0.082769051 0.73650002
-0.11186144 -0.083077945 0.73716676
-0.10748859 -0.082900964 0.73766673
-0.10284362 -0.083200954 0.73660004
-0.097520016 -0.084424764 0.73666668
-0.092497423 -0.084280282 0.73657149
-0.087658733 -0.083217785 0.73633337
-0.082746781 -0.082591869 0.73700005
-0.077131674 -0.083441675 0.73625004
-0.072426669 -0.083446272 0.73628581
-0.067120008 -0.082427055 0.73720002
-0.062526673 -0.081495248 0.73766673
-0.057634287 -0.081532389 0.73799998
-0.053065244 -0.081180483 0.73800004
-0.048431434 -0.080719054 0.73700011
-0.031952955 -0.081219628 0.73900002
-0.028066907 -0.0813931 0.73675001
-0.038709525 -0.079530485 0.73900002
-0.03155778 -0.079243496 0.73633337
-0.027374288 -0.079315245 0.73700011
-0.1157362 -0.086098105 0.74100006
-0.11233413 -0.086195081 0.74183339
-0.10745025 -0.0862431 0.74225008
-0.10248641 -0.08693783 0.74214292
-0.097925566 -0.08756905 0.74150008
-0.092510961 -0.087569058 0.74150008
-0.087436423 -0.088090487 0.74176925
-0.082787909 -0.088017054 0.74169999
-0.077750057 -0.088152654 0.7415455
-0.072006539 -0.087358385 0.74228579
-0.067575924 -0.086162597 0.74242866
-0.06215461 -0.08651419 0.74255562
-0.057111312 -0.086817026 0.74262506
-0.052345719 -0.086300716 0.74275005
-0.047056668 -0.085975721 0.74300003
-0.043164764 -0.085975721 0.74300003
-0.037503816 -0.085621916 0.74300003
-0.031842858 -0.085621916 0.74300003
-0.028304763 -0.085621908 0.74300003
-0.062723815 -0.083866678 0.74000001
-0.057790481 -0.083866671 0.74000001
-0.051889528 -0.083327353 0.74057144
-0.047118779 -0.083036877 0.74157155
-0.042413574 -0.082708828 0.74225008
-0.037436511 -0.082644768 0.74166667
-0.03278422 -0.083424494 0.74142867
-0.028266668 -0.08409334 0.74200004
-0.044400003 -0.079638101 0.74000001
-0.11604048 -0.091124296 0.74750006
-0.11261731 -0.092111275 0.74683344
-0.10770992 -0.091633342 0.74700016
-0.10265317 -0.091657326 0.747091
-0.097530723 -0.091658339 0.74750006
-0.092634723 -0.091860697 0.74663651
-0.08745607 -0.092738502 0.74657148
-0.082737677 -0.092696622 0.74677783
-0.077466905 -0.091327384 0.74625009
-0.072517142 -0.091003343 0.74650002
-0.067630962 -0.091124296 0.74750006
-0.062514082 -0.09193752 0.74653858
-0.057471436 -0.091123141 0.74500006
-0.052697863 -0.090442143 0.74774998
-0.047729529 -0.090472385 0.74800003
-0.043158293 -0.090733148 0.74780005
-0.038468577 -0.090472385 0.74800003
-0.11596286 -0.08892858 0.74700004
-0.1128143 -0.088690482 0.74500006
-0.10784762 -0.088690482 0.74500006
-0.10430001 -0.088690482 0.74500006
-0.095785722 -0.088690482 0.74500006
-0.070242859 -0.088690482 0.74500006
-0.067524135 -0.088849217 0.74633336
-0.062674612 -0.088690482 0.74500006
-0.058890481 -0.088690482 0.74500006
-0.052539527 -0.088750012 0.74550009
-0.047873717 -0.088218108 0.74580002
-0.042244285 -0.08786311 0.74550003
-0.037645876 -0.08808016 0.7458334
-0.032962859 -0.087981276 0.74700004
-0.029188097 -0.088276669 0.74750006
-0.04948286 -0.10111715 0.75300002
-0.11157715 -0.095842861 0.75100005
-0.10765252 -0.096000008 0.75142866
-0.1028454 -0.095689222 0.75166672
-0.097435012 -0.096002154 0.75225002
-0.092409059 -0.095991597 0.75216675
-0.087653026 -0.096251756 0.7523334
-0.08214286 -0.095000014 0.75000012
-0.079285719 -0.095000006 0.75000006
-0.071714289 -0.095380008 0.75300002
-0.066665404 -0.095337793 0.75266671
-0.063740954 -0.095253341 0.75200003
-0.048048578 -0.095380008 0.75300002
-0.10071429 -0.093571432 0.75000006
-0.097857147 -0.093571432 0.75000006
-0.077192865 -0.093633808 0.75050002
-0.072208256 -0.093654618 0.75066674
-0.067857146 -0.093571439 0.75000012
-0.055000003 -0.092142865 0.75000006
-0.052259691 -0.09306445 0.75166672
-0.047520824 -0.093101777 0.75114286
-0.042217784 -0.093023501 0.75133342
-0.03709048 -0.092062466 0.75100005
-0.032414831 -0.091928571 0.75157154
-0.029383335 -0.091733813 0.75250006
-0.10034477 -0.10106668 0.75800002
-0.096969053 -0.10237525 0.75699997
-0.093155935 -0.10262695 0.75657147
-0.088894106 -0.10070896 0.75640005
-0.052300572 -0.10070896 0.75640005
-0.046768099 -0.10073286 0.75550008
-0.11117335 -0.098900959 0.75800002
-0.1019812 -0.098378338 0.75675005
-0.096744537 -0.098901667 0.7552501
-0.092757151 -0.099228576 0.75500005
-0.087896667 -0.098705247 0.75650001
-0.083464295 -0.097135723 0.75550008
-0.076972708 -0.095675573 0.75533342
-0.073055476 -0.096808344 0.75575006
-0.068057716 -0.096835248 0.75540012
-0.062640004 -0.097200006 0.75600004
-0.057752386 -0.096013337 0.75800002
-0.052552704 -0.097186781 0.75588894
-0.047483098 -0.098204218 0.75541675
-0.042673334 -0.097053096 0.75625002
-0.037227198 -0.096792065 0.75655556
-0.03239388 -0.096771568 0.75585723
-0.02804937 -0.096373819 0.75516677
-0.056085717 -0.094195247 0.75500005
-0.03667143 -0.094195247 0.75500005
-0.031638097 -0.094195247 0.75500005
-0.028042858 -0.093835726 0.75500005
-0.11161334 -0.10509048 0.76100004
-0.10074191 -0.10509048 0.76100004
-0.09929239 -0.10509048 0.76100004
-0.093494289 -0.10509048 0.76100004
-0.11554001 -0.10173334 0.76300001
-0.11213965 -0.10199346 0.76087511
-0.10759991 -0.10224258 0.7603001
-0.10303736 -0.10207228 0.76011121
-0.099161908 -0.10278096 0.76000005
-0.086857148 -0.10133334 0.76000005
-0.082622863 -0.10122509 0.7610001
-0.077549532 -0.10146668 0.7610001
-0.0725554 -0.10230461 0.76183337
-0.067195795 -0.10177729 0.7610001
-0.062764384 -0.10103182 0.7610001
-0.05723786 -0.10107119 0.76075
-0.03619048 -0.10060953 0.76000005
