# .PCD v0.7 - Point Cloud Data file format
VERSION 0.7
FIELDS x y z
SIZE 4 4 4
TYPE F F F
COUNT 1 1 1
WIDTH 1331
HEIGHT 1
VIEWPOINT 0 0 0 1 0 0 0
POINTS 1331
DATA ascii
-0.082887061 0.0086070476 0.61900002
-0.077351145 0.008828857 0.61810005
-0.072649688 0.0082375137 0.61794454
-0.067290112 0.0089131137 0.61769241
-0.062283233 0.0083784619 0.61830771
-0.057738215 0.008542262 0.61862499
-0.05213774 0.0083790477 0.61830771
-0.04727605 0.0089116488 0.61753857
-0.043330003 0.0085480958 0.61900002
-0.12222795 0.010414923 0.61900002
-0.11782057 0.011537825 0.61900008
-0.11259192 0.012379276 0.6189602
-0.10721568 0.012371669 0.61855012
-0.1024122 0.012359618 0.61799997
-0.097584821 0.012343761 0.61724997
-0.092749931 0.012453885 0.616579
-0.087345205 0.012644589 0.61627287
-0.082193188 0.01232738 0.61645013
-0.077507183 0.012726667 0.61570597
-0.073367529 0.012539905 0.6153
-0.067556061 0.011468437 0.61528575
-0.061867863 0.011434286 0.61575007
-0.057684094 0.010662586 0.61714298
-0.052904978 0.01128381 0.61644447
-0.047233757 0.012768043 0.61566663
-0.042286608 0.011743868 0.61668748
-0.03820762 0.012224003 0.61720002
-0.10552477 0.015917145 0.61900002
-0.10207371 0.016644169 0.61862499
-0.097664051 0.017062936 0.61775005
-0.092724547 0.017744258 0.61735296
-0.087394588 0.017529625 0.61673689
-0.082200006 0.017615715 0.61650014
-0.07744804 0.017603276 0.61606258
-0.073205724 0.017968485 0.6158182
-0.067635618 0.018638287 0.61539996
-0.062085718 0.019328572 0.61500001
-0.057400003 0.019328572 0.61500001
-0.052736431 0.019336428 0.61524999
-0.049200006 0.019328572 0.61500001
-0.091376193 0.020633334 0.61900002
-0.086868189 0.020862479 0.61880004
-0.082244389 0.021563049 0.61860001
-0.077753663 0.021795241 0.61849999
-0.072561242 0.022410309 0.61823535
-0.067285031 0.022189999 0.61672229
-0.062211912 0.022303093 0.6162501
-0.057522085 0.022305656 0.61631256
-0.052816492 0.022301488 0.61618751
-0.047516529 0.022293191 0.61594999
-0.042440291 0.023096478 0.61549997
-0.038852386 0.023623809 0.61500001
-0.070153341 0.025349526 0.61900002
-0.067179292 0.025339287 0.61875004
-0.062163152 0.026255334 0.61810005
-0.057605404 0.026977971 0.61846673
-0.052293755 0.026663156 0.61868757
-0.046945103 0.026838575 0.61835718
-0.042364825 0.027067918 0.61781251
-0.038093098 0.026931828 0.61691678
-0.037140004 0.030065719 0.61900008
-0.1253943 0.0041600005 0.62400001
-0.11588572 0.0041600005 0.62400001
-0.11350858 0.0041600009 0.62400001
-0.10578287 0.0041600005 0.62400001
-0.10310858 0.0038628574 0.62400001
-0.08795429 0.0041600005 0.62400001
-0.082407624 0.0039619054 0.62400007
-0.077257149 0.0041600005 0.62400001
-0.07230477 0.0041600009 0.62400001
-0.069531433 0.0041600005 0.62400001
-0.061211433 0.0041600005 0.62400001
-0.057051431 0.0041600005 0.62400001
-0.052297145 0.0041600005 0.62400001
-0.046948574 0.0041600005 0.62400001
-0.12668541 0.0069158734 0.62255555
-0.1227626 0.0066813617 0.62185717
-0.1175712 0.0065129376 0.62191677
-0.11271697 0.0062735239 0.62160009
-0.10750297 0.0058572483 0.62211114
-0.10237774 0.005916548 0.62137502
-0.097551674 0.0066067465 0.62141669
-0.092399299 0.0065129362 0.62191671
-0.087601915 0.005917619 0.62150002
-0.082549453 0.0063173808 0.62208343
-0.077766463 0.0061120638 0.62122226
-0.071986102 0.0055727619 0.62260002
-0.067517504 0.005920833 0.62187499
-0.063055247 0.0057307943 0.62266672
-0.057428889 0.0061158729 0.62166673
-0.052647028 0.005914405 0.62112498
-0.047371905 0.005919762 0.62175006
-0.042282857 0.0068672383 0.62180007
-0.038012899 0.0077115018 0.62292314
-0.032685716 0.00832 0.62400001
-0.12666829 0.012431525 0.62150002
-0.12304491 0.013250341 0.62028575
-0.11829208 0.014368257 0.62
-0.036521908 0.010593199 0.62285721
-0.032091431 0.010697143 0.62400001
-0.12669498 0.016887348 0.62371433
-0.12221055 0.017205637 0.62291682
-0.11713531 0.017522383 0.62207144
-0.11251877 0.017768873 0.62181252
-0.10762031 0.017976012 0.6213125
-0.10271787 0.018771192 0.62075001
-0.097428583 0.019485716 0.62
-0.11232001 0.020800002 0.62400001
-0.10756572 0.020800002 0.62400001
-0.10191392 0.021737529 0.62360007
-0.097499475 0.022299455 0.6231429
-0.092433617 0.022538373 0.62271428
-0.087686777 0.02310867 0.62210006
-0.083218262 0.023861429 0.62116671
-0.077942863 0.024209525 0.62
-0.074990481 0.024209525 0.62
-0.096868575 0.025554288 0.62400001
-0.091520011 0.025554288 0.62400001
-0.086567625 0.025950477 0.62400001
-0.082643822 0.026785852 0.62300003
-0.077222869 0.027139556 0.62213337
-0.072522499 0.027235357 0.62162495
-0.067485958 0.027825002 0.62158346
-0.063121594 0.028601274 0.62133336
-0.059638098 0.028933335 0.62
-0.053142861 0.028933335 0.62
-0.048419051 0.028933335 0.62
-0.075474292 0.030308573 0.62400001
-0.072502859 0.030308573 0.62400001
-0.067748576 0.030308573 0.62400001
-0.062159874 0.030783268 0.62328577
-0.057459049 0.030805718 0.62200004
-0.05212814 0.031426013 0.62253851
-0.04743845 0.03202381 0.62262493
-0.042668335 0.032004405 0.62224996
-0.038629621 0.032351907 0.62210006
-0.045760002 0.035062861 0.62400001
-0.043977149 0.035062861 0.62400001
-0.039024767 0.035459053 0.62400001
-0.11801239 -0.00059904763 0.62900007
-0.11262096 -0.00059904763 0.62900001
-0.1076993 -0.00059833337 0.62825
-0.10483334 -0.00059904763 0.62900001
-0.096446671 -0.00059904763 0.62900001
-0.0921546 -0.0013975663 0.6287778
-0.087460957 -0.00059904763 0.62900001
-0.0828235 -0.00059873023 0.62866664
-0.077945724 -0.00083828578 0.62860006
-0.070088573 -0.00059904763 0.62900001
-0.066693977 -0.00099841284 0.62900001
-0.06226794 -0.0017968257 0.62866676
-0.057922743 -0.0013472621 0.62862504
-0.054513335 -0.00059904763 0.62900001
-0.1253981 0.0017876192 0.62699997
-0.12236975 0.0023850794 0.62677783
-0.11733512 0.0022657781 0.62666672
-0.11202866 0.002129456 0.62664288
-0.10752131 0.0021282316 0.62621433
-0.10257324 0.0021473335 0.62690002
-0.097537592 0.0023524933 0.62741172
-0.092511013 0.0023852978 0.62668753
-0.087252021 0.0018785351 0.62584615
-0.082291692 0.001678355 0.6257273
-0.077494062 0.0017872223 0.62591672
-0.072889842 0.0020885717 0.6273334
-0.0674631 0.0022361907 0.62687498
-0.062500007 0.0023098812 0.62650007
-0.057294931 0.0017887303 0.62666678
-0.052773077 0.0019005197 0.62772733
-0.047670588 0.0031143918 0.62655556
-0.042492326 0.0026114886 0.62731254
-0.03713667 0.002900613 0.6275
-0.033549845 0.0037714287 0.62533337
-0.095833339 0.005357143 0.625
-0.061309528 0.005357143 0.625
-0.042857144 0.005357143 0.625
-0.036325853 0.0060398644 0.62528574
-0.033042267 0.0065489286 0.62512499
-0.033531748 0.010515874 0.625
-0.12662838 0.01917924 0.62540001
-0.12261906 0.019642858 0.625
-0.11904763 0.019642858 0.625
-0.12680909 0.022937877 0.62738466
-0.12238941 0.02268905 0.62687498
-0.11735049 0.02255672 0.62688899
-0.11212946 0.023262303 0.62625003
-0.10721406 0.023230556 0.6254167
-0.10277778 0.024007939 0.625
-0.096428573 0.024404764 0.625
-0.094642863 0.024404764 0.625
-0.089880958 0.024404764 0.625
-0.12768137 0.02659701 0.62857139
-0.12228649 0.025990477 0.62880003
-0.11729354 0.026238287 0.62900001
-0.11227693 0.027046427 0.62875003
-0.10765786 0.027513573 0.62800008
-0.10253507 0.027423041 0.62593752
-0.097537681 0.027624587 0.62543756
-0.09262871 0.027618416 0.62586671
-0.087908655 0.027781514 0.62508333
-0.08214286 0.029166669 0.625
-0.079166673 0.029166669 0.625
-0.11142287 0.03055143 0.62900001
-0.10782857 0.03055143 0.62900001
-0.10231382 0.031114049 0.62825
-0.097581528 0.030532001 0.62860006
-0.092026673 0.032351494 0.62826675
-0.087314114 0.032295067 0.62793761
-0.082455605 0.032266315 0.62737513
-0.077714868 0.032353461 0.62673336
-0.072812706 0.032827299 0.62666667
-0.067769386 0.032899342 0.62630773
-0.062672384 0.032988399 0.6256364
-0.057166193 0.033346906 0.62524998
-0.053273816 0.033630952 0.625
-0.090855561 0.035743177 0.62900007
-0.08742667 0.035928812 0.62875003
-0.082487628 0.036994543 0.62853342
-0.078066289 0.036279812 0.62860006
-0.072622739 0.03661143 0.62871432
-0.067107916 0.03688423 0.62843758
-0.06220191 0.037083335 0.62800002
-0.057400778 0.037072212 0.6278125
-0.052491721 0.036984112 0.62631255
-0.047799055 0.03707283 0.62580001
-0.042544577 0.037302922 0.62566674
-0.038726863 0.036582477 0.62560004
-0.062300954 0.040136192 0.62900001
-0.057508577 0.040136192 0.62900001
-0.052289374 0.041512545 0.62866676
-0.047753591 0.041770231 0.62833339
-0.042474523 0.041877862 0.62815011
-0.038661338 0.042013716 0.62840003
-0.12252477 -0.0058850003 0.63374996
-0.11834668 -0.0054342858 0.634
-0.11170477 -0.0054342858 0.634
-0.098420955 -0.0054342858 0.634
-0.092986673 -0.0054342858 0.634
-0.088760003 -0.0054342858 0.634
-0.080910482 -0.0054342858 0.634
-0.079099052 -0.0054342858 0.634
-0.07245715 -0.0054342858 0.634
-0.067573339 -0.0060338099 0.63350004
-0.06283924 -0.0056689526 0.63320005
-0.059126195 -0.0054299999 0.63349998
-0.041059051 -0.0054342858 0.634
-0.036228575 -0.0054342858 0.634
-0.12619954 -0.0021100002 0.63249999
-0.12282506 -0.0024099408 0.63218755
-0.11762465 -0.0029348573 0.63293338
-0.11250398 -0.003014762 0.6328333
-0.10744764 -0.0029205864 0.63246155
-0.10261217 -0.0019953114 0.63292307
-0.097570173 -0.0025300323 0.63213336
-0.092717156 -0.0036953744 0.63157153
-0.087773345 -0.0030149452 0.63292307
-0.082226671 -0.0025761041 0.63272727
-0.077016272 -0.0028265205 0.63215393
-0.072341278 -0.0025292069 0.63193339
-0.067622386 -0.0032494289 0.63169998
-0.062524527 -0.0042083333 0.63125002
-0.057307381 -0.0034600003 0.63174999
-0.05280422 -0.0020684353 0.63314283
-0.04694216 -0.0022937779 0.6335333
-0.042162925 -0.00241125 0.63243747
-0.037316956 -0.00229181 0.63266677
-0.10156097 0.00060095242 0.63100004
-0.072114289 0.00060095242 0.63100004
-0.051161908 0.00060190482 0.63200003
-0.04788341 0.00094544236 0.63185722
-0.042066671 0.00060095242 0.63100004
-0.037860002 0.00060095242 0.63100004
-0.12665072 0.028279524 0.63174999
-0.12266374 0.02838338 0.63163638
-0.11790919 0.028261732 0.63136369
-0.11388049 0.029146193 0.63100004
-0.12708154 0.031257909 0.63360006
-0.1225027 0.031764682 0.6336363
-0.11719287 0.032314904 0.63335705
-0.112526 0.032828849 0.63328576
-0.10733762 0.033166669 0.63316667
-0.10230394 0.033700835 0.63187498
-0.097483024 0.033096991 0.63183331
-0.094349533 0.03185048 0.63100004
-0.11593144 0.035624765 0.634
-0.11230858 0.035624765 0.634
-0.10657239 0.03592667 0.634
-0.10229223 0.036914133 0.63366663
-0.097749829 0.037411258 0.63356251
-0.093031093 0.037443727 0.63318181
-0.087809287 0.038491908 0.63150007
-0.084734291 0.039061908 0.63100004
-0.077351168 0.038718507 0.63100004
-0.072114296 0.039061908 0.63100004
-0.069109529 0.039061908 0.63100004
-0.091175243 0.040455241 0.634
-0.087225005 0.04180453 0.63308334
-0.082364716 0.042123366 0.63235301
-0.077313222 0.042079616 0.63276464
-0.072214618 0.04207645 0.63293332
-0.067496255 0.04204179 0.6324001
-0.062622949 0.042752944 0.63225001
-0.057752382 0.04271334 0.63166666
-0.054107383 0.043285958 0.63125002
-0.049879052 0.043869525 0.63100004
-0.037317146 0.04393905 0.63200003
-0.07064572 0.045285717 0.634
-0.06581524 0.045285717 0.634
-0.06279619 0.045889527 0.634
-0.058051977 0.045803268 0.63400006
-0.052490003 0.04585382 0.63349992
-0.046766482 0.04616534 0.63279998
-0.042009529 0.046745174 0.63271427
-0.038148575 0.04669429 0.6318
-0.038613811 0.050076671 0.63349998
-0.12088739 -0.0078788102 0.63625002
-0.11740422 -0.0071821436 0.63708341
-0.11275458 -0.0072920965 0.63790005
-0.10751831 -0.0071603181 0.63686675
-0.10264715 -0.0066698417 0.63650006
-0.097493991 -0.0067712702 0.63650006
-0.092166051 -0.0066711116 0.63666672
-0.086904906 -0.0061400002 0.6355716
-0.082935244 -0.0068067727 0.63666672
-0.07737688 -0.0061531984 0.63685721
-0.072441235 -0.0064926534 0.63614297
-0.068002865 -0.0078928573 0.63750005
-0.062063973 -0.0070773023 0.63683337
-0.056741908 -0.0061519733 0.63671434
-0.052173104 -0.0060678581 0.63700002
-0.047226429 -0.0060554766 0.63575006
-0.042758733 -0.0062526986 0.63533342
-0.038038917 -0.006500137 0.63685721
-0.033999525 -0.0060709529 0.63750005
-0.10220477 -0.0042333337 0.63500011
-0.085271433 -0.0042333337 0.63500005
-0.08345715 -0.0042333337 0.63500005
-0.051162865 -0.003749524 0.63500005
-0.048985716 -0.0042333337 0.63500005
-0.038100004 -0.0042333337 0.63500005
-0.1264281 0.033875719 0.6351667
-0.12239604 0.034077302 0.6351667
-0.11853334 0.03447143 0.63500005
-0.12591811 0.036179688 0.63666672
-0.12266751 0.037652265 0.63762498
-0.11776381 0.03801525 0.63760012
-0.11255005 0.037705351 0.636154
-0.10807835 0.038045321 0.63575011
-0.10371668 0.039007146 0.63500005
-0.094342865 0.039309528 0.63500005
-0.11664286 0.041180007 0.63900006
-0.11112515 0.041261148 0.63900006
-0.1068517 0.042177062 0.63845462
-0.10239619 0.042523563 0.63720006
-0.097547181 0.042441968 0.63711768
-0.092558034 0.042581152 0.63686669
-0.08778318 0.044193976 0.63566673
-0.074385718 0.044147622 0.63500005
-0.067128576 0.044147622 0.63500005
-0.096762866 0.045642864 0.63900006
-0.092502862 0.04564286 0.63900006
-0.087194294 0.046888895 0.63800001
-0.08235649 0.046896849 0.63692313
-0.077661499 0.047327686 0.63706255
-0.07286077 0.047404006 0.63646674
-0.067939624 0.047353595 0.63580006
-0.062932029 0.048409883 0.63537508
-0.057509273 0.048265111 0.63563651
-0.052143697 0.048505597 0.63662505
-0.04762445 0.048633974 0.63566673
-0.043542862 0.048985716 0.63500005
-0.077288583 0.050511431 0.63900006
-0.07273566 0.051010478 0.63871431
-0.067565084 0.051357936 0.63816667
-0.061864421 0.051581822 0.63854551
-0.057175405 0.051702064 0.63866669
-0.052352387 0.051885284 0.63861543
-0.047432024 0.052297384 0.63849998
-0.042458694 0.052165721 0.63687515
-0.039453976 0.052810162 0.63733339
-0.046860002 0.055380005 0.63900006
-0.042600002 0.055380005 0.63900006
-0.039557144 0.055380005 0.63900006
-0.12082668 -0.010426668 0.64400005
-0.11767 -0.010418572 0.64350003
-0.11203557 -0.010797779 0.64166677
-0.10852906 -0.010700953 0.64200002
-0.10324445 -0.010426668 0.64400005
-0.097500138 -0.011718776 0.64271432
-0.092374109 -0.011149335 0.6432001
-0.087093331 -0.010733334 0.64400005
-0.082180768 -0.011146478 0.64300007
-0.077160008 -0.01163651 0.64300013
-0.073477343 -0.011162668 0.64400005
-0.061544769 -0.010717143 0.64300001
-0.057562862 -0.010410476 0.64300001
-0.117165 -0.0091535719 0.64075005
-0.11154287 -0.0091428589 0.64000005
-0.10544763 -0.009142858 0.64000005
-0.10248143 -0.0091500003 0.64050007
-0.097523816 -0.009142858 0.64000005
-0.092489399 -0.0086306138 0.64071441
-0.087925598 -0.0085491678 0.64112502
-0.082145244 -0.0089468267 0.64050007
-0.077515125 -0.0085453577 0.64087498
-0.073256195 -0.0085476208 0.64100003
-0.06547381 -0.008568095 0.64250004
-0.062302858 -0.0087552387 0.6413334
-0.057340004 -0.0085404767 0.64050001
-0.052551314 -0.0085563101 0.64162505
-0.048050798 -0.0083492082 0.64133346
-0.042715479 -0.0079330951 0.64075005
-0.038520001 -0.0079485718 0.64200002
-0.034960002 -0.0079733338 0.64400005
-0.1270223 0.038679808 0.64060009
-0.12710844 0.042778417 0.64226681
-0.1221194 0.042742979 0.64112502
-0.11722969 0.043052822 0.64084619
-0.11273265 0.043350998 0.64109105
-0.10819048 0.044190478 0.64000005
-0.12174667 0.04630667 0.64400005
-0.11782816 0.04709037 0.64400005
-0.11200208 0.047620434 0.64327276
-0.10783196 0.047790654 0.64331257
-0.10273042 0.047698632 0.64206254
-0.097828865 0.048046742 0.64107698
-0.092743814 0.048203342 0.64066666
-0.088790245 0.049124051 0.64075005
-0.083504766 0.049371433 0.64000005
-0.10610668 0.050906669 0.64400005
-0.10304001 0.050906669 0.64400005
-0.097279876 0.052274697 0.6435715
-0.092489265 0.052678369 0.64314294
-0.087705784 0.05269793 0.64294124
-0.082469918 0.052468136 0.64206672
-0.077576272 0.052956488 0.64138472
-0.072386891 0.053528685 0.64111108
-0.066763654 0.053939845 0.64116669
-0.062596768 0.054054666 0.64060003
-0.05729524 0.054247621 0.64000005
-0.052215874 0.054247625 0.64000005
-0.091877341 0.056058671 0.64400005
-0.087706678 0.055813339 0.64400005
-0.081573337 0.055813339 0.64400005
-0.076832071 0.056193337 0.64366674
-0.072344519 0.056405004 0.64375007
-0.067169525 0.056553654 0.64311111
-0.062559739 0.056777403 0.64227283
-0.057270695 0.056456514 0.64200002
-0.052471116 0.057367366 0.64213336
-0.04770248 0.057563435 0.64160013
-0.042788737 0.058072865 0.64183342
-0.039295241 0.057212703 0.64133346
-0.050906669 0.060720004 0.64400005
-0.048208006 0.060965337 0.64400005
-0.043546669 0.061128896 0.64400005
-0.12178572 -0.015670668 0.64780003
-0.11725715 -0.015428573 0.648
-0.11232001 -0.015428573 0.648
-0.10861716 -0.015428573 0.648
-0.097508572 -0.015428573 0.648
-0.092418864 -0.015670668 0.64780003
-0.087634288 -0.015428573 0.648
-0.082222387 -0.015828095 0.64750004
-0.077835247 -0.015919594 0.64642859
-0.072765723 -0.015416667 0.64750004
-0.067885719 -0.015428573 0.648
-0.062948577 -0.015428573 0.648
-0.05986286 -0.015428573 0.648
-0.03394286 -0.015428573 0.648
-0.12229925 -0.01305562 0.64659995
-0.11763597 -0.012934434 0.64669228
-0.11249945 -0.01317124 0.64619994
-0.10709284 -0.012743077 0.64653844
-0.10262191 -0.012822598 0.64663631
-0.097131439 -0.014139525 0.64550006
-0.092021503 -0.013623674 0.64600003
-0.087592483 -0.013042687 0.64645451
-0.082688309 -0.013620545 0.64585716
-0.077400006 -0.014128572 0.64500004
-0.072114125 -0.012812642 0.64618182
-0.06780751 -0.012330239 0.64724994
-0.063118815 -0.012830874 0.64658332
-0.057876348 -0.012931587 0.64649999
-0.052981433 -0.012323452 0.64687502
-0.047825426 -0.011803884 0.64699996
-0.042905815 -0.011343907 0.64729995
-0.037139524 -0.011096193 0.64725
-0.032668956 -0.012205334 0.64720005
-0.070752382 -0.0092285722 0.64600003
-0.068291441 -0.0092285722 0.64600003
-0.046722382 -0.009221429 0.64550006
-0.043098573 -0.0092357155 0.64650005
-0.037315398 -0.0090214293 0.64583337
-0.12657763 0.048046429 0.64674997
-0.12311188 0.048339747 0.64545459
-0.11729165 0.048980746 0.64555562
-0.11457937 0.047760956 0.64566672
-0.12224268 0.052518539 0.6473636
-0.11712876 0.052629475 0.64706665
-0.11231652 0.05313874 0.64726675
-0.1074428 0.05304623 0.64613336
-0.10231161 0.053646326 0.64609092
-0.097671434 0.054671433 0.6450001
-0.084157147 0.054671433 0.64500004
-0.11170286 0.056160003 0.648
-0.10738287 0.056160003 0.648
-0.10253389 0.056688987 0.64800006
-0.097427621 0.056895979 0.64700007
-0.09235619 0.057570003 0.64649999
-0.086822122 0.057815559 0.64655548
-0.082568392 0.058017395 0.64666671
-0.07780201 0.058722001 0.64630002
-0.0725981 0.059062865 0.64599997
-0.067880273 0.059098512 0.6454286
-0.06232667 0.059376955 0.64539999
-0.058045451 0.059098512 0.6454286
-0.054671433 0.059585717 0.64500004
-0.037277784 0.058639675 0.64700001
-0.082285725 0.061714292 0.648
-0.07770016 0.062283978 0.64749998
-0.072715104 0.062470116 0.64746153
-0.067764133 0.062220007 0.64683336
-0.062583417 0.062378973 0.64741659
-0.057922497 0.062852859 0.64699996
-0.053050607 0.062898606 0.64620006
-0.047813773 0.063473508 0.64590913
-0.042377088 0.062914461 0.64606249
-0.037821904 0.062338479 0.64679998
-0.057394288 0.066034287 0.648
-0.053074289 0.066034287 0.648
-0.047057144 0.066805713 0.648
-0.042167552 0.06740316 0.64746147
-0.038829368 0.067594767 0.64716673
-0.12203253 -0.017964764 0.65042865
-0.11765759 -0.018091872 0.65153843
-0.11249787 -0.017993415 0.65141678
-0.10741824 -0.017639456 0.65142858
-0.1026881 -0.017297976 0.65150005
-0.09729486 -0.018011192 0.65208334
-0.092450202 -0.018119525 0.65149999
-0.087480813 -0.017994359 0.65146154
-0.082584977 -0.01814709 0.65200001
-0.076717384 -0.018326193 0.65225005
-0.072351441 -0.017985877 0.65116674
-0.067197874 -0.017885938 0.65100002
-0.062039293 -0.017992303 0.65141666
-0.057045661 -0.017363157 0.65106261
-0.052139051 -0.017381787 0.65175003
-0.047223102 -0.016777381 0.65241665
-0.042241357 -0.016773256 0.65224999
-0.03712235 -0.016962197 0.65215385
-0.033666477 -0.017765526 0.65220004
-0.050142862 -0.014238096 0.65000004
-0.047065958 -0.014243572 0.65025008
-0.041858103 -0.013716872 0.65042865
-0.037466429 -0.013160239 0.65025008
-0.12791273 0.052352451 0.65107143
-0.12675175 0.056035563 0.65133333
-0.1225315 0.057080787 0.65143746
-0.11790309 0.057212241 0.6513077
-0.11304668 0.058074396 0.65100002
-0.10779715 0.05823572 0.65050006
-0.10273238 0.058616199 0.65060008
-0.097603187 0.05880953 0.65000004
-0.093063496 0.05880953 0.65000004
-0.089761913 0.058809526 0.65000004
-0.12002762 0.060324766 0.65300006
-0.11505239 0.060324766 0.65300006
-0.11194287 0.061257623 0.65300006
-0.1071178 0.06170975 0.65246159
-0.10239279 0.061809611 0.65225005
-0.097555928 0.062082641 0.65147072
-0.092458755 0.062055066 0.65156245
-0.087886609 0.061946243 0.65092307
-0.083429381 0.063191906 0.65050006
-0.065000005 0.063761912 0.65000004
-0.096084289 0.06561096 0.65300006
-0.091712981 0.066064879 0.65287507
-0.08702223 0.066510469 0.65266669
-0.082140714 0.067229211 0.65240008
-0.077173345 0.066996202 0.65173328
-0.072297469 0.067168199 0.65180004
-0.067202754 0.066912107 0.6515882
-0.062184971 0.067233965 0.65107149
-0.056995481 0.068148106 0.65050006
-0.052179288 0.068331666 0.65224999
-0.047523625 0.068861529 0.65140003
-0.04271429 0.069952384 0.65000004
-0.080847621 0.07027524 0.65300006
-0.075250484 0.07027524 0.65300006
-0.070897147 0.07027524 0.65300006
-0.067165717 0.07027524 0.65300006
-0.061712392 0.070618108 0.65233338
-0.057105478 0.070140719 0.65175003
-0.052447304 0.07027524 0.65300006
-0.047033865 0.071482971 0.65266669
-0.042198978 0.072605647 0.65158337
-0.039060004 0.072540008 0.65100002
-0.042273812 0.075843573 0.65275002
-0.12107848 -0.021617904 0.65600008
-0.1176343 -0.022258913 0.65700006
-0.11291277 -0.021657145 0.65720004
-0.10735443 -0.021364765 0.65700001
-0.102492 -0.02240197 0.65700006
-0.097706556 -0.022395436 0.65680009
-0.092552744 -0.021262739 0.65662503
-0.087666668 -0.021290952 0.65750003
-0.082382008 -0.021660285 0.65730006
-0.077408433 -0.022083594 0.65669239
-0.072387479 -0.022079049 0.65653855
-0.067563929 -0.0225231 0.65687501
-0.062671185 -0.022392953 0.65673333
-0.057567418 -0.021458413 0.65622228
-0.052325722 -0.021199185 0.65742862
-0.04854786 -0.020985479 0.65775001
-0.035720002 -0.020680001 0.65800005
-0.10043334 -0.019338097 0.65500003
-0.081719056 -0.019338097 0.65500003
-0.079223812 -0.019338097 0.65500003
-0.047427386 -0.019345477 0.65525001
-0.042468816 -0.019360241 0.65575004
-0.038052384 -0.019338097 0.65500009
-0.13077429 0.058191434 0.65700001
-0.12783636 0.058921121 0.65583336
-0.12721327 0.062717438 0.65700006
-0.12261595 0.062622041 0.65620005
-0.11752071 0.062570728 0.65566677
-0.11257797 0.063731708 0.6551429
-0.10808318 0.064350478 0.65600002
-0.10355239 0.064252384 0.65500003
-0.12721334 0.065800004 0.65800005
-0.12188668 0.066113338 0.65800005
-0.11759915 0.066752099 0.65750003
-0.11265763 0.066969216 0.65716672
-0.10750352 0.067160666 0.6571539
-0.1025206 0.067513928 0.65637499
-0.097713582 0.067952469 0.65558344
-0.092724413 0.068528935 0.65562505
-0.087333336 0.069242865 0.65500003
-0.079223812 0.067995243 0.65500003
-0.10590667 0.070813335 0.65800005
-0.10188636 0.071613021 0.65766668
-0.097902864 0.07160107 0.65755558
-0.09190318 0.07200668 0.65744448
-0.087608516 0.07259126 0.65706253
-0.082843959 0.072737299 0.65707701
-0.077594943 0.072490342 0.65746158
-0.072769329 0.072860755 0.65707147
-0.067509212 0.073135242 0.65633339
-0.062688194 0.073303051 0.65560007
-0.057433974 0.073042072 0.65550011
-0.052407626 0.072871812 0.6556924
-0.048033338 0.073609531 0.65500003
-0.087106675 0.075826675 0.65800005
-0.076244459 0.076244459 0.65800011
-0.073208585 0.075711444 0.65700001
-0.067244619 0.076225251 0.65783334
-0.062554717 0.076611012 0.65755558
-0.057451088 0.076923989 0.65763646
-0.052560717 0.077589519 0.65700001
-0.047509409 0.07751631 0.65637499
-0.042506792 0.078765363 0.65637505
-0.050760005 0.080840006 0.65800005
-0.046669289 0.081122622 0.65775001
-0.043553334 0.081153341 0.65800005
-0.12054224 -0.027138416 0.66266674
-0.11739469 -0.026859239 0.66200012
-0.11230953 -0.026500478 0.66250008
-0.10699353 -0.026875237 0.66240013
-0.10228088 -0.027437223 0.66225016
-0.097567722 -0.02675697 0.66172731
-0.092038915 -0.026413063 0.66257155
-0.087071434 -0.026500477 0.66250008
-0.0824662 -0.026805952 0.6622501
-0.077503219 -0.02646631 0.66162503
-0.072503813 -0.026480954 0.66200006
-0.067813337 -0.026804868 0.66133338
-0.062963217 -0.026445596 0.66112506
-0.058678102 -0.026184764 0.66250002
-0.051777147 -0.025888573 0.66300005
-0.04925143 -0.025888573 0.66300005
-0.12005715 -0.024514288 0.66000003
-0.11565715 -0.024514288 0.66000003
-0.11166424 -0.023986124 0.66028577
-0.10796205 -0.023462724 0.66071433
-0.10497144 -0.024514288 0.66000003
-0.095614761 -0.024532858 0.66050005
-0.092522271 -0.023917977 0.66087502
-0.087536193 -0.023931429 0.66125011
-0.083148204 -0.024025908 0.66040009
-0.078571439 -0.024514288 0.66000003
-0.073542863 -0.024514288 0.66000003
-0.060971431 -0.024514288 0.66000003
-0.057863407 -0.024028575 0.66142863
-0.053125821 -0.023728997 0.66144449
-0.047577143 -0.023212701 0.66166681
-0.042863812 -0.022695001 0.66187507
-0.037910756 -0.022694152 0.66185731
-0.034272701 -0.022709524 0.66233343
-0.1309289 0.069562547 0.66200006
-0.12712859 0.068289265 0.66128576
-0.12232429 0.068839334 0.66070002
-0.11711162 0.069562294 0.66040003
-0.11201167 0.06985072 0.66075003
-0.10819668 0.069824293 0.66050005
-0.1312381 0.071929052 0.66250002
-0.12743048 0.071877286 0.66285723
-0.12242751 0.072100356 0.66262507
-0.11734295 0.072551362 0.66241682
-0.11225271 0.072523974 0.66216683
-0.10746516 0.072780006 0.66220015
-0.10256777 0.07362327 0.66071433
-0.097292542 0.0742281 0.66050005
-0.093964957 0.073336385 0.66040009
-0.082342863 0.074800007 0.66000003
-0.0792 0.074800007 0.66000003
-0.11555143 0.075140007 0.66300005
-0.1123943 0.075140007 0.66300005
-0.10544858 0.076402865 0.66300005
-0.10209144 0.076500691 0.6622858
-0.096953936 0.076617748 0.66212511
-0.092557624 0.076790005 0.66225004
-0.087333694 0.077600695 0.66145456
-0.082535684 0.077496722 0.66154552
-0.078345954 0.077560008 0.66075003
-0.072814927 0.077851534 0.66100007
-0.068001792 0.078705356 0.66112506
-0.06296096 0.079307072 0.6601429
-0.058257718 0.079649717 0.66060007
-0.081454292 0.080191433 0.66300005
-0.077005006 0.080161199 0.66275007
-0.071813151 0.080648199 0.66260004
-0.067850076 0.08136709 0.6622858
-0.063047625 0.082340963 0.66200012
-0.058025952 0.082624376 0.6622501
-0.053088665 0.082640186 0.66145462
-0.048653472 0.082828179 0.66100007
-0.042807624 0.082467623 0.66100001
-0.1171762 -0.031841591 0.66866678
-0.1126236 -0.032028042 0.66811115
-0.10751525 -0.031810477 0.6680001
-0.10232255 -0.031566989 0.66733336
-0.097679339 -0.031712793 0.66785723
-0.093022861 -0.031220002 0.66900003
-0.087727152 -0.031150002 0.66750008
-0.082735002 -0.031822141 0.66825008
-0.077674299 -0.031833813 0.66850007
-0.07249929 -0.031798337 0.66775006
-0.067334533 -0.031762384 0.66700006
-0.064351432 -0.031857144 0.66900003
-0.117707 -0.02937429 0.6656667
-0.1128181 -0.029155718 0.66549999
-0.10814351 -0.029359369 0.66533333
-0.10281112 -0.029766669 0.66500008
-0.097183973 -0.029366829 0.66550004
-0.092691541 -0.028971536 0.66611111
-0.087465711 -0.029155716 0.66549999
-0.082131848 -0.029249391 0.66557151
-0.077397987 -0.02918298 0.66612494
-0.072281674 -0.029166671 0.66574997
-0.066794135 -0.029381432 0.66583335
-0.062333219 -0.029259883 0.66787505
-0.057087388 -0.027963262 0.66725004
-0.052267201 -0.027721379 0.66655558
-0.04697191 -0.027804861 0.66650003
-0.042539582 -0.027940542 0.66668749
-0.037658032 -0.027834291 0.66719991
-0.033681229 -0.027328575 0.6672858
-0.038633335 -0.024700001 0.66500002
-0.033566669 -0.024700001 0.66500002
-0.13002858 0.074211434 0.66600001
-0.12766501 0.073811196 0.66525
-0.12291263 0.073811196 0.66525
-0.13022381 0.075593337 0.66700006
-0.12710986 0.07626763 0.66733348
-0.12248053 0.076260425 0.66788894
-0.11772043 0.07699661 0.66814291
-0.11257769 0.077006884 0.66700006
-0.10747451 0.077302203 0.66653848
-0.097239368 0.079021595 0.66733336
-0.092537619 0.079226196 0.66549999
-0.11584001 -0.035200004 0.67200005
-0.11272144 -0.035226192 0.67250001
-0.10771163 -0.035561528 0.67400002
-0.10463049 -0.035304762 0.67400002
-0.094360009 -0.035304762 0.67400002
-0.082163818 -0.035304762 0.67400002
-0.078954294 -0.035304762 0.67400002
-0.066830002 -0.035494767 0.67150003
-0.064340323 -0.035697781 0.67333335
-0.11683016 -0.033835877 0.67033339
-0.11209207 -0.03381905 0.67000002
-0.10743953 -0.033894762 0.67149997
-0.10261272 -0.033494603 0.67200011
-0.096896768 -0.033664763 0.67200005
-0.092393205 -0.033358641 0.67171443
-0.08764644 -0.033269282 0.67175007
-0.08185906 -0.033894762 0.67149997
-0.076883107 -0.033957858 0.67275
-0.07242953 -0.033970479 0.67300004
-0.06769 -0.033844288 0.67050004
-0.062243622 -0.03272095 0.67100006
-0.057582289 -0.03199162 0.67180002
-0.052789807 -0.031394377 0.67269999
-0.047439687 -0.031508256 0.67211115
-0.042169169 -0.031947266 0.67087501
-0.037118807 -0.031681187 0.67199999
-0.032954287 -0.032186288 0.67320007
-0.059342861 -0.029990477 0.67000002
-0.050409526 -0.029990477 0.67000002
-0.046580955 -0.029990477 0.67000002
-0.033180952 -0.029990477 0.67000002
-0.10734668 -0.040740002 0.67900002
-0.10411334 -0.040740002 0.67900002
-0.11631429 -0.037479527 0.6785
-0.1122834 -0.037954502 0.67800003
-0.10741014 -0.038149696 0.67681825
-0.10262052 -0.036988724 0.67769229
-0.097135566 -0.036777887 0.67744446
-0.092486866 -0.036764573 0.67720002
-0.087704174 -0.037406314 0.6771251
-0.082714215 -0.037385002 0.67675006
-0.077287629 -0.036914464 0.67781818
-0.072063819 -0.037101619 0.67792314
-0.068560325 -0.037182547 0.67700005
-0.062450007 -0.036054287 0.676
-0.057823814 -0.036061093 0.67785716
-0.052960478 -0.035954133 0.67816663
-0.047760956 -0.036120959 0.67900002
-0.042895555 -0.035997782 0.67900002
-0.03722591 -0.036580384 0.67860001
-0.033189718 -0.036030859 0.67800003
-0.057270162 -0.034105085 0.67566675
-0.052692957 -0.033884954 0.67640001
-0.04804286 -0.033874858 0.67620009
-0.042522386 -0.034147147 0.67650008
-0.036944192 -0.033854671 0.67580003
-0.033478096 -0.034121908 0.67600006
-0.091807306 -0.046228893 0.68366671
-0.089245722 -0.046251431 0.68400002
-0.116928 -0.042448957 0.68360007
-0.11248728 -0.042265806 0.68272734
-0.10791322 -0.042035107 0.68200004
-0.10275032 -0.041621115 0.68283337
-0.09734001 -0.042033527 0.68320006
-0.092225194 -0.042866729 0.68193758
-0.087207951 -0.043021902 0.68233335
-0.082180522 -0.042468864 0.6827693
-0.07757166 -0.042763744 0.68269235
-0.072782859 -0.042241909 0.68233341
-0.067552097 -0.042515464 0.68353856
-0.063840002 -0.04169143 0.68400002
-0.05602286 -0.041040003 0.68400002
-0.052077148 -0.041010004 0.68350005
-0.047531433 -0.041671436 0.68366671
-0.042916432 -0.041615717 0.68275011
-0.038005583 -0.041538101 0.68300003
-0.1177162 -0.039239049 0.68100005
-0.11414953 -0.039562859 0.68099999
-0.10102858 -0.038857147 0.68000001
-0.097444966 -0.039315429 0.68120009
-0.092701599 -0.039543495 0.68066669
-0.081600003 -0.039504763 0.68000001
-0.077714294 -0.039504763 0.68000001
-0.073685721 -0.039111748 0.68066669
-0.06728559 -0.039073069 0.68214297
-0.062158581 -0.038622763 0.6827001
-0.057210598 -0.039007742 0.68262506
-0.052433021 -0.038586881 0.68155557
-0.047858216 -0.038612265 0.68137503
-0.042639244 -0.038491812 0.68039995
-0.037993655 -0.03907302 0.68000001
-0.03392572 -0.038680002 0.68066669
-0.11743037 -0.046678692 0.68787503
-0.11278981 -0.046367619 0.6874547
-0.10853391 -0.045802098 0.68900007
-0.10138877 -0.045775812 0.68860006
-0.097536832 -0.045823179 0.68733346
-0.092909053 -0.047436196 0.68700004
-0.087716833 -0.04713238 0.68733335
-0.082453698 -0.046136785 0.68712497
-0.077411979 -0.046710208 0.68800008
-0.072356202 -0.045961365 0.68800002
-0.067754649 -0.046317738 0.68737507
-0.062864058 -0.046495479 0.68758339
-0.057744764 -0.045714609 0.68900007
-0.052888956 -0.045539621 0.68900007
-0.04790191 -0.045277145 0.68900001
-0.041777462 -0.045277145 0.68900001
-0.037402861 -0.045277145 0.68900001
-0.034778096 -0.045277145 0.68900001
-0.11890668 -0.043773334 0.68600005
-0.10664668 -0.043837145 0.68700004
-0.1025093 -0.043558337 0.68775004
-0.099306673 -0.043773334 0.68600005
-0.062066671 -0.042793334 0.68599999
-0.057830572 -0.042784858 0.68690014
-0.05230524 -0.043151669 0.68650007
-0.047057383 -0.043789286 0.68625003
-0.04246667 -0.043773334 0.68600005
-0.037565336 -0.043588191 0.68720007
-0.033264868 -0.042876508 0.68788892
-0.033320002 -0.039853334 0.68600005
-0.11516667 -0.050673336 0.69100004
-0.11233049 -0.051084388 0.69300002
-0.10773525 -0.050893337 0.69400001
-0.085923821 -0.050893337 0.69400001
-0.082619056 -0.050893337 0.69400001
-0.07997524 -0.050893337 0.69400001
-0.068739057 -0.050893337 0.69400001
-0.11701453 -0.049303576 0.69025004
-0.11212382 -0.048992857 0.69050002
-0.10746617 -0.048023377 0.69072735
-0.10309456 -0.048049353 0.69109094
-0.097572654 -0.048646942 0.69157147
-0.093194291 -0.049571436 0.69400001
-0.086964205 -0.04922286 0.69280005
-0.082938895 -0.048711907 0.69116676
-0.077366352 -0.049014285 0.6923334
-0.072469525 -0.048753574 0.69174999
-0.067635626 -0.049180005 0.69220006
-0.062107388 -0.049553573 0.69375002
-0.057720006 -0.048212696 0.69133341
-0.052322049 -0.047437962 0.69042861
-0.047193337 -0.047195032 0.69144446
-0.042238951 -0.047218204 0.69177783
-0.037301149 -0.048244763 0.69200003
-0.032737669 -0.046864077 0.69127274
-0.029571431 -0.045342859 0.69000006
-0.086419053 -0.055175241 0.69800001
-0.083095245 -0.055175241 0.69800001
-0.11144 -0.053068098 0.6965
-0.10718583 -0.052764639 0.69687498
-0.10268714 -0.052091911 0.69675004
-0.097579047 -0.0517781 0.69700003
-0.092534028 -0.051619999 0.69614297
-0.087762289 -0.05263238 0.6960001
-0.082223333 -0.053048812 0.69625002
-0.077190898 -0.051809117 0.69614297
-0.072614834 -0.051598512 0.69585729
-0.067647979 -0.052395366 0.69637507
-0.062671296 -0.051672656 0.69685721
-0.057047147 -0.051076669 0.69650006
-0.052516192 -0.051186673 0.69800007
-0.047828577 -0.051150002 0.69749999
-0.042514291 -0.051814765 0.69749999
-0.037161432 -0.051759288 0.69675004
-0.032550003 -0.051814765 0.69750011
-0.029027939 -0.051629841 0.69800007
-0.097300008 -0.049642861 0.69500005
-0.090680957 -0.049642861 0.69500005
-0.052990001 -0.049678575 0.69550002
-0.047725718 -0.04971429 0.69600004
-0.042361908 -0.049642861 0.69500005
-0.032463178 -0.049690481 0.69566673
-0.028355135 -0.048242755 0.6960001
-0.1072762 -0.061013337 0.70400006
-0.11209533 -0.057413846 0.70284629
-0.1072688 -0.057696536 0.70207155
-0.10292064 -0.05698207 0.70250005
-0.097797751 -0.056781482 0.70290917
-0.09264423 -0.056313612 0.70271432
-0.08756233 -0.056819189 0.70185721
-0.082433768 -0.057044681 0.70163649
-0.077508025 -0.056797229 0.70158333
-0.072218217 -0.056171078 0.70212501
-0.067578949 -0.056875665 0.7025556
-0.063165903 -0.056610096 0.70260006
-0.057119846 -0.056003973 0.70283341
-0.052040264 -0.056789014 0.70300007
-0.047736604 -0.056539327 0.70314294
-0.042839848 -0.056897618 0.70283335
-0.037462942 -0.056863736 0.70241678
-0.032249175 -0.056664247 0.70145464
-0.028666668 -0.055333339 0.70000005
-0.10866667 -0.054000005 0.70000005
-0.10200001 -0.054000005 0.70000005
-0.097333334 -0.054000005 0.70000005
-0.092666671 -0.054000005 0.70000005
-0.077333339 -0.054000005 0.70000005
-0.072666675 -0.054000005 0.70000005
-0.066666678 -0.054000005 0.70000005
-0.062301721 -0.053764194 0.70040005
-0.057374287 -0.05337191 0.70050007
-0.052037384 -0.053371672 0.70050001
-0.047367148 -0.053371906 0.70050001
-0.042682625 -0.054019291 0.70025003
-0.037347384 -0.054019291 0.70025003
-0.032666668 -0.054000005 0.70000005
-0.027468231 -0.052451432 0.7003637
-0.024701906 -0.051406674 0.70100009
-0.11564382 -0.062200643 0.70733333
-0.11214042 -0.062173888 0.70628577
-0.10786887 -0.06234042 0.70599997
-0.10241906 -0.061990961 0.70750004
-0.097366132 -0.06211824 0.70785725
-0.094130479 -0.061780643 0.70766664
-0.086942226 -0.062005401 0.70766675
-0.082271077 -0.062251791 0.70662504
-0.07805001 -0.061679214 0.70650005
-0.072796434 -0.061338335 0.70774996
-0.067237154 -0.061577719 0.70740002
-0.062011674 -0.061001193 0.70775002
-0.057314292 -0.060910486 0.70800006
-0.053268574 -0.061360005 0.708
-0.046953972 -0.060881592 0.70766664
-0.042772144 -0.061632149 0.70725
-0.03817397 -0.061751753 0.70733333
-0.11414286 -0.059757147 0.70500004
-0.10138573 -0.059757151 0.7050001
-0.097426198 -0.059463814 0.70550001
-0.092788577 -0.059170477 0.70599997
-0.087898418 -0.059422545 0.70633334
-0.083257154 -0.059757147 0.70500004
-0.077939525 -0.05979953 0.70550007
-0.072617151 -0.059170477 0.70599997
-0.067191906 -0.059799526 0.70550001
-0.062150478 -0.059128098 0.70550001
-0.058320325 -0.058620002 0.70566666
-0.05286305 -0.059590291 0.70620006
-0.04706667 -0.059170481 0.70600003
-0.042971432 -0.059757147 0.70500004
-0.037625242 -0.059799526 0.70550001
-0.03357143 -0.059757147 0.70500004
-0.11314509 -0.066863172 0.71233344
-0.10740167 -0.065936908 0.71375006
-0.10192905 -0.065913811 0.71350002
-0.097834416 -0.066582032 0.71337509
-0.092480004 -0.065960005 0.71400005
-0.087679051 -0.065929219 0.7136668
-0.082602181 -0.066490076 0.71342868
-0.070720002 -0.065960005 0.71400005
-0.067320004 -0.065960005 0.71400011
-0.062538818 -0.065936908 0.71375006
-0.05709929 -0.065936908 0.71375
-0.053266674 -0.066413343 0.71400011
-0.11663334 -0.064419046 0.71200001
-0.11360001 -0.064238101 0.71000004
-0.10761462 -0.064298421 0.71066666
-0.10292573 -0.064328574 0.71100003
-0.097475007 -0.064305954 0.71074998
-0.092123106 -0.063336909 0.71125007
-0.088384196 -0.063480951 0.71060008
-0.082799375 -0.064298421 0.71066666
-0.076852068 -0.063968256 0.71200007
-0.072505243 -0.063697621 0.71150005
-0.067892663 -0.063826256 0.7118572
-0.062392488 -0.063446879 0.71122235
-0.05707822 -0.063517027 0.71137506
-0.05256772 -0.063002758 0.71130008
-0.047964659 -0.063176297 0.71155566
-0.041982859 -0.062974289 0.71100003
-0.036565717 -0.062974289 0.71100003
-0.11608572 -0.070334293 0.71700001
-0.1133543 -0.070334293 0.71700001
-0.10750762 -0.070530482 0.71900004
-0.10164286 -0.070999816 0.71820009
-0.097100958 -0.070774771 0.71800005
-0.093724132 -0.070465088 0.71833342
-0.089703813 -0.070530482 0.71900004
-0.083540961 -0.070530482 0.71900004
-0.049233336 -0.070432387 0.71800005
-0.11130429 -0.068627626 0.71700007
-0.10772695 -0.068270624 0.71785718
-0.1029237 -0.068103693 0.71687502
-0.097512394 -0.068872385 0.71600002
-0.092835486 -0.068262622 0.71675003
-0.087375008 -0.068262629 0.71675003
-0.081998572 -0.069016673 0.71750003
-0.077908792 -0.067138419 0.71688896
-0.072838418 -0.067148261 0.71700001
-0.067319326 -0.06849321 0.71814287
-0.06286715 -0.068106517 0.71750009
-0.056651436 -0.067571431 0.7166667
-0.05176096 -0.067877151 0.71700007
-0.047837228 -0.06765914 0.71758336
-0.043824762 -0.066421911 0.71900004
-0.03766191 -0.065052383 0.71900004
-0.045687623 -0.064780958 0.71600002
-0.042337142 -0.06487143 0.71700001
-0.11361429 -0.075054288 0.72300005
-0.10879429 -0.075054288 0.72300005
-0.11612715 -0.072838575 0.72150004
-0.11249526 -0.072476573 0.72200006
-0.10758328 -0.072462864 0.72155559
-0.1034562 -0.072559059 0.72100008
-0.097859055 -0.072929256 0.72142869
-0.092248335 -0.072666667 0.72150016
-0.087529346 -0.072141528 0.72140008
-0.082489312 -0.072398305 0.72244447
-0.077338241 -0.071639739 0.72228587
-0.073045529 -0.071119815 0.7222001
-0.067780003 -0.07108058 0.72180009
-0.062960483 -0.071218096 0.72250009
-0.057151433 -0.070922866 0.72300005
-0.051778104 -0.071708575 0.72166675
-0.047265597 -0.072360836 0.72187507
-0.043130159 -0.071349211 0.72266674
-0.035117146 -0.070922859 0.72300005
-0.033051431 -0.070922859 0.72300005
-0.076800004 -0.069257148 0.72000003
-0.072685719 -0.069257148 0.72000003
-0.061028574 -0.069257148 0.72000003
-0.058061149 -0.069040574 0.72060007
-0.054171432 -0.069257148 0.72000003
-0.042303335 -0.068265051 0.72110003
-0.037157305 -0.068122387 0.72250003
-0.032998577 -0.068059534 0.72183341
-0.11594572 -0.081231438 0.72900003
-0.11546858 -0.077442393 0.72600007
-0.11270344 -0.077442482 0.72600001
-0.10761543 -0.077047817 0.72620004
-0.10244905 -0.076839224 0.72683334
-0.09737467 -0.077016391 0.72719997
-0.092612907 -0.076750055 0.72718185
-0.087703437 -0.076898858 0.7274
-0.082723409 -0.076004773 0.72642857
-0.077898197 -0.07665249 0.72770005
-0.072156191 -0.076319523 0.72850007
-0.06729953 -0.076319531 0.72850007
-0.062902294 -0.075954869 0.72900003
-0.057625722 -0.075677149 0.72900003
-0.052647304 -0.076196514 0.72733343
-0.046794016 -0.076871023 0.72714287
-0.042540859 -0.076770574 0.72750002
-0.037214078 -0.076510169 0.72811121
-0.03392667 -0.07616286 0.727
-0.02973143 -0.075365722 0.72600001
-0.080785722 -0.073880956 0.72500002
-0.077359296 -0.073906437 0.72525001
-0.072283819 -0.073389724 0.72560006
-0.067424089 -0.073347352 0.72557145
-0.061709531 -0.07311929 0.72600001
-0.057413977 -0.073326036 0.72633338
-0.053472575 -0.073369339 0.72540009
-0.042358577 -0.073437624 0.72516668
-0.03748814 -0.072653338 0.72527266
-0.033154048 -0.073215961 0.72525007
-0.11502858 -0.082960002 0.73200005
-0.11298826 -0.081371441 0.73233336
-0.10757953 -0.080335721 0.73350006
-0.1023124 -0.080818288 0.73280001
-0.097617738 -0.08088322 0.73212504
-0.093075626 -0.080796383 0.73260003
-0.088018581 -0.080335721 0.7335
-0.08248762 -0.080390483 0.73400003
-0.077788584 -0.080862097 0.73320001
-0.072700962 -0.080390483 0.73400003
-0.085631438 -0.078669526 0.73100001
-0.082846671 -0.078669533 0.73100007
-0.076580957 -0.078669526 0.73100001
-0.072403818 -0.078669526 0.73100001
-0.067530483 -0.078669533 0.73100007
-0.062383272 -0.078103542 0.73128575
-0.057464499 -0.078180149 0.73200005
-0.052749842 -0.07738477 0.73200005
-0.048452858 -0.077732384 0.73200005
-0.038290478 -0.078669533 0.73100007
-0.031457145 -0.077594295 0.73400009
-0.028660955 -0.077594288 0.73400003
-0.11237563 -0.08593525 0.7384001
-0.10909048 -0.085160956 0.73900002
-0.10064477 -0.085160956 0.73900002
-0.097829536 -0.085864767 0.73900002
-0.091495246 -0.086568579 0.73900002
-0.087272391 -0.085864767 0.73900002
-0.082345724 -0.085160956 0.73900002
-0.078122869 -0.085160956 0.73900002
-0.11191688 -0.083462194 0.73642862
-0.10731858 -0.082769051 0.73650014
-0.10287087 -0.083223626 0.73680007
-0.09723144 -0.084042862 0.73660004
-0.092295632 -0.083739817 0.73640007
-0.087838933 -0.083281077 0.73637503
-0.082768574 -0.082769051 0.73650002
-0.076707311 -0.083021596 0.73666668
-0.072361276 -0.082900964 0.73766673
-0.067208588 -0.082016893 0.73718184
-0.062497146 -0.08145874 0.73733342
-0.057604406 -0.081490837 0.737625
-0.053126674 -0.082050763 0.73814285
-0.049133338 -0.080719054 0.73700005
-0.030263811 -0.080938101 0.73900002
-0.027448574 -0.081290007 0.73900002
-0.024633335 -0.080938101 0.73900002
-0.052571431 -0.079207622 0.73600006
-0.03154286 -0.079207622 0.73600006
-0.027337145 -0.079207622 0.73600006
-0.024633335 -0.079530485 0.73900002
-0.11130048 -0.088334769 0.74200004
-0.10716797 -0.087007634 0.74163646
-0.1026256 -0.087083705 0.74187505
-0.097823933 -0.087937027 0.74162501
-0.093044132 -0.088570163 0.74200004
-0.08711715 -0.087823808 0.74166673
-0.082624286 -0.08756905 0.74150008
-0.077420704 -0.087831266 0.74209094
-0.072796941 -0.086934499 0.74211115
-0.067999817 -0.08581277 0.74220008
-0.061697863 -0.086448818 0.74250007
-0.057288215 -0.086817026 0.74262506
-0.052328575 -0.086271912 0.74250007
-0.047410481 -0.08632952 0.74300003
-0.044108257 -0.086093657 0.74300003
-0.026889525 -0.085621908 0.74300003
-0.069771431 -0.083866671 0.74000001
-0.062723815 -0.083866678 0.74000001
-0.057790481 -0.083866671 0.74000001
-0.050811432 -0.083275244 0.741
-0.04713786 -0.082802385 0.74150008
-0.042612989 -0.082592905 0.74236369
-0.037489664 -0.08235579 0.74271435
-0.032404765 -0.0824617 0.74144447
-0.027530288 -0.083438866 0.74120009
-0.02404286 -0.083443336 0.74250007
-0.034533337 -0.079638101 0.74000001
-0.1115113 -0.091792934 0.74714291
-0.10739376 -0.091748901 0.74677783
-0.10241886 -0.091751054 0.74680007
-0.097594425 -0.091299459 0.74642867
-0.092385188 -0.091572389 0.7470001
-0.087151252 -0.090848386 0.74640006
-0.082185626 -0.091430195 0.74650013
-0.07782992 -0.09177506 0.74700004
-0.072330348 -0.091251984 0.7477144
-0.067646034 -0.091144443 0.74766672
-0.062974989 -0.09197136 0.74754554
-0.05723381 -0.090645716 0.74650002
-0.052680958 -0.090411909 0.7475
-0.047707625 -0.09043207 0.74766672
-0.042727858 -0.090442151 0.74775004
-0.038468577 -0.090472385 0.74800003
-0.071727306 -0.088769853 0.74566674
-0.067192577 -0.088218108 0.74580008
-0.063545719 -0.088395253 0.74550009
-0.057471432 -0.088690482 0.74500006
-0.052539527 -0.088750012 0.74550009
-0.047538102 -0.088690482 0.74500006
-0.042031642 -0.08761324 0.74522227
-0.037665401 -0.087415673 0.74622232
-0.032787189 -0.087366939 0.74690914
-0.027737146 -0.087483443 0.74680007
-0.024393653 -0.086442553 0.74600005
-0.040442862 -0.08443334 0.74500006
-0.037604764 -0.08443334 0.74500006
-0.034057148 -0.08443334 0.74500006
-0.11086191 -0.095842868 0.75100005
-0.1077347 -0.095867768 0.75200003
-0.10246972 -0.095877722 0.75240004
-0.097168997 -0.095940419 0.75257146
-0.092511438 -0.095380008 0.75300002
-0.087611429 -0.095641531 0.75280005
-0.082217149 -0.095084451 0.75066674
-0.077323578 -0.095221676 0.75175005
-0.072366677 -0.095295571 0.7523334
-0.067501716 -0.095590867 0.75240004
-0.063740954 -0.095253341 0.75200003
-0.023665715 -0.09681429 0.75300002
-0.105 -0.093571432 0.75000006
-0.09714286 -0.093571432 0.75000006
-0.09222351 -0.093654618 0.75066674
-0.087710492 -0.093435429 0.75120008
-0.083571434 -0.093571432 0.75000006
-0.076428577 -0.093571439 0.75000012
-0.072205722 -0.093654618 0.75066674
-0.067857146 -0.093571439 0.75000012
-0.06071429 -0.092857152 0.75000006
-0.05742985 -0.092224769 0.75066674
-0.052294128 -0.0931262 0.75216669
-0.047556739 -0.093173072 0.75171435
-0.04262327 -0.092915528 0.75128573
-0.037097149 -0.092080012 0.75114292
-0.032227624 -0.091673031 0.75200003
-0.026940098 -0.092139721 0.75230008
-0.023644764 -0.092430167 0.7523334
-0.032142859 -0.089285724 0.75000006
-0.027380954 -0.089285724 0.75000012
-0.022161907 -0.088650808 0.7506668
-0.10178858 -0.10756382 0.75800002
-0.096735239 -0.10034477 0.75800002
-0.093847625 -0.10034477 0.75800002
-0.085906669 -0.10034477 0.75800002
-0.052595716 -0.1005062 0.75650001
-0.048240006 -0.10056001 0.75600004
-0.043920003 -0.10008001 0.75600004
-0.11016001 -0.09864001 0.75600004
-0.10709786 -0.098443575 0.75725007
-0.10252021 -0.098482862 0.75700009
-0.097952142 -0.098313108 0.75625002
-0.092818581 -0.097855732 0.75550002
-0.087753899 -0.098042332 0.75614291
-0.082800008 -0.097200006 0.75600004
-0.07724382 -0.097457156 0.75800008
-0.072623812 -0.097071432 0.75500005
-0.068309531 -0.097071432 0.75500005
-0.061200004 -0.095760003 0.75600004
-0.057459053 -0.095928892 0.7573334
-0.052591752 -0.097257577 0.75644445
-0.047470413 -0.097510152 0.75521445
-0.042485822 -0.097215779 0.75611115
-0.037464447 -0.097265884 0.75650012
-0.032424495 -0.096862592 0.75657147
-0.027338218 -0.096400358 0.75537503
-0.023009526 -0.095633343 0.75500005
-0.057523813 -0.094195247 0.75500005
-0.03667143 -0.094195247 0.75500005
-0.032357149 -0.094195247 0.75500005
-0.028761907 -0.094195247 0.75500005
-0.021571431 -0.092757158 0.75500005
-0.1064741 -0.105892 0.76260006
-0.10228223 -0.10590795 0.76166672
-0.097276911 -0.10598976 0.76225001
-0.093740009 -0.10536668 0.76300001
-0.10755309 -0.10241022 0.76163644
-0.10241401 -0.10198011 0.76050013
-0.097976752 -0.10252886 0.76042867
-0.092478864 -0.10248249 0.7610001
-0.087610908 -0.10260519 0.76166672
-0.082775138 -0.10179821 0.76166672
-0.077753335 -0.10173335 0.76300001
-0.072500236 -0.10150025 0.76125008
-0.067392804 -0.10217631 0.76088899
-0.062329531 -0.10146668 0.7610001
-0.057600241 -0.10107119 0.76075
-0.03619048 -0.10060953 0.76000005
-0.032585084 -0.10065366 0.76033342
-0.029027622 -0.10087429 0.76200002
-0.082122676 -0.098924577 0.7604
-0.077549532 -0.09929239 0.76100004
-0.072476193 -0.09929239 0.76100004
