# .PCD v0.7 - Point Cloud Data file format
VERSION 0.7
FIELDS x y z
SIZE 4 4 4
TYPE F F F
COUNT 1 1 1
WIDTH 1322
HEIGHT 1
VIEWPOINT 0 0 0 1 0 0 0
POINTS 1322
DATA ascii
-0.03735381 0.017788764 0.62260002
-0.032502864 0.017691432 0.62400007
-0.029120002 0.016045716 0.62400001
-0.05160762 0.023028571 0.61999995
-0.047299344 0.022469347 0.62081254
-0.042701669 0.022539409 0.62274998
-0.039303433 0.021730479 0.62340003
-0.056184359 0.02813592 0.62100005
-0.052405778 0.027235124 0.62241173
-0.047913652 0.026927304 0.62366676
-0.043977149 0.025554288 0.62400001
-0.070342228 0.032512385 0.62066674
-0.067395009 0.033994049 0.62075001
-0.062530309 0.032586928 0.622091
-0.057661247 0.031205047 0.62290007
-0.054080002 0.030308573 0.62400001
-0.066210002 0.036817148 0.62349999
-0.064380959 0.035855245 0.62400001
-0.076478422 0.0085863508 0.62900007
-0.072998241 0.0086434027 0.62900001
-0.067243099 0.0082369056 0.62900001
-0.062420763 0.0087460959 0.62900001
-0.057251841 0.0084722452 0.62900001
-0.052681357 0.0077818269 0.62858343
-0.047867231 0.0077773826 0.62825012
-0.042455498 0.0077721924 0.62786669
-0.037071753 0.0077728587 0.62783349
-0.032276116 0.0077696042 0.62758338
-0.027533812 0.0077806367 0.6285001
-0.022955026 0.0081838109 0.6287778
-0.018969841 0.0085863499 0.62900007
-0.011381906 0.0077876197 0.62900001
-0.077484652 0.012546139 0.62744457
-0.072902031 0.012106163 0.6265294
-0.067350529 0.011846366 0.62700003
-0.062395547 0.012412782 0.62710524
-0.057364848 0.011351667 0.62741673
-0.052691117 0.010935132 0.62633336
-0.047715008 0.011330715 0.62625003
-0.043086033 0.010919896 0.62544447
-0.0370708 0.011481841 0.62580001
-0.032317977 0.011987737 0.62550008
-0.027146166 0.01215367 0.62523526
-0.022662714 0.012523765 0.62625003
-0.01825989 0.012560506 0.62805885
-0.014976191 0.011381906 0.62900001
-0.076848105 0.016084287 0.62550002
-0.030357145 0.018452382 0.625
-0.027308004 0.018008826 0.6260668
-0.022807876 0.017794922 0.62693334
-0.018895378 0.01718599 0.62842864
-0.036891684 0.022914669 0.62546676
-0.032221965 0.022678038 0.62656248
-0.028132671 0.022147713 0.6285001
-0.024560954 0.020966668 0.62900001
-0.046428576 0.028571431 0.625
-0.04244405 0.027677385 0.62662506
-0.03755286 0.026432667 0.6279
-0.032947622 0.025759049 0.62900007
-0.06071429 0.033928573 0.625
-0.056675512 0.033324491 0.6264286
-0.052429527 0.032367181 0.62700009
-0.047984496 0.032020822 0.62757146
-0.043718576 0.031142384 0.62883335
-0.066539377 0.039526671 0.62566674
-0.06246246 0.037428871 0.62589473
-0.057445064 0.037101489 0.62831253
-0.053075623 0.035583433 0.62900001
-0.049720954 0.035343811 0.62900001
-0.066059694 0.042111114 0.62866664
-0.062511116 0.040988788 0.62777781
-0.058107622 0.040435717 0.62900001
-0.07245715 0.0042266669 0.634
-0.067590483 0.0038219052 0.63366669
-0.063249052 0.0034719049 0.634
-0.057772961 0.0039798096 0.63320005
-0.052608442 0.0038740139 0.63285714
-0.047039766 0.0042216671 0.63325
-0.041807212 0.0035337419 0.63357145
-0.037414405 0.0036203577 0.63362497
-0.033813335 0.0042266669 0.634
-0.026726671 0.0034152386 0.63300002
-0.022663144 0.0032540001 0.63289994
-0.018003494 0.0031177781 0.63366663
-0.011807076 0.0037053067 0.63342857
-0.006981906 0.0035337417 0.63357145
-0.0025008167 0.0037081637 0.63385719
0.0021133334 0.0034719049 0.634
-0.080655247 0.0084266672 0.63200003
-0.077375241 0.0070738099 0.63225001
-0.072054118 0.0065095243 0.63190913
-0.067249648 0.0061672619 0.63187498
-0.062516458 0.0065074465 0.63172728
-0.057933025 0.0062136506 0.63144445
-0.052363433 0.0054171435 0.63200003
-0.046984766 0.0054214289 0.63249999
-0.042150717 0.005419286 0.63225001
-0.037348576 0.0054214289 0.63249999
-0.032565478 0.0054278569 0.63325
-0.027678335 0.005415 0.63174999
-0.022588437 0.0059261224 0.63128579
-0.017163532 0.0069703641 0.63170588
-0.012064446 0.007173778 0.63126683
-0.0072187507 0.0072180354 0.63168758
-0.0024092265 0.0072319643 0.6328125
0.0019456086 0.0063735456 0.634
-0.081300646 0.010237779 0.6323334
-0.015504573 0.011898859 0.63100004
-0.012031369 0.012033511 0.63168752
-0.0072292862 0.012051547 0.63262498
-0.0034174602 0.011058731 0.63333338
-0.021033335 0.01983143 0.63100004
-0.016627474 0.017740881 0.63223076
-0.012448831 0.016289352 0.6334545
-0.0090571437 0.01509524 0.634
-0.026684446 0.023876511 0.63200009
-0.022946231 0.022762783 0.63276923
-0.019430477 0.022086097 0.6336
-0.040263813 0.029446669 0.63100004
-0.037009798 0.028938236 0.63114291
-0.032367252 0.028108649 0.63207692
-0.02834191 0.027356628 0.63318181
-0.024152383 0.025963811 0.634
-0.046273336 0.03425429 0.63100004
-0.042019125 0.032940146 0.6323846
-0.037525062 0.032146011 0.63315386
-0.032946672 0.031016383 0.63359994
-0.052377298 0.038115609 0.63215393
-0.047181576 0.037329588 0.63276476
-0.042741913 0.036926672 0.63372719
-0.067726672 0.043581147 0.63380003
-0.062354431 0.043433614 0.6321429
-0.057582226 0.042636197 0.63200003
-0.053707536 0.04185871 0.63363636
-0.047097147 0.040455241 0.634
-0.067195378 0.046148304 0.63400006
-0.063550957 0.04634238 0.634
-0.066999875 -0.0013035375 0.63871431
-0.062598392 -0.0019182417 0.63815391
-0.057814293 -0.0013040819 0.63900006
-0.052337147 -0.00060857146 0.63900006
-0.046555713 -0.00091285718 0.63900006
-0.042566672 -0.0012166668 0.63850003
-0.037874762 -0.001925873 0.63800007
-0.032519344 -0.0021063008 0.63869232
-0.02814433 -0.0017147189 0.63863641
-0.022384765 -0.0016034634 0.63836366
-0.017481714 -0.001337143 0.63740009
-0.011960106 -0.0014195767 0.63855559
-0.0072958744 -0.0018250797 0.63833338
-0.0022247622 -0.0010126985 0.63733339
0.0026884356 -0.0011284356 0.63742864
0.0074473601 -0.0017119478 0.63718194
0.010297144 -0.0012114287 0.63600004
-0.081426866 0.0032862858 0.63900006
-0.077597655 0.0025481274 0.63753349
-0.072866753 0.0018196034 0.63758337
-0.067818664 0.0015731432 0.63580012
-0.062081337 0.001333143 0.63660002
-0.057272702 0.0018201589 0.63750005
-0.051932193 0.0015758096 0.63700002
-0.04734429 0.0018190478 0.63733339
-0.042744875 0.0015471959 0.6361112
-0.037553333 0.0012104763 0.63600004
-0.032586806 0.0021646263 0.63700008
-0.028481623 0.0018162858 0.63630009
-0.023422224 0.0010088889 0.63600004
-0.016785121 0.0013608334 0.6351251
-0.012305292 0.0014115346 0.63544452
-0.0074601057 0.0015456086 0.63511115
-0.0023526985 0.001411323 0.63522226
0.0027233337 0.0013611907 0.63550013
0.0072626788 0.0024201791 0.63543755
0.010689525 0.0028228574 0.63533336
-0.08178667 0.0061973343 0.63800001
-0.078180008 0.005454286 0.63633341
0.0030247623 0.008382313 0.63514292
0.0072692265 0.0072693457 0.63593757
0.011111217 0.0074767205 0.63633335
-0.0018155238 0.012714763 0.63570017
0.0024306553 0.012150656 0.63781261
0.0068274075 0.011288783 0.63877779
0.011258572 0.010650001 0.63900006
-0.015723811 0.019957144 0.63500005
-0.011841226 0.018756328 0.63528579
-0.0072735385 0.01697558 0.63650006
-0.002887262 0.01596012 0.63837498
0.00060857146 0.015214287 0.63900006
-0.021771431 0.02479524 0.63500005
-0.017115314 0.023087621 0.63661546
-0.01235852 0.021544551 0.63822222
-0.0091285724 0.020082859 0.63900006
-0.026513526 0.028693337 0.63560009
-0.022373617 0.028015299 0.63700002
-0.018850952 0.026756668 0.63850003
-0.036890477 0.03447143 0.63500011
-0.03262563 0.033511519 0.63763642
-0.028197242 0.031966954 0.63810009
-0.023468575 0.031251431 0.63840002
-0.04125753 0.038596194 0.63520002
-0.037793882 0.037363403 0.6371429
-0.033115923 0.036419325 0.63885719
-0.071202859 0.044425718 0.63900006
-0.069547623 0.044147622 0.63500005
-0.051171541 0.042834185 0.63544452
-0.04747678 0.042624909 0.63723081
-0.043130483 0.041396875 0.6378572
-0.068069316 0.047910586 0.63500005
-0.061800011 0.048109911 0.63620013
-0.057550929 0.046796635 0.6370002
-0.053228814 0.045929287 0.63875008
-0.067522205 0.051636644 0.63784617
-0.06356255 0.05121715 0.6376667
-0.061142862 -0.0061142864 0.64200002
-0.05751786 -0.00612 0.64250004
-0.052985314 -0.006043266 0.64371437
-0.046000004 -0.0061333338 0.64400005
-0.043248005 -0.0057584769 0.64320004
-0.037917268 -0.0061163097 0.64212501
-0.03264815 -0.0061778831 0.6414445
-0.027228678 -0.0060439156 0.64166665
-0.022025358 -0.0061184526 0.64237505
-0.017236192 -0.0060378234 0.64314294
-0.011868191 -0.0057516196 0.64239997
-0.0077600013 -0.0059231753 0.64333338
-0.0024533337 -0.0061333338 0.64400005
0.0024533335 -0.0059288898 0.64400005
0.006492191 -0.0060038101 0.64320004
-0.076795056 -0.0020813337 0.64200014
-0.07238213 -0.0020253486 0.64200008
-0.068092391 -0.0025681907 0.64180005
-0.061000004 -0.0036604763 0.64050007
-0.05686032 -0.00332127 0.64044446
-0.052542232 -0.0030557141 0.6415
-0.047947302 -0.0029538102 0.6413334
-0.042725597 -0.0036625001 0.64087504
-0.037196431 -0.003963572 0.64025003
-0.034336515 -0.0038603179 0.64000005
-0.027231906 -0.0040646042 0.64016676
-0.02274218 -0.0037468034 0.64042866
-0.016817281 -0.0037470749 0.64042866
-0.012457687 -0.0037461228 0.64028579
-0.0073164292 -0.0042683338 0.64025009
-0.0025622861 -0.0032963813 0.64080012
0.0022387302 -0.0034609528 0.64111114
0.0069523812 -0.004025524 0.64040011
-0.083504766 0.0036571431 0.64000005
-0.084114291 0.0060952385 0.64000005
0.0079276199 0.01332871 0.64028579
0.012396278 0.012949699 0.64190912
-0.0054857144 0.018895239 0.64000005
-0.0019822619 0.018151548 0.640625
0.0024435378 0.017107075 0.64142859
0.0073493654 0.016535874 0.64300007
0.012240954 0.017137978 0.64262509
-0.016457144 0.024990479 0.64000005
-0.011340383 0.023291241 0.64020008
-0.0072035566 0.022102606 0.64106667
-0.0025698417 0.021915495 0.6427334
0.00061333337 0.020853335 0.64400005
0.012880001 0.020240001 0.64400005
-0.020114288 0.029866669 0.64000005
-0.016804129 0.027602702 0.64166677
-0.012241986 0.02632389 0.64275002
-0.0077641271 0.025542542 0.64366674
-0.0042933337 0.025146669 0.64400005
-0.02701262 0.034339286 0.64099997
-0.022269337 0.033161715 0.64240009
-0.018020192 0.031015242 0.64360005
-0.036628574 0.039680954 0.64100003
-0.032297235 0.038971175 0.64209098
-0.028045293 0.036741585 0.64177781
-0.045714289 0.04449524 0.64000005
-0.042243499 0.043600533 0.64077777
-0.037921432 0.042818338 0.64225006
-0.033706669 0.041981433 0.64350003
-0.056714606 0.049397148 0.64033341
-0.052221905 0.048152223 0.64133334
-0.04807175 0.047257148 0.64300007
-0.043296512 0.046361275 0.64333338
-0.039253339 0.046000004 0.64400005
-0.070204765 0.054332383 0.64100003
-0.067434862 0.05402077 0.64020008
-0.061623294 0.052860688 0.64063644
-0.057822496 0.052273918 0.64223087
-0.053099692 0.051262867 0.64333338
-0.070942223 0.056631114 0.64400005
-0.067129016 0.056785457 0.64236373
-0.062611178 0.056825023 0.64281821
-0.052457146 -0.010491429 0.648
-0.04073143 -0.010491429 0.648
-0.036658287 -0.010738286 0.648
-0.031628575 -0.011262858 0.648
-0.027765037 -0.011194424 0.64785713
-0.022217143 -0.011108573 0.648
-0.019131429 -0.010491429 0.648
-0.011725715 -0.010491429 0.648
-0.0074921092 -0.011018096 0.64785713
-0.0023802721 -0.011018096 0.64785713
0.0020929524 -0.011582287 0.64679998
-0.080720961 -0.0073952386 0.64700001
-0.077451006 -0.0068896115 0.64681816
-0.072696552 -0.0073950011 0.64687496
-0.067920074 -0.0071278242 0.64664286
-0.063278258 -0.0076023815 0.64716673
-0.057695791 -0.0085447626 0.64742863
-0.052805822 -0.0084252926 0.64722222
-0.048238233 -0.0075725182 0.64700001
-0.042380955 -0.0080093341 0.64679998
-0.037281483 -0.0085513229 0.64644444
-0.032041907 -0.0086271428 0.64700001
-0.027091669 -0.0086207148 0.64649999
-0.022148574 -0.0086142868 0.64600003
-0.017187303 -0.0084237047 0.64711112
-0.012484591 -0.0081197405 0.64663631
-0.0071381922 -0.0082463808 0.64609998
-0.0024619047 -0.0086138099 0.64599997
0.0024579999 -0.0082355244 0.64530003
0.005528572 -0.0079857148 0.64500004
-0.07555715 -0.0043000001 0.64500004
-0.073137783 -0.0043022223 0.64533341
-0.067571431 -0.0043000001 0.64500004
0.015357144 0.0129 0.6450001
0.0043000001 0.019042859 0.64500004
0.0073714294 0.019042859 0.64500004
0.015357144 0.015357144 0.64500004
-0.00061428576 0.023957144 0.64500004
0.0027277551 0.022340411 0.64642859
0.0071400013 0.021066535 0.64785713
0.011454287 0.021061147 0.64659995
-0.012285715 0.02887143 0.64500004
-0.007135334 0.027928477 0.64589995
-0.0025084983 0.026939563 0.64623082
0.001028254 0.025701273 0.64766669
-0.02027143 0.033785716 0.64500004
-0.016619144 0.032624479 0.64630002
-0.012558477 0.031151617 0.64639997
-0.0077731437 0.030477528 0.64780003
-0.0043200003 0.030240001 0.648
-0.026659368 0.038554609 0.64600009
-0.021986533 0.037204083 0.64642859
-0.018161589 0.036529843 0.64766663
-0.035014287 0.044842862 0.64500004
-0.031479307 0.043558624 0.64581823
-0.026996957 0.042037856 0.64720005
-0.022456763 0.041089337 0.64779997
-0.019131429 0.04073143 0.648
-0.046992861 0.049450003 0.64500004
-0.042347785 0.048912227 0.64599997
-0.03721007 0.047856875 0.6465714
-0.033017147 0.046594292 0.648
-0.028388573 0.045051433 0.648
-0.056309529 0.054261908 0.6450001
-0.052663624 0.053772576 0.64600003
-0.047849979 0.053068809 0.64658821
-0.043115683 0.052414004 0.64746147
-0.071236193 0.059329532 0.64666671
-0.067961529 0.059358478 0.64520001
-0.062345531 0.059395432 0.64560002
-0.058232531 0.057571281 0.64676923
-0.053457465 0.056542225 0.64766669
-0.048137147 0.056160003 0.648
-0.071869768 0.061382145 0.64775002
-0.067407884 0.062253952 0.64718181
-0.063199922 0.062379129 0.64741659
-0.075250484 -0.01554762 0.65300006
-0.065300003 -0.01554762 0.65300006
-0.062190481 -0.01554762 0.65300006
-0.040838417 -0.015962224 0.65300006
-0.036541909 -0.016786138 0.65277785
-0.032477759 -0.017127551 0.65221429
-0.027823282 -0.016501589 0.65244448
-0.022780318 -0.015946351 0.65233338
-0.017413335 -0.01554762 0.65300006
-0.011816191 -0.01554762 0.65300006
-0.0070482548 -0.015962224 0.65300012
-0.0019896196 -0.016783906 0.65270001
0.0010352382 -0.015946351 0.65233338
-0.085449725 -0.012064953 0.65300006
-0.082008772 -0.012307811 0.65266663
-0.077114612 -0.012543301 0.65193331
-0.072506607 -0.011968369 0.65150005
-0.066866353 -0.011386773 0.65211111
-0.062119052 -0.012425477 0.65224999
-0.057298712 -0.012153676 0.65192866
-0.052048709 -0.011262314 0.65171432
-0.046863891 -0.01189897 0.65174997
-0.042383954 -0.012681227 0.65171432
-0.037374727 -0.013135412 0.65109092
-0.032654766 -0.013464287 0.65000004
-0.02677873 -0.013286879 0.65055561
-0.02231143 -0.01363524 0.65075004
-0.017230857 -0.012521777 0.65080005
-0.012548647 -0.012837143 0.6513077
-0.0073726987 -0.013436615 0.65111113
-0.0025501589 -0.013434182 0.65100002
0.0018574605 -0.014245397 0.6503334
-0.086143814 -0.0088257147 0.65260005
-0.082586668 -0.0093142865 0.65200007
-0.07803072 -0.0092892861 0.65025002
-0.066272072 -0.0092904773 0.6503334
-0.061904769 -0.0092857145 0.65000004
-0.046428576 -0.0092857145 0.65000004
-0.043952383 -0.0092857145 0.65000004
0.0076449746 0.023208363 0.65077782
0.010952699 0.023354605 0.65100002
-0.0012380953 0.02909524 0.65000004
0.0026887301 0.027501907 0.65133339
0.0063382867 0.026220575 0.65240008
-0.011970954 0.033643655 0.65016675
-0.007272122 0.032983121 0.65118188
-0.002482286 0.031660002 0.6518001
0.001036508 0.030887937 0.65300006
-0.016187076 0.03777048 0.65014297
-0.012525144 0.037084769 0.65113336
-0.0087030958 0.036056906 0.65275007
-0.021883812 0.043562226 0.6503334
-0.017374685 0.042198814 0.65158331
-0.013881906 0.040817782 0.65266675
-0.031743929 0.048158932 0.65037507
-0.027418416 0.047285404 0.65183336
-0.022354286 0.045329526 0.65200001
-0.01927905 0.045399051 0.65300006
-0.040671434 0.053472068 0.6503334
-0.037038233 0.052370347 0.65128583
-0.032698099 0.05156165 0.65227276
-0.029229525 0.050374288 0.65300006
-0.055714287 0.058809526 0.65000004
-0.051814284 0.058369398 0.65100002
-0.046921272 0.058084659 0.65111113
-0.042178195 0.056446768 0.65130001
-0.0385281 0.05530715 0.65250003
-0.071190484 0.063761912 0.65000004
-0.069333337 0.063761912 0.65000004
-0.060380243 0.062857866 0.65025002
-0.056926675 0.062137723 0.65113342
-0.052379999 0.061421745 0.65263635
-0.048197623 0.060635716 0.65300006
-0.070971198 0.066623814 0.65224999
-0.067167357 0.067256473 0.65128583
-0.062088516 0.067058153 0.65193754
-0.058083601 0.066648461 0.65266669
-0.067165717 0.07027524 0.65300006
-0.063434288 0.07027524 0.65300006
-0.063293338 -0.020680001 0.65800011
-0.036973335 -0.020680001 0.65800011
-0.033213336 -0.021097779 0.65800011
-0.027573334 -0.020680001 0.65800005
-0.023813335 -0.020680001 0.65800005
-0.0062666675 -0.020680001 0.65800005
-0.0033388892 -0.021489365 0.65716672
-0.086480007 -0.01692 0.65800005
-0.082299232 -0.016893508 0.65690917
-0.077705786 -0.017645588 0.65693337
-0.072554775 -0.017515 0.65674996
-0.067675501 -0.017639048 0.65673333
-0.062468495 -0.018116906 0.65591675
-0.057504468 -0.017503036 0.65631247
-0.05247163 -0.017408255 0.65746665
-0.047559582 -0.017523037 0.65706247
-0.042820811 -0.017831212 0.65600008
-0.038425714 -0.018277144 0.65528578
-0.031285714 -0.019397143 0.65700001
-0.026871432 -0.018658642 0.65614295
-0.022251524 -0.018377621 0.65630007
-0.017583549 -0.018040346 0.65727282
-0.012598368 -0.017782589 0.65671432
-0.0077461908 -0.018366192 0.65590012
-0.0033269846 -0.018506352 0.65500003
-0.090590484 -0.010620954 0.65600002
-0.088024929 -0.011653493 0.65550005
-0.08296667 -0.01434762 0.65500003
-0.070978105 -0.013945716 0.65566671
-0.067728035 -0.013831158 0.65585726
-0.056142859 -0.01434762 0.65500003
-0.052409649 -0.013726547 0.65512508
-0.048364051 -0.014041192 0.65525001
-0.089204766 -0.0093571432 0.65500003
0.013135239 0.024390478 0.6566667
0.004366667 0.02931905 0.65500003
0.0080046756 0.027985804 0.65563649
0.012340886 0.027272996 0.65721434
-0.0021211428 0.034070477 0.6552
0.0028372165 0.032841027 0.65630776
0.0071122078 0.03191654 0.65709096
0.010653334 0.030706668 0.65800005
-0.010604762 0.039300002 0.65500003
-0.0070763491 0.037883814 0.65566677
-0.0025035122 0.037562083 0.65731245
0.001409881 0.037123214 0.65787506
-0.015595239 0.043666668 0.65500003
-0.012298889 0.042736989 0.65666676
-0.0079333335 0.041130483 0.65766674
-0.0043866672 0.040733337 0.65800005
-0.025595717 0.048694767 0.65550005
-0.022496192 0.048120163 0.65616679
-0.018143069 0.047339264 0.6568889
-0.013775716 0.045711905 0.65750003
-0.031592764 0.05382172 0.65560001
-0.027523812 0.052235242 0.65683341
-0.022546787 0.051357746 0.65762508
-0.019426668 0.050760005 0.65800005
-0.042108193 0.059102859 0.65600008
-0.037335444 0.057791781 0.6565001
-0.032507259 0.057166889 0.65738469
-0.052087814 0.064080954 0.65580004
-0.047337838 0.06291014 0.65636373
-0.043197982 0.061668694 0.65737504
-0.039480001 0.06141334 0.65800005
-0.056280684 0.068055384 0.65557146
-0.053175665 0.066801913 0.65688896
-0.049506672 0.065800004 0.65800005
-0.067262866 0.073150866 0.65760005
-0.062399667 0.072860494 0.65707147
-0.058165584 0.07139089 0.65671432
-0.067680001 0.075826675 0.65800005
-0.063293338 0.075826675 0.65800011
-0.022100002 -0.025888573 0.66300005
-0.017680001 -0.025888573 0.66300005
-0.010734286 -0.025888573 0.66300005
-0.0070587886 -0.027259137 0.66281825
-0.0037828579 -0.027110478 0.66200012
-0.080972545 -0.021663018 0.66250008
-0.076887093 -0.021657674 0.66233343
-0.072504133 -0.021436511 0.66200006
-0.067421332 -0.022443593 0.66161549
-0.062684454 -0.022996828 0.6615001
-0.058139794 -0.022411909 0.6615001
-0.05284458 -0.022576891 0.66213346
-0.047927778 -0.022073334 0.66216677
-0.042851277 -0.022056988 0.66166675
-0.037994392 -0.022461483 0.66122228
-0.032178573 -0.021873495 0.66250008
-0.027561733 -0.023208141 0.66181827
-0.022478778 -0.022929257 0.6608572
-0.017616311 -0.022651194 0.66062498
-0.012600775 -0.02268387 0.66156262
-0.0077344221 -0.02293388 0.66100007
-0.0039831749 -0.02410762 0.6603334
-0.090226196 -0.018929049 0.66250002
-0.086828448 -0.018844493 0.66271436
-0.082888573 -0.019095559 0.66100007
-0.054685719 -0.019485716 0.66000003
-0.01697143 -0.019485716 0.66000003
0.013828572 0.02954286 0.66000003
0.015714286 0.02954286 0.66000003
0.0084281908 0.034089528 0.66040003
0.012727175 0.03288959 0.66153347
0.015714286 0.030800002 0.66000003
0.0036157144 0.038200714 0.66025001
0.0072222715 0.037464034 0.66153854
0.012470715 0.036780715 0.66300005
-0.010685715 0.044628575 0.66000003
-0.0072960006 0.043649908 0.66040009
-0.0023928892 0.042957086 0.66133332
0.0017512169 0.042221908 0.66166669
-0.016354766 0.048437309 0.66050005
-0.012609365 0.047917627 0.66200012
-0.0080432147 0.046840124 0.66237509
-0.0025257145 0.046094287 0.66300005
-0.027028574 0.054685723 0.66000003
-0.022653811 0.054119293 0.66075009
-0.017642792 0.052932587 0.66164297
-0.014522858 0.051145718 0.66300005
-0.032895241 0.059714295 0.66000003
-0.027703097 0.05792845 0.66112506
-0.022959145 0.057147529 0.66230011
-0.018942859 0.056197148 0.66300005
-0.045885716 0.064742863 0.66000003
-0.042169645 0.063885361 0.66087508
-0.0374896 0.063113406 0.66078585
-0.032906756 0.062209439 0.66100007
-0.029241271 0.061638735 0.66266674
-0.052047756 0.068948708 0.66071439
-0.047864087 0.068019196 0.66128576
-0.04287675 0.067469932 0.66208345
-0.038803335 0.066565722 0.66250002
-0.034728575 0.065037146 0.66300005
-0.05758395 0.073574983 0.66028577
-0.053196512 0.072121382 0.66233337
-0.047609717 0.071098857 0.66300005
-0.043821145 0.070593715 0.66300005
-0.067135513 0.077741504 0.66057146
-0.062710479 0.077812493 0.66066664
-0.058207449 0.076903738 0.66236371
-0.054934289 0.075140007 0.66300005
-0.066867501 0.081062503 0.66237509
-0.062791072 0.080935366 0.66262507
-0.023574289 -0.031220002 0.66900003
-0.018477144 -0.031220002 0.66900003
-0.01083143 -0.031220002 0.66900003
-0.0082723815 -0.031491905 0.6680001
-0.09620858 -0.026122859 0.66900003
-0.092810482 -0.026122859 0.66900003
-0.087925717 -0.026122859 0.66900003
-0.082828581 -0.026122859 0.66900003
-0.078368574 -0.026122859 0.66900003
-0.072717905 -0.026362097 0.66860002
-0.067336664 -0.026680954 0.667
-0.062063295 -0.027194377 0.66681826
-0.057178658 -0.027321037 0.66708338
-0.051553808 -0.02681048 0.66625005
-0.046886154 -0.027230911 0.66772729
-0.041938577 -0.027961303 0.66721421
-0.037410695 -0.027827842 0.66753852
-0.032930989 -0.027848063 0.6675334
-0.027976437 -0.027979169 0.66762489
-0.023030112 -0.028412091 0.66746157
-0.017814128 -0.028630164 0.6680001
-0.012816256 -0.028043052 0.6661334
-0.0087428577 -0.029015621 0.6652
-0.096405916 -0.022542289 0.66860008
-0.092823766 -0.022772323 0.66786659
-0.087679408 -0.022874525 0.66712493
-0.083141148 -0.023483621 0.66640002
-0.07772205 -0.024271702 0.66814297
-0.072607867 -0.024202622 0.66875011
-0.069189057 -0.02412143 0.66650003
-0.056366675 -0.024700001 0.66500008
-0.050033338 -0.024700001 0.66500002
-0.047500007 -0.024700001 0.66500008
-0.043066666 -0.024700001 0.66500002
-0.038027622 -0.024718571 0.66550004
-0.033233065 -0.024178369 0.66557145
-0.029811431 -0.024737144 0.66600001
-0.095920958 -0.019692382 0.66700006
-0.092675716 -0.01967762 0.66650003
-0.089300007 -0.019633334 0.66500002
0.0090866676 0.039517783 0.6656667
0.01178 0.039393332 0.66500002
0.003804524 0.043115959 0.66575003
0.0074530747 0.042458277 0.66718179
0.012076722 0.042591434 0.66744447
-0.0066521433 0.048468336 0.66525006
-0.0025361907 0.048224531 0.66624999
0.0021217463 0.046006512 0.66783333
0.0057342863 0.045237146 0.66900003
-0.012336631 0.052323889 0.66561538
-0.0077513023 0.051984958 0.66726673
-0.0040307944 0.05070889 0.66833341
-0.021533335 0.058900002 0.66500002
-0.01753143 0.057680577 0.667
-0.013042382 0.056145005 0.6680001
-0.0095571438 0.055431433 0.66900003
-0.031033335 0.063966669 0.66500002
-0.027433017 0.063119583 0.66644442
-0.023069119 0.062036738 0.66757149
-0.019326668 0.060953341 0.66900003
-0.037292492 0.068456091 0.66622221
-0.032922566 0.067268059 0.66776931
-0.028398668 0.06584134 0.66860008
-0.051568385 0.073868953 0.66520005
-0.046927504 0.073563933 0.66587502
-0.041900005 0.072629347 0.66659999
-0.037754446 0.070847154 0.66816676
-0.033768572 0.070722863 0.66900003
-0.056000002 0.078401282 0.6656667
-0.052063875 0.077464469 0.66668749
-0.047269665 0.07736069 0.66814291
-0.043962859 0.075820006 0.66900003
-0.066524997 0.083631672 0.66525
-0.061830364 0.08307679 0.66587502
-0.057511624 0.081815638 0.66800004
-0.052882861 0.08091715 0.66900003
-0.066064768 0.085757151 0.66700006
-0.064159051 0.085757151 0.66700006
-0.025034288 -0.035304762 0.67400002
-0.022466671 -0.035304762 0.67400002
-0.01989905 -0.035304762 0.67400002
-0.10206287 -0.030169528 0.67400002
-0.097803004 -0.030706944 0.6737144
-0.092332147 -0.03077786 0.67324996
-0.087040752 -0.031244762 0.67255557
-0.082277067 -0.031270474 0.67254543
-0.077696003 -0.031233525 0.67200005
-0.072795071 -0.031481128 0.67209089
-0.067745209 -0.031889211 0.6723333
-0.062842071 -0.031689525 0.67216671
-0.058033343 -0.031132383 0.67259997
-0.052067265 -0.03092155 0.67287499
-0.047587965 -0.032032859 0.67264289
-0.042032067 -0.032220215 0.67211109
-0.036950395 -0.032529615 0.67209089
-0.032364193 -0.032750666 0.67160004
-0.027704131 -0.032610159 0.67133343
-0.022525955 -0.032911904 0.67100006
-0.017846582 -0.0327316 0.67145461
-0.012789287 -0.032297384 0.67150003
-0.0096142869 -0.033330478 0.67300004
-0.10137267 -0.02769728 0.67185718
-0.097462952 -0.027755907 0.67150003
-0.092519894 -0.027963931 0.67112499
-0.087839596 -0.028003404 0.67042863
-0.082998455 -0.028092261 0.67037505
-0.077699371 -0.027887089 0.67055559
-0.072942741 -0.02841131 0.67037499
-0.067638099 -0.028714288 0.67000002
-0.063809529 -0.029352382 0.67000002
-0.056790482 -0.029990477 0.67000002
-0.053280957 -0.028395239 0.67000002
-0.047219053 -0.029352382 0.67000002
-0.044028573 -0.029990477 0.67000002
-0.038923811 -0.029990477 0.67000002
-0.10127048 -0.02435524 0.67299998
-0.098463275 -0.023269255 0.67071432
-0.093800008 -0.024885716 0.67000002
0.0095714293 0.044028573 0.67000002
0.0030528042 0.048197355 0.6707778
0.0076740142 0.047322188 0.67142862
0.012410573 0.046701431 0.67170006
-0.0057428577 0.0542381 0.67000002
-0.0022122348 0.052772239 0.67130774
0.0017814814 0.051900845 0.67277783
0.0057771434 0.050710481 0.67400002
-0.015952382 0.059342861 0.67000002
-0.012449168 0.058578216 0.67037505
-0.0078226384 0.057520222 0.67161542
-0.0029933336 0.056246035 0.67366666
0.00064190483 0.055845719 0.67400002
-0.021695239 0.064447626 0.67000002
-0.017736886 0.062753163 0.67172736
-0.013309048 0.0617381 0.67349994
-0.031266667 0.069552384 0.67000002
-0.027909437 0.068411089 0.67018187
-0.023228781 0.067588918 0.67221427
-0.019023493 0.066478729 0.67333335
-0.0408381 0.07465715 0.67000002
-0.03713556 0.073349312 0.67100006
-0.03178589 0.072349526 0.67118186
-0.027395347 0.072226889 0.67244446
-0.024960002 0.071040004 0.67200005
-0.045942858 0.079761907 0.67000002
-0.042046845 0.077526331 0.67172736
-0.037124936 0.076759756 0.67318171
-0.032993909 0.075616397 0.67400002
-0.043585718 0.080119058 0.67300004
-0.041386671 -0.040740002 0.67900002
-0.017460003 -0.040740006 0.67900008
-0.013580002 -0.041257333 0.67900002
-0.082773343 -0.035566669 0.67900002
-0.07760001 -0.035566669 0.67900002
-0.072059736 -0.036075789 0.67814285
-0.067422092 -0.036742862 0.67680001
-0.062551789 -0.035953216 0.67712504
-0.057510953 -0.03618715 0.67850006
-0.052890245 -0.03612119 0.67725003
-0.047629654 -0.037306737 0.67766672
-0.042598277 -0.037436724 0.67768759
-0.037431072 -0.037433691 0.677625
-0.032340478 -0.037134632 0.67721438
-0.027264083 -0.037399322 0.67699999
-0.022112034 -0.038185984 0.67745453
-0.017600589 -0.037336856 0.67676938
-0.012894823 -0.037394945 0.67693758
-0.10146683 -0.032893177 0.6771667
-0.097214498 -0.033314604 0.67700005
-0.092539057 -0.03328127 0.67633337
-0.088181436 -0.033769049 0.67750001
-0.082964011 -0.033935431 0.67740005
-0.077372387 -0.034172386 0.67700005
-0.072027385 -0.034084052 0.67524999
-0.061803814 -0.034121908 0.67600006
-0.057666674 -0.03338667 0.67600006
-0.053216666 -0.033280242 0.67525005
-0.046928573 -0.034071431 0.67500001
-0.043071434 -0.034071431 0.67500007
-0.039214287 -0.034071431 0.67500001
-0.013500001 -0.034071431 0.67500007
-0.10140763 -0.022082543 0.67533338
0.0096428581 0.049500003 0.67500001
0.012857144 0.049178574 0.67500001
0.0035832659 0.053563956 0.67528576
0.0078629851 0.052975625 0.67666674
0.012256827 0.052898102 0.67733335
-0.0057857148 0.059142862 0.67500001
-0.0025725001 0.058532741 0.6753751
0.0027587882 0.057556372 0.67763644
0.0073274607 0.056677312 0.67883337
0.012286668 0.056583337 0.67900002
-0.016714286 0.064928576 0.67500001
-0.012474666 0.063661717 0.67520005
-0.0080003804 0.0623402 0.67760009
-0.0029725716 0.061121147 0.67840004
0.0019400002 0.060140006 0.67900008
-0.01767852 0.067931645 0.67644447
-0.012963003 0.066999644 0.67792308
-0.0092641274 0.065712385 0.67866677
-0.02573286 0.073983341 0.67550004
-0.022053702 0.072314516 0.67653859
-0.018289048 0.071011916 0.67783332
-0.021171428 -0.046577144 0.68400002
-0.018439367 -0.046640642 0.6833334
-0.090982869 -0.04147429 0.68400002
-0.086957976 -0.041572656 0.68357146
-0.082446299 -0.041288577 0.68380004
-0.077520005 -0.041040003 0.68400002
-0.072569147 -0.041300576 0.68400002
-0.067531437 -0.04147429 0.68400002
-0.062232118 -0.041581228 0.68371433
-0.057580691 -0.041581228 0.68371433
-0.051412702 -0.042157464 0.6833334
-0.047444366 -0.042897858 0.68241668
-0.043242276 -0.043045349 0.68238473
-0.037564572 -0.042766605 0.68239999
-0.032497205 -0.042898752 0.68243754
-0.027289527 -0.042887144 0.68225008
-0.022091905 -0.042887144 0.68225002
-0.017532488 -0.043504763 0.68177783
-0.014463494 -0.043390479 0.68000001
-0.10748572 -0.035828575 0.68400002
-0.10230318 -0.036800746 0.68322229
-0.0974527 -0.037034452 0.6821667
-0.092156462 -0.037567109 0.68240005
-0.087324031 -0.037864018 0.68207151
-0.082422175 -0.038293339 0.68145454
-0.077754728 -0.038200956 0.68190914
-0.072904237 -0.038724765 0.68144447
-0.067201532 -0.039385147 0.68240005
-0.06215873 -0.038768683 0.68222225
-0.057169646 -0.038979173 0.68212503
-0.052218508 -0.039048713 0.68171436
-0.031733334 -0.039504763 0.68000001
-0.026552383 -0.039504763 0.68000001
-0.10392572 -0.034424763 0.68200004
-0.092609532 -0.034323812 0.68000001
0.0082031749 0.058501594 0.68000001
0.012587048 0.058778293 0.68120009
-0.0064761909 0.064114287 0.68000001
-0.0020899475 0.063231744 0.68133336
0.0025419916 0.062616445 0.68290919
0.0071522458 0.061213478 0.68271434
0.011725715 0.060582861 0.68400002
-0.011657143 0.069295242 0.68000001
-0.0074412464 0.0678792 0.68176925
-0.0032526669 0.067029431 0.68330002
-0.09173429 -0.045211431 0.68800002
-0.087929524 -0.045277145 0.68900001
-0.082680002 -0.045277145 0.68900001
-0.077318102 -0.045211431 0.68800002
-0.072076194 -0.045867622 0.68800008
-0.067188196 -0.045710098 0.68760008
-0.062608585 -0.045764495 0.68785727
-0.057954974 -0.04578327 0.68814296
-0.052196957 -0.045656387 0.68680006
-0.046693653 -0.046914291 0.68733335
-0.042113811 -0.047031425 0.68825006
-0.037968218 -0.046808448 0.68737507
-0.03269048 -0.047074769 0.68650007
-0.027480241 -0.047109053 0.68700004
-0.022538777 -0.048168439 0.68742865
-0.10761525 -0.04068381 0.68900001
-0.10237657 -0.041554477 0.68820012
-0.097193658 -0.042591963 0.68800002
-0.093134299 -0.042645715 0.68624997
-0.087989725 -0.043537524 0.68640006
-0.082193062 -0.043295108 0.68728578
-0.077135608 -0.043143932 0.68637502
-0.072802864 -0.043263432 0.68620008
-0.068180799 -0.043348417 0.6861667
-0.063112006 -0.043512002 0.68600005
-0.057101339 -0.043512005 0.68600005
-0.053246669 -0.043446671 0.68600005
-0.11133366 -0.038277782 0.68900001
-0.10715564 -0.03793548 0.68675005
-0.10237145 -0.03961524 0.68640006
-0.097346678 -0.039853334 0.68600005
-0.094733343 -0.039853334 0.68600005
0.00392 0.064680003 0.68600005
0.0081800008 0.06362953 0.68700004
0.012437619 0.061549053 0.6875
0.015026668 0.060760003 0.68600005
-0.07303524 -0.051223814 0.69400001
-0.060807623 -0.050893337 0.69400001
-0.057502862 -0.050893337 0.69400001
-0.050893337 -0.050893337 0.69400001
-0.047178861 -0.05114305 0.69380003
-0.042053547 -0.051742014 0.69355553
-0.037173763 -0.052133124 0.69288892
-0.032776363 -0.051953685 0.69209093
-0.027628236 -0.052524425 0.69307154
-0.022563303 -0.05227612 0.69207698
-0.11104001 -0.045605719 0.69400001
-0.10735757 -0.0463611 0.69400001
-0.10253857 -0.046399049 0.69350004
-0.097586989 -0.046816833 0.6923334
-0.092409961 -0.047614809 0.69172734
-0.087507315 -0.047966141 0.69200003
-0.082714297 -0.046879794 0.69111109
-0.077526055 -0.047955155 0.69145459
-0.07246834 -0.048753336 0.69174999
-0.067193627 -0.048355337 0.69169998
-0.062245034 -0.048875514 0.6921429
-0.057510838 -0.048450362 0.69212496
-0.053025629 -0.048411142 0.69250005
-0.047891118 -0.048990481 0.69200009
-0.042118099 -0.049357146 0.69100004
-0.037475243 -0.049309529 0.69033337
-0.032857142 -0.049285717 0.69000006
-0.027609764 -0.049303576 0.69025004
-0.024314288 -0.049285717 0.69000006
-0.11170667 -0.042470098 0.6924001
-0.10785942 -0.042981554 0.69162506
-0.10257049 -0.043529119 0.6910001
-0.099228576 -0.044028573 0.69000006
-0.076447628 -0.055175241 0.69800007
-0.072459057 -0.055175241 0.69800007
-0.068470478 -0.055175241 0.69800001
-0.061822861 -0.055175241 0.69800001
-0.055175241 -0.055175241 0.69800001
-0.052516192 -0.055175241 0.69800007
-0.047828577 -0.055800475 0.69749999
-0.042725511 -0.056893971 0.69733334
-0.037466127 -0.057005178 0.6971429
-0.032557782 -0.056477785 0.69766665
-0.02734614 -0.057421274 0.69655561
-0.02321524 -0.057707302 0.69644445
-0.11168001 -0.05118667 0.69800001
-0.10968572 -0.05118667 0.69800001
-0.10215175 -0.051186673 0.69800007
-0.096939854 -0.051790006 0.69716668
-0.092481151 -0.052280195 0.69660008
-0.087875336 -0.052169051 0.69690007
-0.082059532 -0.052183907 0.69710004
-0.077300489 -0.052507337 0.69610006
-0.072396062 -0.052712794 0.6955716
-0.067618974 -0.052373737 0.69608349
-0.062610291 -0.052662481 0.69640011
-0.057360277 -0.053189669 0.69685721
-0.05299753 -0.052336764 0.69560009
-0.047940817 -0.053046945 0.69500011
-0.042361908 -0.054276198 0.69500011
-0.03746381 -0.05467334 0.69500011
-0.032433338 -0.0549381 0.69500005
-0.028461907 -0.0549381 0.69500005
-0.021842858 -0.0549381 0.69500005
-0.11583334 -0.046995241 0.69500005
-0.11267438 -0.047853559 0.69561553
-0.10738286 -0.04905238 0.6960001
-0.10303714 -0.049199052 0.69620007
-0.09796191 -0.049642861 0.69500005
-0.092666671 -0.049642861 0.69500005
-0.08604762 -0.049642861 0.69500005
-0.082196198 -0.04971429 0.69600004
-0.11450953 -0.044347622 0.69500005
-0.065036193 -0.061013337 0.70400006
-0.062354289 -0.061013337 0.70400012
-0.057437465 -0.061460324 0.70400012
-0.052250836 -0.061629411 0.70337504
-0.047503337 -0.06155318 0.70250005
-0.042803332 -0.061531674 0.70225
-0.03747274 -0.061564412 0.70262504
-0.032109644 -0.061542269 0.70237499
-0.027550241 -0.061945722 0.70125008
-0.024222225 -0.061111115 0.70000005
-0.11196953 -0.055649526 0.70400006
-0.10660573 -0.05564953 0.70400012
-0.10258286 -0.05564953 0.70400012
-0.097724386 -0.056626666 0.70280004
-0.092288196 -0.056847055 0.70220011
-0.087582171 -0.056709442 0.70200008
-0.082335643 -0.057158969 0.70191669
-0.077717446 -0.057968877 0.70207703
-0.072215013 -0.057840716 0.70208347
-0.06737005 -0.057651956 0.70163649
-0.062812388 -0.057561964 0.70113337
-0.05757048 -0.057572637 0.70126677
-0.052229874 -0.058174986 0.70063639
-0.047355875 -0.058694925 0.70033336
-0.04266667 -0.059333336 0.70000005
-0.036976006 -0.059134483 0.7008
-0.032690004 -0.058709051 0.70050001
-0.029555557 -0.058888894 0.70000005
-0.11680873 -0.05186259 0.70200008
-0.11252476 -0.053255983 0.70188892
-0.10731106 -0.052922864 0.70160002
-0.10268334 -0.053095721 0.70125008
-0.09776172 -0.053748764 0.70020002
-0.086666673 -0.054000005 0.70000005
-0.084000006 -0.054000005 0.70000005
-0.11683334 -0.048736192 0.70100003
-0.060685717 -0.065405719 0.708
-0.057314292 -0.065405719 0.70800006
-0.052862044 -0.065957285 0.70771438
-0.047321334 -0.065656953 0.70780003
-0.042480003 -0.065405719 0.708
-0.037355434 -0.065675437 0.708
-0.03220848 -0.066438004 0.70749998
-0.02839086 -0.066335998 0.70640004
-0.11287544 -0.06082058 0.708
-0.10750967 -0.061888441 0.70742857
-0.10241906 -0.061990958 0.70749998
-0.097702384 -0.061990958 0.70749998
-0.093456194 -0.061780326 0.70766664
-0.087315522 -0.061900828 0.70757145
-0.08201915 -0.062432706 0.7065556
-0.077691846 -0.061751436 0.70585716
-0.072693333 -0.061925482 0.70675004
-0.067249648 -0.062207509 0.70612502
-0.06257572 -0.063250013 0.70649999
-0.058075875 -0.063458733 0.70633334
-0.052445717 -0.063876197 0.70600003
-0.04771778 -0.063846037 0.70566672
-0.043030478 -0.063876197 0.70600003
-0.037706669 -0.063966669 0.70700002
-0.032252859 -0.063830957 0.70550001
-0.11679648 -0.057099055 0.70771438
-0.11242229 -0.057422485 0.70599997
-0.1076074 -0.058220737 0.70515388
-0.10248878 -0.058565527 0.70520002
-0.097680964 -0.059253909 0.70539999
-0.093216576 -0.059590291 0.70620006
-0.086933531 -0.05952248 0.70540011
-0.083928578 -0.059757147 0.70500004
-0.070500001 -0.059757147 0.70500004
-0.12052667 -0.054540005 0.70700002
-0.11750001 -0.054385718 0.7050001
-0.093160003 -0.070040002 0.71400005
-0.076160006 -0.070040002 0.71400005
-0.073440008 -0.070040002 0.71400005
-0.062560007 -0.070040002 0.71400005
-0.051000003 -0.070040002 0.71400005
-0.046920002 -0.071740001 0.71400005
-0.042145718 -0.072055005 0.71375012
-0.037171789 -0.072477035 0.71287501
-0.033071645 -0.072245196 0.71188891
-0.11628 -0.065960005 0.71400005
-0.11424001 -0.065960005 0.71400005
-0.10172604 -0.066382542 0.71366668
-0.097862951 -0.06728135 0.71358347
-0.092278957 -0.067001618 0.71350014
-0.08748699 -0.067257777 0.71333343
-0.082727619 -0.066454291 0.71200013
-0.077419922 -0.067234844 0.71308339
-0.072386488 -0.067363046 0.71300012
-0.067642428 -0.06702701 0.71218187
-0.062559716 -0.067299344 0.71090001
-0.057261638 -0.067920968 0.71214288
-0.051821195 -0.068077393 0.71125001
-0.047368836 -0.068560183 0.71145457
-0.042440355 -0.068314113 0.71145469
-0.037914574 -0.06838277 0.71090001
-0.032690637 -0.069213174 0.71016669
-0.1216743 -0.062365003 0.71175003
-0.11772077 -0.062181082 0.71120006
-0.11250417 -0.063708924 0.71162504
-0.10736572 -0.064554766 0.71350008
-0.10234573 -0.064388894 0.7116667
-0.097508579 -0.064328574 0.71100003
-0.092048258 -0.063847624 0.71066666
-0.087996908 -0.063967854 0.71075004
-0.083847627 -0.064238101 0.71000004
-0.077085719 -0.064238101 0.71000004
-0.072420955 -0.064298421 0.71066666
-0.06829524 -0.064238101 0.71000004
-0.12154636 -0.058405399 0.71033335
-0.11900953 -0.058152385 0.71000004
-0.052041911 -0.076008573 0.71900004
-0.047410481 -0.076359369 0.71800011
-0.042395242 -0.075902864 0.71800005
-0.037557147 -0.075797155 0.71700001
-0.034825716 -0.075797148 0.71700001
-0.12120286 -0.070530482 0.71900004
-0.11777906 -0.070530482 0.71900004
-0.11230096 -0.070530482 0.71900004
-0.10750762 -0.070872866 0.71900004
-0.10264429 -0.070481434 0.71850008
-0.097740643 -0.070399694 0.71766675
-0.092640959 -0.0703343 0.71700001
-0.087092772 -0.070686676 0.71780008
-0.082007766 -0.071452662 0.71842867
-0.077742025 -0.071934894 0.71762502
-0.072341599 -0.071886785 0.71733332
-0.067634292 -0.071735248 0.71733338
-0.062779047 -0.072332859 0.71650004
-0.057239499 -0.072268583 0.71720004
-0.052717671 -0.072589532 0.71718186
-0.048091434 -0.073501199 0.71625006
-0.042278096 -0.074327625 0.71600002
-0.038868573 -0.074327625 0.71600002
-0.12225322 -0.067538932 0.71812505
-0.11765907 -0.067838676 0.71660006
-0.11228456 -0.06794975 0.71744448
-0.10775975 -0.067514375 0.71736366
-0.10356763 -0.068058424 0.71700001
-0.093420953 -0.068872385 0.71600002
-0.086601913 -0.068872385 0.71600002
-0.082510486 -0.068872385 0.71600002
-0.12359715 -0.06487143 0.71700001
-0.03718286 -0.08056286 0.72300005
-0.12050001 -0.075054288 0.72300005
-0.11154857 -0.075054288 0.72300005
-0.10741715 -0.075054288 0.72300005
-0.091809534 -0.075513333 0.72300005
-0.087448582 -0.075742856 0.72300005
-0.082193151 -0.076685719 0.72280008
-0.076961145 -0.076961152 0.72280008
-0.072635792 -0.076961234 0.72242868
-0.067433335 -0.077067144 0.72250009
-0.062573344 -0.077013344 0.72200006
-0.057680003 -0.076907627 0.72100008
-0.05286368 -0.077775516 0.72085726
-0.048685718 -0.077485718 0.72000003
-0.042153656 -0.078124136 0.72166675
-0.03714405 -0.078416437 0.7222501
-0.12652458 -0.072004966 0.72280008
-0.12313253 -0.072229668 0.72228581
-0.11775684 -0.072625719 0.72166675
-0.11273191 -0.072863102 0.72175008
-0.10739811 -0.073050171 0.72133344
-0.10316458 -0.072395049 0.72120011
-0.0974245 -0.072847351 0.72257155
-0.092399739 -0.072957829 0.72171438
-0.087933332 -0.072820961 0.72133344
-0.082715005 -0.073963575 0.72075009
-0.077700965 -0.074950479 0.72200006
-0.072395816 -0.074593149 0.72120005
-0.067200005 -0.074742861 0.72000003
-0.062457781 -0.07481207 0.72066677
-0.059657145 -0.074742861 0.72000003
-0.12631544 -0.068312764 0.72160006
-0.1241143 -0.069257148 0.72000003
-0.046517145 -0.085397147 0.72900003
-0.0419854 -0.086822435 0.72800004
-0.039465718 -0.087240957 0.727
-0.11039144 -0.081231438 0.72900003
-0.097200006 -0.081231438 0.72900003
-0.092234455 -0.081832856 0.72816676
-0.088122733 -0.081977151 0.72857153
-0.08262001 -0.081231438 0.72900003
-0.077134296 -0.081987627 0.72800004
-0.072463244 -0.08257886 0.72740006
-0.067714199 -0.082330659 0.7275455
-0.062313817 -0.08239492 0.727
-0.057449631 -0.08237005 0.72677773
-0.052686598 -0.082498811 0.72791666
-0.047317844 -0.08260338 0.72772729
-0.042431246 -0.08209715 0.7256
-0.037976194 -0.083202377 0.72499996
-0.13190511 -0.076001599 0.72766674
-0.12726393 -0.076452918 0.72755557
-0.1224381 -0.077322669 0.72880006
-0.11738686 -0.076780766 0.72760004
-0.11257982 -0.077964954 0.727
-0.10783517 -0.078125209 0.72709095
-0.10250762 -0.077576309 0.72724998
-0.09750279 -0.07745152 0.7260834
-0.092890196 -0.078376487 0.72569996
-0.087364502 -0.078875519 0.72557139
-0.082913816 -0.078769058 0.72549999
-0.077829853 -0.07898096 0.72533339
-0.07253398 -0.079441272 0.72533339
-0.067713335 -0.079459526 0.72549999
-0.06214286 -0.079404764 0.72500002
-0.057309531 -0.079404764 0.72500008
-0.05109524 -0.079404764 0.72500002
-0.047642857 -0.079404764 0.72500008
-0.044190481 -0.079404764 0.72500002
-0.13105239 -0.072776198 0.72500002
-0.12877382 -0.072845243 0.72500002
-0.12290477 -0.073880956 0.72500002
-0.11945239 -0.073880956 0.72500002
-0.1015 -0.073880956 0.72500008
-0.1305 -0.069738097 0.72500002
-0.12911905 -0.069047622 0.72500002
-0.061283182 -0.090643182 0.73400009
-0.046836194 -0.090177149 0.73400003
-0.044040002 -0.091575243 0.73400003
-0.096468583 -0.085982859 0.73400003
-0.092890166 -0.08590477 0.73333335
-0.087958097 -0.085865721 0.73300004
-0.082068197 -0.086262479 0.73400003
-0.077261671 -0.087029524 0.73250008
-0.07224784 -0.086652912 0.73177785
-0.067262456 -0.086796887 0.73242867
-0.062552728 -0.087017506 0.73200005
-0.057370048 -0.087292813 0.73218185
-0.052456088 -0.086861171 0.73222226
-0.047406483 -0.087840959 0.73200005
-0.043415874 -0.089385405 0.73133337
-0.13165399 -0.080856517 0.73400009
-0.12734413 -0.081016511 0.73333335
-0.1222993 -0.081126913 0.73275
-0.11753827 -0.082019493 0.73263645
-0.11287544 -0.082637146 0.73159999
-0.10734772 -0.082952149 0.73191667
-0.10247938 -0.082961477 0.73200005
-0.097533345 -0.083600476 0.73150003
-0.092593335 -0.084239051 0.73100007
-0.086769156 -0.08370515 0.73119998
-0.082206681 -0.083600476 0.73150003
-0.077973336 -0.084239051 0.73100001
-0.13162547 -0.078348339 0.73124999
-0.12809905 -0.078669526 0.73100001
-0.064046673 -0.095014289 0.73900002
-0.045747623 -0.095014289 0.73900002
-0.044340003 -0.095014289 0.73900002
-0.11753619 -0.090791434 0.73900002
-0.095718101 -0.090791434 0.73900002
-0.092199057 -0.090791434 0.73900002
-0.08736001 -0.091930479 0.73824996
-0.082694121 -0.091890998 0.73754549
-0.077787623 -0.091485955 0.73750001
-0.072092384 -0.09108191 0.73850006
-0.06722033 -0.091579266 0.73777783
-0.062894456 -0.0923554 0.73650002
-0.057726413 -0.091789268 0.7367273
-0.052678578 -0.091310322 0.73750007
-0.047779154 -0.092050694 0.73655558
-0.044160005 -0.093226671 0.73600006
-0.1323162 -0.086568579 0.73900002
-0.12695238 -0.086861908 0.7385
-0.12227002 -0.087838583 0.73783338
-0.11730646 -0.087805726 0.73755556
-0.11275734 -0.086639248 0.73720002
-0.10739144 -0.086334288 0.73700011
-0.10222496 -0.087482683 0.73720002
-0.097803406 -0.088174567 0.73728579
-0.092588574 -0.088380486 0.73650002
-0.087659054 -0.088360325 0.73633337
-0.083012797 -0.088420145 0.73600012
-0.077104762 -0.08902096 0.73600006
-0.072899051 -0.08902096 0.73600006
-0.067992389 -0.08902096 0.73600006
-0.053973336 -0.08902096 0.73600006
-0.13528381 -0.082011431 0.73600006
-0.13269578 -0.083295994 0.73633337
-0.12770934 -0.083919063 0.73633337
-0.12294706 -0.084254481 0.73600006
-0.11799365 -0.084815249 0.73600006
-0.13528381 -0.079207622 0.73600006
-0.10118953 -0.09552858 0.74300003
-0.096236199 -0.09552858 0.74300003
-0.092698112 -0.095528588 0.74300003
-0.087698862 -0.095605917 0.74140006
-0.083005004 -0.095721669 0.74175006
-0.078038104 -0.095485717 0.74266672
-0.072177149 -0.09552858 0.74300003
-0.067133337 -0.095400006 0.74200004
-0.061480008 -0.095400006 0.74200004
-0.057265084 -0.095442861 0.74233341
-0.052329049 -0.095464289 0.74250007
-0.047700003 -0.096461438 0.74200004
-0.13232477 -0.091282867 0.74300003
-0.12728572 -0.091929056 0.74250007
-0.12217097 -0.091806196 0.74150008
-0.11707049 -0.092417575 0.74199998
-0.11246096 -0.092657149 0.74266672
-0.10749802 -0.092646748 0.74258345
-0.10243662 -0.092546895 0.74177784
-0.097763337 -0.092819914 0.74170005
-0.092448585 -0.093155257 0.74100006
-0.088800006 -0.093733341 0.74000001
-0.076569527 -0.093507633 0.74100006
-0.072990097 -0.093321532 0.74120009
-0.068486355 -0.09390223 0.74133337
-0.055676196 -0.093733341 0.74000001
-0.05215238 -0.093733341 0.74000001
-0.13603286 -0.088688575 0.74200004
-0.13244927 -0.088871025 0.74142867
-0.12791355 -0.08898934 0.74040002
-0.11254695 -0.088969804 0.74057144
-0.10750858 -0.088969804 0.74057144
-0.10360001 -0.089504771 0.74000001
-0.11041906 -0.10329524 0.74800003
-0.10828191 -0.10329524 0.74800003
-0.070525721 -0.10044572 0.74800003
-0.051992543 -0.10113572 0.74783337
-0.049154289 -0.1011581 0.74800003
-0.13668621 -0.096107148 0.74750006
-0.13239202 -0.097159177 0.74737507
-0.12745799 -0.096884415 0.74662513
-0.12234138 -0.097035564 0.74733335
-0.1174643 -0.096819535 0.74750012
-0.11351635 -0.096928418 0.74650013
-0.10785144 -0.097108155 0.74666673
-0.1025079 -0.096820287 0.74671435
-0.097438484 -0.097440772 0.74680001
-0.092471555 -0.098161548 0.74687499
-0.087174676 -0.09826801 0.74660009
-0.082580954 -0.097887151 0.74750006
-0.077343181 -0.097747624 0.74733341
-0.072626546 -0.098259658 0.74762511
-0.067924581 -0.098113917 0.74760008
-0.062262099 -0.097881153 0.74800009
-0.057690006 -0.09828683 0.74783343
-0.052603222 -0.098095365 0.74637508
-0.048957147 -0.097914293 0.74500006
-0.1364724 -0.09311524 0.74633336
-0.13268097 -0.093657151 0.74500006
-0.12771431 -0.09436667 0.74500006
-0.12274763 -0.09436667 0.74500006
-0.11849049 -0.09436667 0.74500006
-0.10613715 -0.10542001 0.75300002
-0.10215307 -0.10624151 0.75157148
-0.097987466 -0.10587478 0.75283337
-0.078168578 -0.10542001 0.75300002
-0.066963814 -0.10567887 0.75280005
-0.062329289 -0.10567358 0.75225008
-0.056880195 -0.10559487 0.75220007
-0.053260639 -0.10628223 0.7523334
-0.12728275 -0.10186227 0.75187504
-0.1224945 -0.1013402 0.75040001
-0.11683674 -0.10132653 0.75000012
-0.11207596 -0.10224548 0.75075001
-0.10723152 -0.10229214 0.75109094
-0.10240033 -0.10240075 0.75188893
-0.097316526 -0.10232542 0.75133336
-0.092333756 -0.1023564 0.75155556
-0.087549739 -0.10186402 0.75144452
-0.082306199 -0.10163222 0.75150007
-0.077314287 -0.10237174 0.75166678
-0.072501794 -0.10257894 0.75187498
-0.067232385 -0.10228033 0.75100005
-0.06225333 -0.10232572 0.75133336
-0.057393081 -0.10237317 0.75072736
-0.052714288 -0.10328572 0.75000006
-0.12738097 -0.099285722 0.75000012
-0.12214287 -0.099285722 0.75000006
-0.11785715 -0.099285722 0.75000012
-0.11185715 -0.098714292 0.75000006
-0.10642858 -0.099285722 0.75000006
-0.10285715 -0.099285722 0.75000006
