# .PCD v0.7 - Point Cloud Data file format
VERSION 0.7
FIELDS x y z
SIZE 4 4 4
TYPE F F F
COUNT 1 1 1
WIDTH 1326
HEIGHT 1
VIEWPOINT 0 0 0 1 0 0 0
POINTS 1326
DATA ascii
-0.062849678 0.012304813 0.6216315
-0.057408255 0.011834285 0.62144446
-0.05236369 0.012589134 0.62159085
-0.047604758 0.012374816 0.62222224
-0.04259561 0.011978757 0.6218462
-0.037543613 0.011412586 0.62150013
-0.032422855 0.011926415 0.62136841
-0.027817462 0.011243282 0.62144446
-0.11258192 0.018919049 0.62357152
-0.10796191 0.019017145 0.62400007
-0.1019684 0.017923687 0.6232
-0.097238407 0.01778625 0.62256253
-0.092542037 0.017795477 0.62287503
-0.087638699 0.017763214 0.62175
-0.082892582 0.017696002 0.62080008
-0.077877261 0.017123811 0.61999995
-0.073022231 0.016533334 0.62
-0.068495244 0.015942859 0.62
-0.052552383 0.015942859 0.62
-0.11193754 0.021248383 0.62320006
-0.10875429 0.020800002 0.62400001
-0.10120405 0.021072144 0.62325001
-0.097325839 0.021365121 0.62312508
-0.092560321 0.022076352 0.62366676
-0.087735184 0.022527684 0.62243754
-0.082792684 0.022473749 0.62093753
-0.077962868 0.022688575 0.62074995
-0.072830215 0.023714561 0.62028575
-0.069085717 0.024209525 0.62
-0.087094299 0.026021525 0.62379998
-0.082526483 0.026124001 0.62340009
-0.076739892 0.026460532 0.6235556
-0.072503813 0.026616191 0.62354553
-0.067594849 0.026980719 0.62258339
-0.062742226 0.027821746 0.62150002
-0.057559926 0.028162509 0.62190914
-0.052260593 0.027791575 0.62084621
-0.047454547 0.027893683 0.62072724
-0.042845719 0.028480548 0.62114286
-0.038971432 0.028933335 0.62
-0.028933335 0.028933335 0.62
-0.061805721 0.030308573 0.62400001
-0.057005718 0.030284287 0.62349999
-0.052276909 0.03029643 0.62375003
-0.047244631 0.030790204 0.62342864
-0.042985149 0.031230289 0.62340009
-0.037446864 0.031834543 0.62280005
-0.032250084 0.031974789 0.6223529
-0.027912954 0.032665905 0.62360007
-0.054513335 0.0041933334 0.62900001
-0.04133429 0.0041933334 0.62900001
-0.032548256 0.0041933334 0.62900007
-0.027812928 0.0036798643 0.62900001
-0.10363524 0.008985715 0.62900001
-0.091654293 0.008985715 0.62900001
-0.087165035 0.0084681641 0.62871432
-0.082602859 0.0083795246 0.62849998
-0.077814296 0.0083795246 0.62850004
-0.072806671 0.0085768262 0.62833333
-0.066791914 0.0081239054 0.62729996
-0.062143259 0.0077669057 0.62741673
-0.057342067 0.0077636517 0.62716687
-0.05264147 0.0075702583 0.62646157
-0.047636196 0.0072800019 0.62680006
-0.042659 0.0070296833 0.62694436
-0.037504263 0.006957334 0.62640005
-0.032316055 0.005882042 0.62671435
-0.027442303 0.0065605561 0.62641668
-0.11534049 0.014342383 0.62750006
-0.11232772 0.01387022 0.62827283
-0.10752307 0.013417894 0.6282143
-0.10258681 0.012261723 0.62747627
-0.097446278 0.013095463 0.62682354
-0.092415862 0.012115238 0.62700009
-0.087429404 0.011806159 0.62620008
-0.082502231 0.0109327 0.62622219
-0.077986486 0.010389906 0.62700003
-0.073069908 0.010370097 0.62580007
-0.067857154 0.010119048 0.625
-0.060119051 0.010119048 0.625
-0.045833338 0.011309525 0.625
-0.044083335 0.010127144 0.62550002
-0.11506477 0.016097143 0.62600005
-0.11214868 0.016923143 0.6257
-0.10702866 0.017394029 0.62590903
-0.10416667 0.016071429 0.625
-0.11046286 0.022761146 0.62560004
-0.10717245 0.022771303 0.62586665
-0.10278842 0.023140635 0.62566662
-0.097638451 0.023814406 0.62512499
-0.093154773 0.024107145 0.625
-0.11142287 0.026358098 0.62900001
-0.10748634 0.027364155 0.62850016
-0.10281121 0.027496789 0.62762511
-0.097651221 0.02761757 0.62733346
-0.092373446 0.027422639 0.62670594
-0.087547809 0.028150475 0.62619996
-0.08230786 0.028629284 0.62625003
-0.078012109 0.028499732 0.62528574
-0.072500013 0.028928572 0.625
-0.068452388 0.029166669 0.625
-0.10663048 0.03055143 0.62900001
-0.10243715 0.030551432 0.62900001
-0.09704572 0.03055143 0.62900001
-0.091805719 0.030934606 0.6286667
-0.086990289 0.030752191 0.62819999
-0.082581431 0.031716987 0.62833333
-0.077752709 0.031700324 0.62800014
-0.072617218 0.032039262 0.62792861
-0.067523919 0.032271221 0.62744445
-0.062355317 0.032673113 0.62723082
-0.057288658 0.03282262 0.62658334
-0.05243009 0.032769285 0.62558335
-0.047851328 0.033159051 0.62544441
-0.042460322 0.033531748 0.625
-0.038690478 0.033928573 0.625
-0.061941531 0.035583433 0.62900001
-0.057239186 0.035849258 0.62885714
-0.052451644 0.036098413 0.62822229
-0.047705542 0.036391605 0.62827283
-0.042544816 0.037137602 0.62731588
-0.037170254 0.036892045 0.62652946
-0.032216966 0.036991969 0.62643749
-0.027433515 0.03697709 0.6261875
-0.040735241 0.040136192 0.62900001
-0.037340641 0.040136196 0.62900007
-0.032348573 0.040136192 0.62900001
-0.027541591 0.040713973 0.62866664
-0.041059051 -0.00060380955 0.634
-0.036832388 -0.0010868572 0.634
-0.032243431 -0.00084533339 0.634
-0.028020957 -0.0011210886 0.63371432
-0.085137151 0.0042266669 0.634
-0.081902757 0.0034208468 0.63388884
-0.077277228 0.0030184926 0.63391662
-0.072698668 0.0032605715 0.634
-0.067390591 0.0034193653 0.63366663
-0.06266477 0.0030111112 0.63266671
-0.057767626 0.0030074604 0.63183337
-0.052601904 0.0026397072 0.63261539
-0.047348037 0.0027831546 0.63231254
-0.042191755 0.0022863497 0.63226664
-0.037347622 0.0024071429 0.63250005
-0.032488357 0.0019910624 0.63261539
-0.027516404 0.0014052911 0.63266665
-0.11158794 0.00904762 0.63333338
-0.10701763 0.0080736196 0.63269997
-0.10227477 0.0078202868 0.63169998
-0.097579665 0.007943118 0.63281816
-0.092629448 0.0075254776 0.63225001
-0.087895252 0.0061478103 0.63300008
-0.082509644 0.006022024 0.632375
-0.077377357 0.0060850792 0.63200003
-0.072444253 0.006514892 0.63245451
-0.06803035 0.0061054425 0.63214284
-0.062549531 0.005412857 0.63150001
-0.057691433 0.0054085716 0.63100004
-0.052282862 0.0054085716 0.63100004
-0.049879052 0.0054085716 0.63100004
-0.11218736 0.010745444 0.63185722
-0.1083261 0.010700191 0.63120002
-0.097354293 0.010216191 0.63100004
-0.11255684 0.028891748 0.63199997
-0.10997429 0.028845716 0.63100004
-0.11189851 0.031270206 0.63314289
-0.10752805 0.032360006 0.63311112
-0.10245921 0.033149526 0.63283336
-0.097534768 0.033114605 0.63216662
-0.092905335 0.033335622 0.63180006
-0.087966405 0.033186156 0.63145459
-0.082460962 0.034308579 0.63200003
-0.07692191 0.034254286 0.63100004
-0.073316202 0.034254286 0.63100004
-0.10224509 0.036027309 0.63400006
-0.097903408 0.036142319 0.63400006
-0.092913337 0.036200475 0.63349998
-0.087301366 0.036972113 0.63342851
-0.082157992 0.037268799 0.63294119
-0.077052213 0.037323628 0.63206255
-0.072200008 0.037304997 0.63174999
-0.067406975 0.037316129 0.63193762
-0.06271819 0.038002688 0.63154548
-0.057922542 0.038281061 0.63133335
-0.053201366 0.038591024 0.63171428
-0.048452575 0.038833905 0.63120002
-0.083325721 0.040455241 0.634
-0.07650286 0.041495956 0.63374996
-0.072675437 0.04140858 0.63379997
-0.06760937 0.040847145 0.63383341
-0.062798105 0.041217569 0.63333333
-0.057882145 0.04160374 0.63308334
-0.052289154 0.042033181 0.63349998
-0.047009349 0.042189237 0.63281244
-0.042315241 0.042402454 0.6321429
-0.037285645 0.042566825 0.63223076
-0.032511111 0.042747468 0.63216668
-0.027888047 0.04313736 0.63200003
-0.036027305 0.045688257 0.634
-0.032605719 0.045889527 0.634
-0.028620575 0.045768764 0.634
-0.032862857 -0.005477143 0.63900006
-0.027984049 -0.005475 0.63875008
-0.02495143 -0.0066942861 0.63900006
-0.091894291 -0.00060857146 0.63900006
-0.087566674 -0.00060809526 0.63850003
-0.082765721 -0.00060857146 0.63900006
-0.077897146 -0.00060857146 0.63900006
-0.072971433 -0.0012166668 0.63850003
-0.06732484 -0.0019987077 0.63850003
-0.06224959 -0.0024316071 0.63768756
-0.057273172 -0.0023248182 0.63776487
-0.052383009 -0.0020114286 0.63784623
-0.047465105 -0.0021714966 0.63778573
-0.042776749 -0.002429286 0.63708341
-0.037686143 -0.0027667729 0.63711119
-0.032920692 -0.0031454547 0.63690919
-0.027681695 -0.0034361905 0.63644451
-0.11536509 0.0038520638 0.63866675
-0.11197715 0.0036514292 0.639
-0.10736939 0.0037383675 0.63900006
-0.10082 0.0038542859 0.63900006
-0.096719883 0.0035625852 0.63871431
-0.092231944 0.0025468573 0.63740003
-0.087298855 0.002298984 0.63566679
-0.082618102 0.0011239457 0.63585722
-0.077531427 0.00060571433 0.63600004
-0.072243504 0.0010085715 0.63566673
-0.068053477 0.0011236737 0.6355716
-0.062895238 0.00060476194 0.63500005
-0.057452388 0.00060476194 0.63500005
-0.05180794 0.00060476194 0.63500011
-0.047171429 0.00060476194 0.63500005
-0.11579644 0.0063821431 0.63824999
-0.11272112 0.0069671436 0.63633341
-0.10782667 0.0058019059 0.63657153
-0.10189562 0.0057070479 0.6376
-0.09790048 0.0057580955 0.6365
-0.093738101 0.0054428573 0.63500011
-0.11230205 0.033803541 0.63542867
-0.10764763 0.03447143 0.63500005
-0.11206318 0.03708519 0.63833338
-0.10728841 0.03751149 0.6378125
-0.10247537 0.038713932 0.63762504
-0.09741535 0.038579147 0.63690007
-0.092088453 0.038773932 0.63612509
-0.087690488 0.039309528 0.63500011
-0.10224 0.04077429 0.63900006
-0.097006284 0.041017719 0.63900006
-0.09210287 0.042050004 0.63833338
-0.087275006 0.042427506 0.63637501
-0.082139939 0.042627018 0.63550013
-0.078226432 0.04312405 0.63550007
-0.072282225 0.04381397 0.6360001
-0.067860767 0.043263052 0.63620013
-0.062865451 0.043668989 0.63557148
-0.057452381 0.044147622 0.63500005
-0.053823814 0.044147622 0.63500005
-0.087025724 0.045642864 0.63900006
-0.082968578 0.045642864 0.63900006
-0.077866435 0.045625001 0.63875008
-0.072910167 0.046422549 0.63855559
-0.067551434 0.046251431 0.639
-0.06205048 0.046233572 0.63875002
-0.057223924 0.046414394 0.63844448
-0.052265834 0.046188693 0.638125
-0.047142226 0.046334606 0.63733339
-0.042308103 0.047078572 0.63721442
-0.03792645 0.047632094 0.63676929
-0.032690123 0.048429169 0.63562506
-0.027594669 0.047928002 0.63540012
-0.023615051 0.048563242 0.63580006
-0.032477912 0.050723244 0.63860005
-0.027967026 0.051070362 0.63837504
-0.023312278 0.051693235 0.63855553
-0.022324355 -0.010943131 0.64342862
-0.018139049 -0.010801906 0.64200008
-0.075770803 -0.0059231753 0.64333338
-0.07218989 -0.0061189295 0.64237499
-0.067348696 -0.0061236909 0.64287508
-0.062077288 -0.006025034 0.64171433
-0.057395838 -0.0061065475 0.64112502
-0.052408751 -0.0066154986 0.64190918
-0.047826741 -0.0069153854 0.64192313
-0.043050572 -0.006483715 0.64210004
-0.038107835 -0.0063184127 0.64188892
-0.032242995 -0.0072544226 0.64228576
-0.027142763 -0.0077046673 0.64190006
-0.022011431 -0.0091714291 0.64200002
-0.018546669 -0.0087638106 0.64200008
-0.11145333 -0.0012257145 0.64300001
-0.1080943 -0.0010219049 0.64366674
-0.10291734 -0.001104 0.64400005
-0.097198203 -0.0015653968 0.6427778
-0.092425093 -0.0022446034 0.64200008
-0.087803908 -0.0028376628 0.64227271
-0.082483537 -0.0028162857 0.64250004
-0.077662423 -0.0030591344 0.64209092
-0.072312169 -0.003592381 0.64044446
-0.067728266 -0.0042711115 0.64066672
-0.051809531 -0.0042666672 0.64000005
-0.046933338 -0.0042666672 0.64000005
-0.042089052 -0.0042700004 0.64050007
-0.039040476 -0.0042700004 0.64050007
-0.1113684 0.0013413335 0.64040005
-0.107258 0.0014234922 0.6411112
-0.10299972 0.0021126743 0.6416924
-0.098100103 0.0015585186 0.64066666
-0.093257152 0.00060952385 0.64000005
-0.11154287 0.039619051 0.64000005
-0.10910477 0.039619051 0.64000005
-0.11248718 0.042964131 0.64260012
-0.10749686 0.042756371 0.64131248
-0.10253319 0.043333814 0.64083326
-0.097842522 0.043456022 0.64100003
-0.093598813 0.04420786 0.64025009
-0.10242668 0.046000004 0.64400005
-0.097657144 0.046481695 0.64311111
-0.092302382 0.046457306 0.64183336
-0.087801367 0.047171433 0.64085722
-0.082689904 0.047708001 0.64220011
-0.077066354 0.048007946 0.64166671
-0.071933068 0.048915107 0.64085716
-0.067100003 0.04880048 0.64050001
-0.062208213 0.048790839 0.64037502
-0.057246398 0.048882049 0.64042866
-0.052460004 0.04880048 0.64050001
-0.04783633 0.048882049 0.64042866
-0.043885715 0.049371433 0.64000005
-0.075440004 0.050906669 0.64400005
-0.072189666 0.051364627 0.64314288
-0.067476079 0.051564172 0.64262503
-0.061817147 0.051414609 0.6426667
-0.057563812 0.051440954 0.64300001
-0.052504763 0.051949617 0.64309096
-0.047575582 0.052386466 0.64278585
-0.042796254 0.052580416 0.64193755
-0.037886549 0.052554887 0.64162499
-0.033165887 0.053276371 0.64163643
-0.027733441 0.053771749 0.64077777
-0.023771431 0.053841274 0.64000005
-0.037413336 0.055813339 0.64400005
-0.031980958 0.056163818 0.64400005
-0.026675433 0.056654669 0.64240009
-0.022942044 0.056614976 0.64114296
-0.025920002 -0.015428573 0.648
-0.021578414 -0.017056933 0.64733338
-0.068502858 -0.010491429 0.648
-0.062948577 -0.010491429 0.648
-0.057394288 -0.010491429 0.648
-0.052672006 -0.010731811 0.64760005
-0.047558017 -0.011596798 0.64700001
-0.042526521 -0.011711282 0.64715379
-0.037030987 -0.011961271 0.64733332
-0.032051608 -0.01232875 0.64718747
-0.027097024 -0.012318454 0.64662504
-0.023433812 -0.013566668 0.64750004
-0.11167413 -0.0061696833 0.64783335
-0.10706425 -0.0066671874 0.64709091
-0.10236524 -0.0055500008 0.64750004
-0.097023025 -0.0059611117 0.64750004
-0.092357144 -0.0061576194 0.64649999
-0.087318443 -0.0066663218 0.64690906
-0.082644947 -0.0066603473 0.64627272
-0.078566194 -0.0065655559 0.64616668
-0.072669171 -0.0086222626 0.64662504
-0.067793936 -0.0086286915 0.64712501
-0.063088894 -0.0084266672 0.64733332
-0.057889406 -0.0086222617 0.64662498
-0.053247627 -0.008977144 0.64560002
-0.047300003 -0.0092142876 0.6450001
-0.042612068 -0.0088095246 0.64533341
-0.037223808 -0.0086746039 0.64544445
-0.032331999 -0.0089742867 0.64540005
-0.028257145 -0.0092142867 0.64500004
-0.11176556 -0.0039039683 0.64716673
-0.10737451 -0.0033501589 0.64588892
-0.10239787 -0.0024616667 0.64575005
-0.097618744 -0.0038968257 0.64600003
-0.093371436 -0.0043000001 0.64500004
-0.086000003 -0.0043000001 0.64500004
-0.08231429 -0.0043000001 0.64500004
-0.11540572 0.046285719 0.648
-0.11208089 0.047964957 0.64733338
-0.10702457 0.04761517 0.64669228
-0.1021462 0.048612099 0.64609998
-0.096935667 0.048980743 0.64555556
-0.092410833 0.049286079 0.64687496
-0.087707244 0.049572766 0.64580005
-0.082717858 0.049507864 0.64575005
-0.078833342 0.04934762 0.6450001
-0.11170287 0.051222861 0.648
-0.10614859 0.051222861 0.648
-0.10198223 0.051607944 0.64766669
-0.097433344 0.051800486 0.64749998
-0.091940299 0.052696098 0.64789993
-0.087524951 0.053008996 0.64718747
-0.082561731 0.052988522 0.64693743
-0.077715375 0.053083505 0.64660001
-0.072678842 0.053946141 0.64611107
-0.067470238 0.053945955 0.6455
-0.06310343 0.05363353 0.64580005
-0.057787623 0.05409953 0.6455
-0.053214099 0.05444267 0.64520007
-0.04914286 0.054671433 0.64500004
-0.087840006 0.056160003 0.648
-0.082697146 0.056160003 0.648
-0.077495515 0.056688987 0.64800006
-0.073193148 0.056406863 0.648
-0.067606397 0.056676604 0.64785713
-0.06294857 0.056777146 0.648
-0.057605337 0.056372195 0.64760005
-0.052993339 0.056690004 0.64699996
-0.047347352 0.057647206 0.64685714
-0.042499524 0.057902139 0.64674997
-0.037369937 0.058211289 0.64628571
-0.032243144 0.058703717 0.64609998
-0.027480956 0.059268262 0.64600003
-0.022786034 0.05973969 0.64666671
-0.036658287 0.061344005 0.648
-0.032066762 0.062037241 0.64749998
-0.027140003 0.061477147 0.64766669
-0.021805715 0.061508577 0.648
-0.070897147 -0.01554762 0.65300006
-0.06695842 -0.015547621 0.65300006
-0.062190481 -0.01554762 0.65300006
-0.0572454 -0.016366245 0.65255564
-0.05286191 -0.015547621 0.65300006
-0.046237554 -0.016951295 0.65228575
-0.042182222 -0.016749525 0.65133333
-0.037228573 -0.017375717 0.65149999
-0.032261491 -0.017374109 0.65143752
-0.027483881 -0.01764524 0.6516428
-0.023578573 -0.017995082 0.65150005
-0.09204191 -0.010572381 0.65300006
-0.086743407 -0.011098506 0.6525715
-0.082049534 -0.011810794 0.65266663
-0.076737709 -0.011909604 0.65241671
-0.072161674 -0.012321192 0.65225005
-0.06728135 -0.012378152 0.65164697
-0.061863959 -0.012676191 0.65142858
-0.057061356 -0.013026111 0.65125
-0.052431721 -0.013295144 0.65230006
-0.047159053 -0.013960001 0.65150005
-0.04209524 -0.014238096 0.65000004
-0.038380954 -0.014238096 0.65000004
-0.11212167 -0.0074564293 0.65225005
-0.10510191 -0.0080847628 0.65300006
-0.10149986 -0.0080795251 0.65250009
-0.097573698 -0.0082969712 0.65181816
-0.092106268 -0.0087767364 0.65157145
-0.087972388 -0.0089833345 0.65050006
-0.082580954 -0.0090380954 0.65000004
-0.077888042 -0.0087729264 0.65128577
-0.11169207 0.052646674 0.6503334
-0.10818763 0.052307624 0.65084618
-0.10351756 0.053043272 0.65085721
-0.097809531 0.053857148 0.65000004
-0.093785718 0.053238101 0.65000004
-0.11132096 0.055349529 0.65300006
-0.10667785 0.055870485 0.65285718
-0.10234144 0.056373812 0.65224999
-0.097472265 0.05669843 0.65133345
-0.09256424 0.056725722 0.65133333
-0.087369375 0.057971276 0.65216672
-0.082490481 0.058303103 0.65125
-0.07752344 0.05867048 0.6512
-0.072170079 0.058356471 0.65085721
-0.06755849 0.058634289 0.65080005
-0.061551817 0.05858 0.65020007
-0.057423498 0.058457147 0.65066671
-0.052040953 0.058854762 0.65050006
-0.081824899 0.060857836 0.65300012
-0.076903999 0.061421745 0.65263635
-0.071983717 0.061292108 0.65270001
-0.066865817 0.061273437 0.65250003
-0.062118813 0.061498817 0.65224999
-0.057336129 0.061863612 0.65235722
-0.05199429 0.061843682 0.65214288
-0.047338922 0.062322043 0.65157151
-0.042160004 0.062621273 0.65100002
-0.037425037 0.063259326 0.65028584
-0.032190479 0.063761912 0.65000004
-0.027266033 0.063414611 0.65066671
-0.022721272 0.063414603 0.65066671
-0.045399051 0.06592191 0.65300006
-0.042114288 0.06642165 0.6529091
-0.037285715 0.065871909 0.65249997
-0.03213273 0.066357844 0.65227276
-0.027346112 0.06650199 0.65258336
-0.022244448 0.066980444 0.65240008
-0.01927905 0.07027524 0.65300006
-0.052183341 -0.021081749 0.65750003
-0.048031911 -0.021092542 0.6578334
-0.042613335 -0.020680001 0.65800005
-0.037190288 -0.020911811 0.65740001
-0.032297146 -0.021657145 0.65720004
-0.02731725 -0.021480002 0.6568889
-0.022537461 -0.02222508 0.65733337
-0.019411907 -0.023795716 0.65750003
-0.10214667 -0.015666667 0.65800005
-0.092120007 -0.016293336 0.65800005
-0.087555304 -0.017411303 0.65760005
-0.08291173 -0.017180882 0.65684628
-0.077748932 -0.016779741 0.65690917
-0.072460636 -0.017621271 0.65683341
-0.067578107 -0.017941466 0.65653855
-0.062508583 -0.018128254 0.65633339
-0.057339326 -0.018816058 0.65542865
-0.052274294 -0.017905349 0.65523082
-0.048220426 -0.017832488 0.65566671
-0.042500719 -0.019375 0.65625
-0.11075144 -0.010637144 0.65700001
-0.10720605 -0.012098415 0.65700006
-0.10252923 -0.012505416 0.65643752
-0.09745352 -0.012496253 0.65593749
-0.092464767 -0.01312127 0.65600008
-0.08766064 -0.013534922 0.65588892
-0.082532391 -0.014380477 0.65649998
-0.0783481 -0.014046668 0.65550005
-0.073609531 -0.01434762 0.65500003
-0.049280956 -0.01434762 0.65500003
-0.11237143 -0.0090523819 0.65550005
-0.10733691 -0.0093607148 0.65525001
-0.10355239 -0.0093571432 0.65500003
-0.11558096 0.058102861 0.65600002
-0.11234962 0.058249876 0.65636367
-0.10768583 0.058530483 0.65611118
-0.10274231 0.059048571 0.65539998
-0.097570799 0.059292071 0.6553334
-0.092430241 0.059329763 0.65575004
-0.087333336 0.059261907 0.65500003
-0.11259113 0.061622228 0.65800005
-0.10758632 0.062023208 0.65781826
-0.10266429 0.061724287 0.65730006
-0.097763181 0.061581161 0.65755564
-0.092455797 0.06219437 0.6574167
-0.087567031 0.062548928 0.65675002
-0.082831435 0.063636512 0.65722227
-0.077822678 0.064081334 0.65580004
-0.072625563 0.063885562 0.65550005
-0.067839213 0.063885555 0.65550005
-0.062380958 0.064252384 0.65500003
-0.056142859 0.064252384 0.65500003
-0.053647622 0.064252384 0.65500003
-0.086793341 0.066113338 0.65800005
-0.082625955 0.065724999 0.65725005
-0.07749778 0.065800004 0.65800011
-0.072361641 0.066280007 0.65742862
-0.06755355 0.066580005 0.65744448
-0.062330756 0.067428991 0.65728569
-0.057543341 0.067553341 0.65675008
-0.052655172 0.067083165 0.65638471
-0.047653556 0.067564175 0.65638471
-0.042846672 0.069077909 0.65580004
-0.037478693 0.068711556 0.65587503
-0.032882288 0.069141336 0.65640002
-0.02744762 0.069242865 0.65500003
-0.024328573 0.069242865 0.65500003
-0.062040005 0.070813335 0.65800005
-0.057026669 0.070813335 0.65800005
-0.045746669 0.070813335 0.65800005
-0.042613339 0.070813335 0.65800005
-0.037599999 0.070813335 0.65800005
-0.032086074 0.071529411 0.65737504
-0.027520716 0.071931519 0.65675008
-0.022498574 0.071866989 0.65616673
-0.053040002 -0.025888573 0.66300005
-0.047988575 -0.025888573 0.66300005
-0.042937145 -0.025888573 0.66300005
-0.037455719 -0.026303019 0.66283339
-0.033076331 -0.026407488 0.66242868
-0.027588144 -0.027015327 0.66245461
-0.022708258 -0.027125239 0.66233337
-0.092049539 -0.020805717 0.66200006
-0.087320954 -0.021121431 0.66200006
-0.080572069 -0.021247622 0.66266674
-0.076555401 -0.021242384 0.66250008
-0.072071649 -0.022064446 0.66188896
-0.067535929 -0.022514017 0.66185725
-0.062901914 -0.022565778 0.66180003
-0.057982385 -0.022690477 0.66174996
-0.05315705 -0.023555337 0.66130006
-0.047613811 -0.023555716 0.66130012
-0.042830545 -0.022946332 0.66135722
-0.037954032 -0.023414288 0.66118193
-0.033121906 -0.02410762 0.6603334
-0.027926534 -0.023975514 0.66000009
-0.023257144 -0.024514288 0.66000003
-0.11128604 -0.016830161 0.66266674
-0.10709517 -0.017503519 0.66176939
-0.10221691 -0.017642263 0.66150004
-0.097450636 -0.017786449 0.66146165
-0.093285196 -0.018238202 0.66033334
-0.089885719 -0.019485716 0.66000003
-0.081545725 -0.019076509 0.6603334
-0.077588759 -0.019240191 0.66020006
-0.074800007 -0.018857144 0.66000003
-0.11092262 -0.013865477 0.66175002
-0.10874286 -0.013828572 0.66000003
-0.11502858 0.063485719 0.66000003
-0.11199933 0.064038508 0.6601429
-0.10759556 0.064808264 0.6606667
-0.10272546 0.064439736 0.66057146
-0.097711913 0.064163342 0.66050005
-0.093657151 0.064114287 0.66000003
-0.11230906 0.066670969 0.66250008
-0.10707401 0.067300297 0.66290009
-0.10224001 0.067529544 0.6626668
-0.097001396 0.067402437 0.66254556
-0.092209622 0.067567199 0.66190916
-0.087532386 0.068502538 0.66122228
-0.082645647 0.06859342 0.66075003
-0.077703372 0.068409897 0.66084623
-0.07295537 0.06886822 0.660375
-0.068019733 0.069277965 0.66042864
-0.06479191 0.069195718 0.66050005
-0.052171431 0.069771431 0.66000003
-0.049657147 0.069771431 0.66000003
-0.10229144 0.070088573 0.66300005
-0.090294294 0.070088573 0.66300005
-0.087516002 0.071098857 0.66300005
-0.081454292 0.071351431 0.66300005
-0.0767662 0.071718581 0.66250008
-0.072847866 0.07158643 0.66225004
-0.067323677 0.071831159 0.66242868
-0.06270805 0.072518423 0.66211116
-0.058021735 0.072571009 0.66154552
-0.052953102 0.07249707 0.66191673
-0.048048839 0.072561048 0.66145456
-0.042840004 0.07308048 0.6615001
-0.037778933 0.073039405 0.661125
-0.033188451 0.074084885 0.66062498
-0.027657146 0.074800007 0.66000003
-0.06188 0.075140007 0.66300005
-0.058091432 0.075140007 0.66300005
-0.05282953 0.075140014 0.66300005
-0.047609717 0.075392582 0.66300005
-0.042929407 0.075757265 0.66287506
-0.037732951 0.076854736 0.66253346
-0.032801591 0.077588424 0.66233349
-0.02800524 0.077331901 0.66230005
-0.023035241 0.076680638 0.6626668
-0.04587429 -0.031220002 0.66900003
-0.042051431 -0.031220002 0.66900003
-0.037591431 -0.031220002 0.66900003
-0.032494288 -0.031644765 0.66900003
-0.027993813 -0.031810001 0.66800004
-0.022874167 -0.031768695 0.66712499
-0.01967762 -0.031738572 0.66650003
-0.10321715 -0.026122859 0.66900003
-0.093660004 -0.026122859 0.66900003
-0.087288581 -0.026122859 0.66900003
-0.082828581 -0.026122859 0.66900003
-0.077442236 -0.026946349 0.66833335
-0.0724812 -0.027340874 0.66758335
-0.067491002 -0.02719455 0.6668182
-0.062214684 -0.027300719 0.66658336
-0.057145625 -0.02730467 0.66670007
-0.051910136 -0.028468054 0.66690916
-0.04711628 -0.028663293 0.66609091
-0.042712197 -0.02839124 0.66540003
-0.038282003 -0.028775716 0.66549999
-0.032764979 -0.028961802 0.66588885
-0.028298477 -0.029567052 0.66619998
-0.022818098 -0.029789051 0.66549999
-0.019662859 -0.029811431 0.66600001
-0.10656001 -0.02093143 0.66600001
-0.10257107 -0.022866666 0.66687506
-0.097660534 -0.02273505 0.66673332
-0.092641369 -0.023478812 0.66624999
-0.087458506 -0.023372939 0.66625005
-0.082855836 -0.023192968 0.66646159
-0.07764791 -0.023726573 0.66609997
-0.072602287 -0.024454096 0.66520005
-0.06903334 -0.024700001 0.66500002
-0.11257779 -0.018376511 0.66533339
-0.10893334 -0.019633334 0.66500002
-0.11199453 0.068846434 0.66624999
-0.10901572 0.06908524 0.66550004
-0.09943334 0.06903334 0.66500002
-0.11231714 0.071105719 0.66780007
-0.10735382 0.071996674 0.66700006
-0.10263759 0.072868936 0.66636366
-0.097789779 0.072392866 0.66675007
-0.092780024 0.072473094 0.66633338
-0.087498806 0.07354977 0.66574997
-0.082641281 0.073341802 0.66577774
-0.077536359 0.073733494 0.66550004
-0.071990624 0.073620826 0.66557145
-0.067554474 0.073891245 0.66539997
-0.092021145 0.076239057 0.66820014
-0.087738089 0.076568797 0.66811121
-0.082493022 0.077086523 0.6680001
-0.077511378 0.077428572 0.66746664
-0.072450899 0.077537574 0.66731244
-0.067503408 0.077211842 0.6668573
-0.062392976 0.077639125 0.66692311
-0.05706301 0.077859066 0.66630769
-0.052206151 0.077896424 0.66661543
-0.047667507 0.078073218 0.66512501
-0.043082863 0.078563102 0.66525
-0.039900001 0.079166673 0.66500002
-0.026600001 0.079166673 0.66500002
-0.022800002 0.079166673 0.66500002
-0.06244 0.08091715 0.66900003
-0.057342861 0.08091715 0.66900003
-0.051133018 0.081686042 0.66833341
-0.047037229 0.081998661 0.66741675
-0.042285562 0.082135402 0.66766679
-0.037139595 0.081636742 0.66742867
-0.032763146 0.081656098 0.66670007
-0.027836826 0.082497522 0.66733342
-0.024018288 0.08146324 0.66720003
-0.036588576 -0.035304762 0.67400002
-0.032082621 -0.035933573 0.67374992
-0.027212251 -0.03600844 0.6734286
-0.023046192 -0.035636671 0.67216671
-0.09179239 -0.030169526 0.67400002
-0.087006755 -0.031295586 0.67309093
-0.082173251 -0.031507272 0.67263633
-0.07777252 -0.031712659 0.67171437
-0.072878331 -0.03196476 0.67125005
-0.067564383 -0.03160743 0.67179996
-0.062523544 -0.031720679 0.67185718
-0.057812486 -0.031787723 0.67200005
-0.052305289 -0.032525718 0.67199993
-0.047594387 -0.032882955 0.6717
-0.042139187 -0.033183269 0.67185718
-0.036876936 -0.033040535 0.67144448
-0.032232657 -0.033147484 0.67114288
-0.027506988 -0.033903178 0.67166674
-0.02298905 -0.033844288 0.67050004
-0.10211239 -0.027682118 0.67244446
-0.097535633 -0.02752229 0.67200005
-0.092105091 -0.027668258 0.67211115
-0.087839611 -0.02782109 0.67042857
-0.08299917 -0.028092265 0.67037505
-0.07784763 -0.029352382 0.67000002
-0.072742864 -0.029990477 0.67000002
-0.067850798 -0.029565081 0.67000002
-0.057428576 -0.029671431 0.67000002
-0.0542381 -0.029990477 0.67000002
-0.1115962 0.073865235 0.67150003
-0.10890477 0.074380323 0.67133343
-0.11276128 0.075530805 0.67400002
-0.10727953 0.077132396 0.6735
-0.10254057 0.077547073 0.67291659
-0.097244531 0.077412628 0.67175007
-0.092406295 0.078603245 0.671
-0.087887943 0.079163507 0.67033339
-0.083590485 0.079442859 0.67000002
-0.07848572 0.079761907 0.67000002
-0.066361904 0.079761907 0.67000002
-0.060619052 0.079761907 0.67000002
-0.092893347 0.080079377 0.67266673
-0.045913335 -0.040740002 0.67900002
-0.042679999 -0.040740002 0.67900002
-0.039446671 -0.040740002 0.67900002
-0.03211778 -0.040740006 0.67900008
-0.026885334 -0.041750669 0.67860001
-0.02262963 -0.042026673 0.67888886
-0.086395562 -0.035980321 0.67866671
-0.082656197 -0.036346566 0.67744446
-0.077777557 -0.036075786 0.67814291
-0.072119325 -0.03610599 0.67871433
-0.06712953 -0.036470242 0.67775005
-0.062660478 -0.036490384 0.67690003
-0.057748817 -0.036295958 0.67750001
-0.05296468 -0.036660779 0.67745465
-0.047738578 -0.037419882 0.67737502
-0.042589821 -0.037428871 0.67756259
-0.037524108 -0.037823152 0.67661542
-0.032226194 -0.038672622 0.67675006
-0.027035359 -0.038622025 0.67587501
-0.022363402 -0.038378101 0.67642862
-0.11122668 -0.032333337 0.67900002
-0.10740823 -0.031771168 0.67827272
-0.1022511 -0.032152042 0.67707145
-0.097531907 -0.032053404 0.6769287
-0.092922181 -0.032029696 0.67627281
-0.087558575 -0.033800479 0.676
-0.082285717 -0.034071431 0.67500001
-0.077199057 -0.034096669 0.67550004
-0.072159529 -0.034147147 0.67650002
-0.06753397 -0.034088258 0.67533338
-0.064285718 -0.034071431 0.67500001
-0.057920717 -0.034109287 0.67575008
-0.05464286 -0.034071431 0.67500001
-0.04307143 -0.034071431 0.67500001
-0.10607143 -0.028928574 0.67500001
-0.10350001 -0.028928574 0.67500001
-0.097071432 -0.028928574 0.67500001
-0.094500005 -0.028928574 0.67500001
-0.10896429 0.078750007 0.67500001
-0.05667429 -0.046251431 0.68400002
-0.053417146 -0.046251431 0.68400002
-0.048857145 -0.046251431 0.68400002
-0.032137144 -0.046685718 0.68400002
-0.027345359 -0.0468775 0.68362504
-0.021856382 -0.047225151 0.68300009
-0.10748572 -0.041040003 0.68400002
-0.086640015 -0.041040003 0.68400002
-0.082080007 -0.041040003 0.68400002
-0.077194288 -0.041365717 0.68400002
-0.072960004 -0.041040003 0.68400002
-0.067724526 -0.041025005 0.68375003
-0.062219188 -0.04157266 0.68357152
-0.056975383 -0.042755794 0.6831429
-0.0521781 -0.043071311 0.6831333
-0.047762226 -0.042892545 0.68233335
-0.042845838 -0.042846072 0.68162495
-0.037594415 -0.043059051 0.68293345
-0.032493848 -0.043275978 0.68130773
-0.027672701 -0.044319686 0.68099999
-0.021381272 -0.044060003 0.68033332
-0.11123144 -0.036426671 0.68300003
-0.1077337 -0.037554085 0.68321431
-0.103076 -0.03667387 0.6835556
-0.097231306 -0.036312114 0.68257153
-0.092007868 -0.037173577 0.68275011
-0.087711439 -0.038334858 0.68220001
-0.082685247 -0.03896302 0.68183339
-0.077713348 -0.03874974 0.68188894
-0.072952285 -0.038749527 0.68188888
-0.067785993 -0.03904096 0.68157142
-0.061921593 -0.039188575 0.68200004
-0.05729112 -0.039131116 0.68099999
-0.052495718 -0.039210003 0.68050003
-0.11144732 -0.033976194 0.68166673
-0.10782096 -0.034424763 0.68200004
-0.10457334 -0.034424763 0.68200004
-0.09779048 -0.034323812 0.68000001
-0.091314301 -0.034323812 0.68000001
-0.019029524 -0.057088576 0.68900001
-0.032153334 -0.050526671 0.68900001
-0.091210485 -0.045277145 0.68900001
-0.088585719 -0.045277145 0.68900001
-0.082680002 -0.045277145 0.68900001
-0.076863021 -0.045637943 0.68783343
-0.072407052 -0.045434479 0.68740004
-0.067587629 -0.045277145 0.68900001
-0.062891789 -0.045859408 0.68787503
-0.058027145 -0.046685245 0.68716669
-0.051933333 -0.047350481 0.68733346
-0.046651669 -0.046980474 0.68750006
-0.04229705 -0.046621051 0.68750012
-0.037644904 -0.046986125 0.68657148
-0.033197463 -0.048707306 0.68800008
-0.028872382 -0.049214289 0.68900001
-0.022966668 -0.049214289 0.68900001
-0.10572445 -0.041636191 0.68666673
-0.10229001 -0.04065381 0.68850005
-0.097116195 -0.041558735 0.68900007
-0.09273082 -0.042410132 0.6870001
-0.08786276 -0.04295164 0.68677789
-0.082410723 -0.043167859 0.68674999
-0.07721933 -0.043231569 0.68628579
-0.072161235 -0.043222453 0.68614298
-0.067736745 -0.043072246 0.68671435
-0.063149333 -0.043537527 0.68640012
-0.059453338 -0.043773334 0.68600005
-0.10518667 -0.039853334 0.68600005
-0.10245462 -0.039020322 0.68666673
-0.097693153 -0.038580764 0.68660009
-0.093787864 -0.039541192 0.68625003
-0.022465002 -0.056160718 0.69375002
-0.019057143 -0.055857148 0.69000006
-0.072043814 -0.050893337 0.69400001
-0.068078101 -0.050893337 0.69400001
-0.061468575 -0.050893337 0.69400001
-0.050893337 -0.050893337 0.69400001
-0.047147941 -0.051333975 0.69400001
-0.042175237 -0.052014716 0.69290918
-0.037240267 -0.052595064 0.69263643
-0.03278894 -0.052557144 0.69176924
-0.02769905 -0.052764766 0.69250005
-0.022431906 -0.052784044 0.6927501
-0.018612001 -0.053724002 0.69300002
-0.10575239 -0.045605719 0.69400001
-0.10244763 -0.045605719 0.69400001
-0.097437233 -0.046711002 0.69254547
-0.092452787 -0.047436915 0.69175005
-0.087177388 -0.048043579 0.69258344
-0.082620956 -0.047788996 0.69155556
-0.077997051 -0.048355527 0.6917001
-0.072249092 -0.048188139 0.69136369
-0.067367114 -0.048207447 0.69163644
-0.062257692 -0.048885718 0.69228578
-0.0576162 -0.048917148 0.69220006
-0.052857861 -0.049553573 0.69375002
-0.047487147 -0.049464289 0.69250005
-0.042118099 -0.049357146 0.69100004
-0.037457149 -0.049285721 0.69000006
-0.026285715 -0.049285717 0.69000006
-0.024314288 -0.049285717 0.69000006
-0.10626001 -0.044220004 0.69300002
-0.10244448 -0.043059912 0.69130003
-0.098376356 -0.043163024 0.69016671
-0.022601906 -0.060493339 0.69800001
-0.019278096 -0.060493339 0.69800001
-0.088413343 -0.055175241 0.69800001
-0.075118102 -0.055175241 0.69800001
-0.05118667 -0.055175241 0.69800001
-0.047629684 -0.056270011 0.6978333
-0.042577993 -0.057336722 0.69733334
-0.037451703 -0.056982052 0.69685721
-0.032260764 -0.056955624 0.69700003
-0.027594378 -0.057446379 0.69650006
-0.022537144 -0.058332384 0.69600004
-0.018586667 -0.059079051 0.69700003
-0.10037906 -0.05118667 0.69800001
-0.096344456 -0.051162224 0.69766665
-0.092203341 -0.051741432 0.69650006
-0.087497622 -0.0523673 0.69600004
-0.082273029 -0.052417781 0.69666672
-0.077173449 -0.052409206 0.69655555
-0.072749995 -0.052344482 0.69570011
-0.067577235 -0.052508663 0.69627279
-0.062425897 -0.052536022 0.69663644
-0.057461049 -0.052420098 0.69670004
-0.052743215 -0.052248694 0.69662505
-0.047657147 -0.053614292 0.69500011
-0.042494293 -0.05467334 0.69500011
-0.03839048 -0.0549381 0.69500005
-0.033757146 -0.0549381 0.69500005
-0.10625105 -0.048152767 0.69640005
-0.10252201 -0.048543908 0.69630009
-0.09810286 -0.049383339 0.69600004
-0.092666671 -0.049642861 0.69500005
-0.082738101 -0.049642861 0.69500005
-0.016091431 -0.065036193 0.70400006
-0.061013337 -0.061013337 0.70400006
-0.057660952 -0.061013337 0.70400006
-0.051978372 -0.061550893 0.7035715
-0.04751429 -0.061567944 0.7026667
-0.042788573 -0.061509531 0.70200008
-0.03741429 -0.061465245 0.70150006
-0.031909093 -0.062057324 0.70200008
-0.027563948 -0.061708719 0.70100003
-0.022572191 -0.06237448 0.70120001
-0.017831907 -0.062861755 0.70216674
-0.097249299 -0.056408338 0.70300007
-0.092328295 -0.056870766 0.70250005
-0.087460093 -0.056838959 0.70210004
-0.082478285 -0.056681152 0.70180005
-0.077756889 -0.05696727 0.70218182
-0.072189055 -0.056817617 0.70183343
-0.06716691 -0.057479613 0.70175004
-0.062687375 -0.057344638 0.70173335
-0.057492208 -0.057495177 0.70193756
-0.052244361 -0.057678908 0.70071435
-0.047613908 -0.058816958 0.70020002
-0.042444449 -0.059333336 0.70000005
-0.036954291 -0.059100576 0.70040005
-0.033012144 -0.059021194 0.70025003
-0.029333334 -0.059333336 0.70000005
-0.10635894 -0.05251345 0.70237499
-0.10268731 -0.052794602 0.70166665
-0.097634181 -0.053153764 0.70055562
-0.092666678 -0.054000005 0.70000005
-0.079333335 -0.054000005 0.70000005
-0.055333339 -0.054000005 0.70000005
-0.054000005 -0.054000005 0.70000005
-0.052557148 -0.065359533 0.70749998
-0.047167148 -0.065809056 0.70749998
-0.042128336 -0.065719768 0.70775002
-0.037293337 -0.065824449 0.70766675
-0.032105718 -0.066232279 0.70722222
-0.027619684 -0.066692062 0.70733339
-0.023080347 -0.066547014 0.70709091
-0.017628858 -0.067018382 0.70649999
-0.013652382 -0.067366675 0.7050001
-0.10249144 -0.060011432 0.708
-0.097097151 -0.060348574 0.708
-0.080800004 -0.061273336 0.70700002
-0.077488102 -0.061990958 0.70749998
-0.072771437 -0.061990958 0.70749998
-0.067206137 -0.062123392 0.70644444
-0.062208578 -0.062596336 0.70671427
-0.057547897 -0.063121781 0.70614284
-0.052833717 -0.063589536 0.70580006
-0.04771778 -0.063846037 0.70566672
-0.043001428 -0.063830957 0.70550001
-0.037600003 -0.063785717 0.70500004
-0.034242861 -0.063785717 0.70500004
-0.026857145 -0.063785717 0.70500004
-0.023052383 -0.063785717 0.7050001
-0.10631128 -0.057194453 0.70649999
-0.10242502 -0.057297926 0.70627266
-0.098306671 -0.058580004 0.70700002
-0.093270294 -0.059624195 0.70660001
-0.087080956 -0.059624195 0.70660001
-0.082743183 -0.059870165 0.70633334
-0.077885725 -0.059757147 0.70500004
-0.072514288 -0.059757147 0.70500004
-0.069157146 -0.059757147 0.70500004
-0.021080002 -0.075480007 0.71400005
-0.01790667 -0.075480007 0.71400011
-0.014280001 -0.075480007 0.71400005
-0.047600001 -0.071400002 0.71400005
-0.042160004 -0.071400002 0.71400005
-0.037370346 -0.072314024 0.71342868
-0.032669313 -0.072206043 0.71300006
-0.02715381 -0.071954526 0.71275002
-0.022394815 -0.072614498 0.71255571
-0.017709786 -0.072755337 0.71272737
-0.013813971 -0.073145404 0.71333337
-0.1054 -0.065960005 0.71400005
-0.10132001 -0.065960005 0.71400005
-0.097920008 -0.065960005 0.71400005
-0.091800004 -0.065960005 0.71400011
-0.086632006 -0.066232003 0.71400005
-0.082261123 -0.066624604 0.71383333
-0.077439293 -0.066570722 0.71325004
-0.072240412 -0.066618368 0.71271437
-0.067654163 -0.066490076 0.71342868
-0.062430002 -0.066501193 0.7125001
-0.057148576 -0.066987857 0.71225005
-0.052327856 -0.067908816 0.71125001
-0.047426291 -0.068702668 0.71140015
-0.04254847 -0.068758637 0.71166676
-0.038001064 -0.068553872 0.71111113
-0.032773066 -0.069124088 0.71057147
-0.027056906 -0.069672152 0.71025002
-0.021976192 -0.069309533 0.71000004
-0.017919049 -0.069309533 0.71000004
-0.014200001 -0.069647625 0.71000004
-0.10600929 -0.062321194 0.71125001
-0.10276686 -0.062869005 0.71118188
-0.097743124 -0.063131511 0.71136367
-0.092322685 -0.06313169 0.71136373
-0.087646484 -0.062858477 0.71120006
-0.082928769 -0.063282475 0.71140015
-0.077167869 -0.064305954 0.71075004
-0.07235238 -0.064238101 0.71000004
-0.06784445 -0.064238101 0.71000004
-0.063561909 -0.064238101 0.71000004
-0.047433652 -0.07639461 0.71833342
-0.043098733 -0.075938106 0.71833342
-0.027390478 -0.076008573 0.71900004
-0.02282705 -0.076681525 0.71760005
-0.017612953 -0.076868579 0.71680003
-0.014340001 -0.077162862 0.71700001
-0.10066 -0.070530482 0.71900004
-0.096551441 -0.070530489 0.71900004
-0.092997149 -0.070432387 0.71800005
-0.087649524 -0.070530482 0.71900004
-0.08217144 -0.070530482 0.71900004
-0.077522866 -0.070960574 0.71780008
-0.072483823 -0.07111714 0.71799999
-0.067184061 -0.071630247 0.71799999
-0.062683895 -0.071631432 0.71754545
-0.057254035 -0.071677066 0.71799999
-0.052604448 -0.072190695 0.71733338
-0.047794189 -0.073329821 0.71690005
-0.042307623 -0.073697627 0.71650004
-0.037557147 -0.074431434 0.71700001
-0.032518417 -0.074362233 0.71633339
-0.027286429 -0.074353576 0.71625006
-0.10224012 -0.06776274 0.71687502
-0.097626522 -0.068270646 0.71683335
-0.093038641 -0.06801641 0.7165556
-0.087680288 -0.068370357 0.71685719
-0.082625717 -0.068968579 0.71700001
-0.077818811 -0.068944529 0.71675003
-0.07233239 -0.068920486 0.71650004
-0.067540005 -0.068904452 0.71633339
-0.062735245 -0.068872385 0.71600002
-0.058685243 -0.068920478 0.71650004
-0.026854288 -0.08056286 0.72300005
-0.022378575 -0.080907144 0.72300005
-0.018197961 -0.081153065 0.72300011
-0.014460001 -0.08056286 0.72300005
-0.090202861 -0.075054288 0.72300005
-0.087448582 -0.075054288 0.72300005
-0.083317146 -0.075054288 0.72300005
-0.077120006 -0.075054288 0.72300005
-0.072644286 -0.07608714 0.72300005
-0.06746798 -0.077106781 0.72287506
-0.062645562 -0.077102385 0.7228334
-0.057730619 -0.077006541 0.72285724
-0.052554566 -0.077112116 0.722
-0.048685718 -0.077485718 0.72000003
-0.042172574 -0.077340573 0.72120011
-0.037395649 -0.077051178 0.72142869
-0.032561433 -0.077490203 0.72130007
-0.027481312 -0.078322023 0.72137505
-0.022701908 -0.079112701 0.72233343
-0.017867144 -0.079021432 0.72150004
-0.014400001 -0.078857146 0.72000003
-0.10535143 -0.070922859 0.72300005
-0.10267239 -0.071611434 0.72160006
-0.097466953 -0.072340146 0.72142863
-0.092280477 -0.072691672 0.72175002
-0.08767768 -0.072264768 0.72111118
-0.082184769 -0.073027514 0.72111118
-0.077304289 -0.073181435 0.7215001
-0.072363183 -0.073965721 0.72133338
-0.067751437 -0.074389532 0.72100008
-0.06251429 -0.074881278 0.72133338
-0.058108576 -0.074593149 0.72120005
-0.053485718 -0.074742861 0.72000003
-0.10520572 -0.069449529 0.72200006
-0.10491429 -0.067885719 0.72000003
-0.046517145 -0.085397147 0.72900003
-0.042351436 -0.085397147 0.72900003
-0.03749143 -0.085397147 0.72900003
-0.032617148 -0.085358106 0.72866672
-0.02734 -0.08562801 0.72860003
-0.022107407 -0.086192288 0.72788894
-0.017551906 -0.086146519 0.72750008
-0.01373924 -0.086738862 0.72860003
-0.076371431 -0.081231438 0.72900003
-0.072344579 -0.081509158 0.72900003
-0.067345716 -0.081578583 0.72900003
-0.062240481 -0.081675723 0.72883338
-0.057586193 -0.081870012 0.72850007
-0.052402098 -0.082208201 0.72780007
-0.047359139 -0.082674988 0.72836369
-0.042540859 -0.082313433 0.72750002
-0.037372068 -0.082357466 0.72666663
-0.032487411 -0.082255878 0.72577775
-0.027879791 -0.082716405 0.72577775
-0.022561114 -0.083106518 0.72516674
-0.016939048 -0.083317623 0.72600007
-0.014077779 -0.083317786 0.72700012
-0.10615286 -0.076319531 0.72850001
-0.10237876 -0.076715149 0.72830003
-0.097332999 -0.077428237 0.72763634
-0.092724361 -0.077503823 0.72657144
-0.087384678 -0.078328237 0.72663635
-0.082612865 -0.078049444 0.72649997
-0.077493817 -0.07818763 0.72649997
-0.072247222 -0.078969397 0.72642863
-0.067253344 -0.079733342 0.72800004
-0.062358573 -0.07967858 0.72750002
-0.057714052 -0.079141669 0.72574997
-0.052495003 -0.079432145 0.72525001
-0.047665399 -0.079441272 0.72533339
-0.042824049 -0.079432145 0.72525007
-0.037285715 -0.079404764 0.72500002
-0.10608001 -0.074186675 0.72800004
-0.10222596 -0.073906437 0.72525001
-0.098738104 -0.073880956 0.72500002
-0.031457145 -0.090177149 0.73400003
-0.026563812 -0.090177149 0.73400003
-0.021670477 -0.091575243 0.73400003
-0.017476194 -0.09157525 0.73400009
-0.013953811 -0.091388099 0.73250002
-0.076895237 -0.085982859 0.73400003
-0.072650962 -0.08592429 0.7335
-0.065011434 -0.085982859 0.73400003
-0.062215246 -0.085982859 0.73400003
-0.056978781 -0.086515114 0.73342866
-0.052129764 -0.086999767 0.73225003
-0.047645193 -0.08762233 0.7321111
-0.042534769 -0.087861121 0.73216671
-0.037663456 -0.087885834 0.73237503
-0.032789052 -0.087900802 0.73250002
-0.028167758 -0.087888584 0.73157144
-0.022394968 -0.089282051 0.7315715
-0.017180637 -0.088921279 0.73133337
-0.01416254 -0.088920645 0.73133337
-0.10257335 -0.080942869 0.73266673
-0.097879618 -0.081845723 0.73200005
-0.092324771 -0.083024874 0.73255569
-0.08774744 -0.082728006 0.7324
-0.082367107 -0.082876205 0.73236364
-0.077567488 -0.083342999 0.73185718
-0.072346672 -0.083691701 0.73142856
-0.067585908 -0.083751246 0.73160005
-0.062974609 -0.083890162 0.73200005
-0.057783812 -0.084239051 0.73100007
-0.05430286 -0.084239051 0.73100001
-0.10512477 -0.078669526 0.73100001
-0.10373238 -0.078669526 0.73100001
-0.030967621 -0.095014289 0.73900002
-0.028856192 -0.095014289 0.73900002
-0.021818096 -0.095014289 0.73900002
-0.085864767 -0.090791434 0.73900002
-0.082345724 -0.090791434 0.73900002
-0.078826673 -0.090791434 0.73900002
-0.066158101 -0.090791434 0.73900002
-0.062290478 -0.091256194 0.73820001
-0.057634287 -0.091372386 0.73800004
-0.0526908 -0.091331445 0.73766673
-0.047495559 -0.091482863 0.73700005
-0.042347278 -0.091914028 0.73772728
-0.037234291 -0.091331445 0.73766673
-0.032360613 -0.092101045 0.73718184
-0.027361907 -0.092844024 0.73666668
-0.022681376 -0.093453445 0.73655558
-0.017535716 -0.093991905 0.73650002
-0.014730001 -0.093991905 0.73650002
-0.1019616 -0.086490482 0.7383334
-0.096826099 -0.086991049 0.73780006
-0.092161179 -0.087480336 0.73744446
-0.087308578 -0.087779686 0.73733336
-0.082653254 -0.087633871 0.73718184
-0.077748217 -0.088105135 0.73712498
-0.072034292 -0.088324964 0.73720008
-0.067541048 -0.087823302 0.73663646
-0.062421095 -0.088071443 0.73642868
-0.057914861 -0.088764779 0.73620003
-0.053973336 -0.08902096 0.73600006
-0.10197409 -0.08430057 0.73640007
-0.09743239 -0.084815249 0.73600006
-0.09462858 -0.084815241 0.73600006
-0.087619051 -0.084815241 0.73600006
-0.082011431 -0.084815241 0.73600006
-0.013444763 -0.10189715 0.74300003
-0.085621908 -0.09552858 0.74300003
-0.084206671 -0.09552858 0.74300003
-0.070054293 -0.09552858 0.74300003
-0.067223817 -0.095528588 0.74300003
-0.062270477 -0.09552858 0.74300003
-0.057317149 -0.095528588 0.74300003
-0.052363813 -0.09552858 0.74300003
-0.046994291 -0.095753819 0.74200004
-0.042314395 -0.096329205 0.74188894
-0.037486989 -0.096900955 0.74266672
-0.033223812 -0.096847385 0.74225003
-0.027587859 -0.097265005 0.74275005
-0.02263274 -0.097602509 0.74262506
-0.018019525 -0.097167149 0.74200004
-0.014146033 -0.098315567 0.74266672
-0.10118953 -0.091282859 0.74300003
-0.09751334 -0.091854297 0.74271435
-0.092532389 -0.091826364 0.74166673
-0.087897815 -0.092844486 0.74190009
-0.082605079 -0.093196832 0.74133337
-0.077746794 -0.092589885 0.74212503
-0.072493814 -0.09270411 0.74190003
-0.067847528 -0.09263441 0.74122226
-0.062576011 -0.093654111 0.7416001
-0.05713588 -0.093817793 0.74066675
-0.052223813 -0.093860015 0.74100006
-0.047923811 -0.093733341 0.74000001
-0.04017143 -0.093733341 0.74000001
-0.037352383 -0.093733341 0.74000001
-0.10172644 -0.089010715 0.74175006
-0.097859368 -0.089155875 0.74100006
-0.093733341 -0.089504771 0.74000001
-0.089504771 -0.089504771 0.74000001
-0.075409532 -0.089504771 0.74000001
-0.074000008 -0.089504771 0.74000001
-0.027782859 -0.10614477 0.74800003
-0.022796191 -0.10614477 0.74800003
-0.017801588 -0.10609747 0.74766672
-0.050579052 -0.10044572 0.74800003
-0.042249527 -0.10087588 0.74766672
-0.03748776 -0.10129075 0.74671441
-0.032801732 -0.10177283 0.74727285
-0.027970482 -0.10140587 0.74757159
-0.022769526 -0.10246512 0.74712503
-0.017793652 -0.10249286 0.74733341
-0.014940001 -0.10315716 0.7470001
-0.097553343 -0.096128576 0.74766672
-0.092889525 -0.096302107 0.74680007
-0.087980956 -0.095785722 0.74500006
-0.081666991 -0.095871441 0.74566674
-0.077580325 -0.09608572 0.74733341
-0.072819211 -0.096776679 0.74716675
-0.067676201 -0.097596198 0.74800003
-0.062689528 -0.097596198 0.74800003
-0.057417911 -0.098166101 0.74800009
-0.052672502 -0.098226801 0.74737507
-0.047873717 -0.098162107 0.74580008
-0.042847943 -0.098712072 0.74566674
-0.03121905 -0.09862382 0.74500006
-0.02767143 -0.09862382 0.74500006
-0.017028574 -0.09862382 0.74500006
-0.10159715 -0.093429059 0.74600005
-0.097690962 -0.094138578 0.74600005
-0.092947625 -0.09436667 0.74500006
-0.076628581 -0.09436667 0.74500006
-0.056654289 -0.10542002 0.75300002
-0.0523054 -0.1060435 0.75233334
-0.047356367 -0.1066343 0.75236374
-0.042171001 -0.10734937 0.75281829
-0.038163334 -0.10696286 0.75250006
-0.032142859 -0.10642859 0.75000012
-0.029285716 -0.10642858 0.75000006
-0.096336201 -0.10159525 0.75300002
-0.09251143 -0.10111715 0.75300002
-0.087730482 -0.10111716 0.75300002
-0.08247143 -0.10111716 0.75300002
-0.077413216 -0.10178393 0.75262499
-0.072216071 -0.10232178 0.75262499
-0.067249909 -0.10238116 0.75280011
-0.062370479 -0.10233859 0.75275004
-0.057270803 -0.10237096 0.75166667
-0.052374531 -0.10242452 0.75075001
-0.047583431 -0.10231334 0.75020003
-0.04302324 -0.10305525 0.75040001
-0.036714293 -0.10414287 0.75000006
-0.031190481 -0.10452382 0.75000012
-0.02757143 -0.10442858 0.75000006
-0.10141557 -0.097120963 0.75166672
-0.097358733 -0.098791443 0.75166672
-0.092265718 -0.098703824 0.75100005
-0.087288097 -0.098736912 0.75125003
-0.082252391 -0.098703824 0.75100011
-0.077479199 -0.098711304 0.7502858
-0.072500005 -0.098928578 0.75000006
-0.067186192 -0.099351913 0.75050008
-0.06214286 -0.099285722 0.75000012
-0.059285719 -0.099285722 0.75000006
-0.06632857 -0.11030573 0.75700003
-0.062640004 -0.11016002 0.75600004
-0.057543576 -0.11005072 0.75525004
-0.037680004 -0.11064001 0.75600004
-0.10008001 -0.10584 0.75600004
-0.09686096 -0.10636001 0.75560009
-0.092372619 -0.1068069 0.75774997
-0.087234609 -0.10670127 0.75700009
-0.08265797 -0.10694913 0.75657147
-0.078235604 -0.10665227 0.75537509
-0.072623812 -0.10570001 0.75500005
-0.067070581 -0.10688201 0.75544447
-0.062566355 -0.10715408 0.75511122
-0.057772279 -0.10763344 0.75511122
-0.052513655 -0.10862415 0.75533342
-0.036687624 -0.10862415 0.75533342
-0.10264496 -0.10250076 0.75580007
-0.098002866 -0.10321763 0.7552501
