# .PCD v0.7 - Point Cloud Data file format
VERSION 0.7
FIELDS x y z
SIZE 4 4 4
TYPE F F F
COUNT 1 1 1
WIDTH 1325
HEIGHT 1
VIEWPOINT 0 0 0 1 0 0 0
POINTS 1325
DATA ascii
-0.017293921 -0.017973188 0.66123086
-0.012598969 -0.018268494 0.66141677
-0.0075528575 -0.018252701 0.66083336
-0.0023351703 -0.017871497 0.66007137
0.002515893 -0.017608989 0.66031241
0.0075129531 -0.017754352 0.66100007
0.012453701 -0.017204911 0.66146165
0.01763159 -0.017003017 0.66116673
0.021420162 -0.017011905 0.6615001
-0.080822863 -0.014522858 0.66300005
-0.076690003 -0.012796124 0.66235721
-0.072386272 -0.012587699 0.66091681
-0.068693884 -0.011583675 0.66000009
-0.016355716 -0.014468096 0.66050005
-0.001257143 -0.014457144 0.66000003
0.001257143 -0.014457144 0.66000003
0.01864762 -0.012780953 0.66000003
0.021281635 -0.012840817 0.66000009
-0.076402865 -0.0094714295 0.66300005
-0.071964927 -0.0086271446 0.66283345
-0.067689523 -0.0078967037 0.6613847
-0.063318364 -0.0069199144 0.66063637
-0.059085719 -0.0056571434 0.66000003
0.01917143 -0.0078571429 0.66000003
-0.066300005 -0.0044200001 0.66300005
-0.062211912 -0.0027753336 0.66250008
-0.058206055 -0.0023382995 0.66121435
-0.054266673 -0.0010476192 0.66000003
-0.061248574 0.00063142861 0.66300005
-0.05767867 0.00088361913 0.66260004
-0.052933656 0.0018922223 0.66166675
-0.04818913 0.0030462705 0.66141671
-0.044232067 0.0039831749 0.6603334
-0.047347214 0.0064032655 0.66285723
-0.043101322 0.0072255689 0.66176939
-0.038102861 0.0084548583 0.66240007
-0.033006672 0.008903265 0.66100007
-0.037073877 0.011636328 0.66300005
-0.032806728 0.01261887 0.66243762
-0.028017703 0.0131177 0.66108346
-0.024514288 0.014457144 0.66000003
-0.031571429 0.016417144 0.66300005
-0.027579324 0.017395105 0.66242868
-0.023002569 0.017966377 0.66100007
-0.01761036 0.018868215 0.660375
-0.0132 0.019485716 0.66000003
-0.01766762 0.02082143 0.66250002
-0.012291588 0.022167621 0.66183347
-0.0076794294 0.022785718 0.66086674
-0.0029333336 0.024095241 0.66000009
0.00062857149 0.024514288 0.66000003
-0.0066914293 0.026385907 0.66280001
-0.0022080955 0.02723032 0.66233343
0.0023930799 0.027843626 0.66140008
0.0068160184 0.027552124 0.66154552
0.0044200001 0.030940002 0.66300005
-0.09748286 -0.026122859 0.66900003
-0.09174858 -0.026122859 0.66900003
-0.088138103 -0.026122859 0.66900003
-0.082768105 -0.026528098 0.66850007
-0.077567548 -0.027340878 0.66758341
-0.072649278 -0.027223466 0.6675455
-0.067353547 -0.02692857 0.66788888
-0.062686674 -0.026657823 0.66871434
-0.05689048 -0.026534606 0.66866678
-0.052167617 -0.026720952 0.6680001
-0.047130242 -0.02675024 0.66875005
-0.042051431 -0.026122859 0.66900003
-0.036723815 -0.026959367 0.66866678
-0.033065401 -0.026495557 0.66766679
-0.028270617 -0.026635511 0.66814291
-0.022937145 -0.026122859 0.66900003
-0.014017144 -0.026122859 0.66900003
-0.0078580966 -0.026122859 0.66900003
-0.0031857146 -0.026547622 0.66900003
-0.09748286 -0.022937147 0.66900009
-0.092683278 -0.022625718 0.66785705
-0.087597862 -0.022853216 0.66649997
-0.083076075 -0.023782263 0.66587502
-0.077266678 -0.024700001 0.66500002
-0.071905337 -0.024475619 0.66580003
-0.067267492 -0.024172792 0.66542858
-0.062171072 -0.024107978 0.66612506
-0.057233229 -0.023924656 0.66688889
-0.051558707 -0.023446843 0.66536361
-0.046948869 -0.022842204 0.66618747
-0.042433612 -0.023898641 0.66785723
-0.037498418 -0.02415143 0.66733348
-0.032632194 -0.024505714 0.66660005
-0.027934408 -0.024125833 0.66662502
-0.023061588 -0.023907937 0.66644448
-0.017527429 -0.023752762 0.66680002
-0.012865456 -0.022676019 0.66636372
-0.0076145241 -0.022844883 0.66624993
-0.0025395243 -0.02313585 0.66678578
0.0025423812 -0.02265159 0.66683334
0.0080322092 -0.022713248 0.66745454
0.01258197 -0.02275048 0.66719997
0.017616613 -0.021861272 0.66855562
0.021025715 -0.021025715 0.66900003
-0.098757148 -0.01975143 0.66900003
-0.092094094 -0.018189525 0.66780007
-0.087894373 -0.017422127 0.66615385
-0.0836 -0.015833335 0.66500002
0.013300002 -0.019633334 0.66500008
0.017740238 -0.019640716 0.66525
0.02222286 -0.019682541 0.66666669
-0.091445409 -0.014214922 0.66833341
-0.087431654 -0.013061541 0.6678462
-0.082666606 -0.012416805 0.66621429
-0.079166673 -0.011400001 0.66500002
-0.082373723 -0.0092937155 0.66840011
-0.077464484 -0.0076178098 0.66670001
-0.072798699 -0.0065015485 0.666125
-0.06903334 -0.0057000006 0.66500002
-0.075820006 -0.0044600004 0.66900003
-0.072184339 -0.0028861538 0.66800004
-0.067389533 -0.0020976558 0.66607696
-0.064014763 -0.0012671429 0.66550004
-0.070722863 0.00063714292 0.66900003
-0.067258097 0.0014860319 0.66833341
-0.062302496 0.0026894505 0.667
-0.057579055 0.0034543921 0.66600001
-0.05256667 0.0044333334 0.66500008
-0.060528576 0.0057342863 0.66900003
-0.05699715 0.0062730624 0.66814291
-0.0519192 0.0075731147 0.66669232
-0.047946673 0.0086603183 0.66533339
-0.042011112 0.009077779 0.66500008
-0.05033429 0.01083143 0.66900003
-0.046714723 0.012377438 0.66769236
-0.042224903 0.012897008 0.66742873
-0.038328715 0.01332109 0.66600007
-0.045237146 0.015928572 0.66900003
-0.042051435 0.015928572 0.66900003
-0.037037145 0.017565716 0.66820014
-0.033275932 0.018051863 0.66609091
-0.029155716 0.019648097 0.66550004
-0.032089662 0.022090482 0.66814297
-0.028033083 0.022775687 0.66793329
-0.022871014 0.022873756 0.6670624
-0.01778008 0.023496587 0.66675007
-0.013622144 0.02439262 0.66525
-0.021025715 0.026122859 0.66900003
-0.017712573 0.026377717 0.66900009
-0.012265864 0.027805937 0.66700006
-0.008010909 0.028528312 0.66563636
-0.0034845239 0.029461192 0.66525
0.0090920646 0.029388575 0.66600001
-0.01083143 0.031220002 0.66900003
-0.0073635383 0.031718917 0.6680001
-0.0025415877 0.032390796 0.6668334
0.0024097778 0.033104766 0.66586667
0.0075232657 0.03271905 0.66614282
0.010799048 0.031761907 0.66700006
-0.0012742858 0.03504286 0.66900003
0.0029733337 0.036741905 0.66900009
0.007554695 0.036135104 0.66900009
-0.11714762 -0.030490477 0.67400002
-0.11254731 -0.030597463 0.67400002
-0.10776097 -0.030789051 0.6735
-0.10241067 -0.03126606 0.67245454
-0.097375721 -0.031392701 0.67266667
-0.092228904 -0.031384923 0.67250001
-0.087273158 -0.031499479 0.67245454
-0.082448572 -0.031400476 0.67283332
-0.077363506 -0.031968892 0.67133331
-0.072709732 -0.031771746 0.67166662
-0.067823499 -0.031353019 0.67183328
-0.062994085 -0.030964024 0.67266667
-0.057423681 -0.030681364 0.67314285
-0.052543249 -0.031398095 0.6728
-0.047508813 -0.031709287 0.67258328
-0.042239368 -0.031361274 0.67200005
-0.037555717 -0.030514766 0.67216671
-0.031422861 -0.030781588 0.67333335
-0.027296001 -0.03152724 0.6728
-0.022883639 -0.031270131 0.67254543
-0.018740717 -0.031235952 0.67275
-0.007691429 -0.030124765 0.67299998
-0.0031980954 -0.030080004 0.67200005
0.0083340481 -0.030456906 0.67325002
0.013035874 -0.030124765 0.67300004
-0.1200362 -0.028243812 0.67400002
-0.11718329 -0.027459264 0.67400002
-0.1128661 -0.02734198 0.67246151
-0.10740073 -0.027489923 0.67125005
-0.10217144 -0.02745921 0.67050004
-0.096889637 -0.027896404 0.6707778
-0.092468575 -0.027947858 0.67075002
-0.087770954 -0.027767863 0.67025006
-0.082993656 -0.028303176 0.67033339
-0.07784763 -0.029990477 0.67000002
-0.072742864 -0.029671431 0.67000002
-0.067883506 -0.028728575 0.67033339
-0.062243242 -0.028501907 0.671
-0.057912067 -0.028317463 0.67066669
-0.051957149 -0.028978098 0.67020005
-0.047091432 -0.028969526 0.67000002
-0.042132668 -0.027706003 0.67030007
-0.037647624 -0.028203813 0.67000002
-0.03222381 -0.028395241 0.67000002
-0.027693337 -0.028459048 0.67000002
-0.022992501 -0.028102741 0.67062503
-0.01791032 -0.027507778 0.67166674
-0.012166668 -0.027531192 0.67225003
-0.0075915349 -0.027882332 0.67044449
-0.0023406351 -0.027735982 0.67033339
0.0025593655 -0.027514925 0.6718334
0.007671827 -0.027497066 0.6714167
0.012722639 -0.027653631 0.67046165
0.017921273 -0.027520955 0.67200005
0.022265308 -0.026845446 0.6734286
-0.11239117 -0.023043951 0.67214286
-0.10739078 -0.023011252 0.6711874
-0.10217179 -0.022987977 0.67050004
-0.095076196 -0.024885716 0.67000002
-0.093800008 -0.024885716 0.67000002
-0.041476194 -0.02424762 0.67000002
-0.01212381 -0.024885718 0.67000002
0.0025523813 -0.024460319 0.67000002
0.0070190481 -0.024885718 0.67000002
0.014676192 -0.024885716 0.67000002
0.018151974 -0.024354698 0.67042863
0.022039289 -0.023317382 0.67075002
-0.11169144 -0.01989905 0.67400002
-0.10718037 -0.019063931 0.67287505
-0.10250554 -0.017936012 0.67268747
-0.097104564 -0.017612724 0.67078567
-0.093800008 -0.017228574 0.67000002
-0.10142096 -0.014763811 0.67400002
-0.097224332 -0.013571516 0.67281818
-0.09297768 -0.012286879 0.67122227
-0.089546047 -0.011273017 0.67000002
-0.091116957 -0.0088419057 0.67280006
-0.087167107 -0.007964504 0.6716364
-0.082613729 -0.00690381 0.67140001
-0.07784763 -0.0057428577 0.67000002
-0.080903143 -0.0032057145 0.6734286
-0.07749404 -0.0023818184 0.67145461
-0.074268892 -0.0010638096 0.67033339
-0.076562874 0.001925397 0.67366666
-0.072787039 0.002512601 0.67176926
-0.067983821 0.0039244904 0.67071432
-0.064447626 0.0044666668 0.67000002
-0.067656763 0.0060339053 0.67400002
-0.062747352 0.0076855798 0.67228574
-0.057717886 0.0087326998 0.6708889
-0.054278575 0.0089404769 0.67050004
-0.062264767 0.010912383 0.67400002
-0.05716262 0.011690001 0.67250001
-0.052459728 0.01279592 0.67171425
-0.048707943 0.014250795 0.67000002
-0.050660323 0.017315557 0.67333335
-0.047385518 0.017931772 0.6723572
-0.04219405 0.018540557 0.67124999
-0.038498417 0.019355558 0.67000002
-0.040827941 0.021589844 0.67333335
-0.036939051 0.022675609 0.67138469
-0.033053335 0.024120001 0.67000002
-0.027438097 0.024885716 0.67000002
-0.035304762 0.025034288 0.67400002
-0.031632762 0.026512384 0.67240006
-0.02751196 0.02751196 0.67177778
-0.023161301 0.027573423 0.67045462
-0.017870359 0.028400596 0.67012507
-0.014676192 0.028076192 0.67000002
-0.026061336 0.03119657 0.67400002
-0.022676002 0.031261142 0.67259997
-0.017966351 0.032136638 0.67213327
-0.013109922 0.032506593 0.6714167
-0.0080400007 0.033563811 0.67000002
-0.017331429 0.035304762 0.67400002
-0.011329524 0.035697781 0.67333335
-0.0075012934 0.036867693 0.6723572
-0.0027387762 0.03733198 0.67085719
0.0021269845 0.038498417 0.67000002
0.0079326537 0.038385175 0.67014289
0.010855715 0.038314763 0.67050004
-0.0057771434 0.040440004 0.67400002
-0.0020852382 0.041212384 0.67349994
0.0027447625 0.041994967 0.67242855
0.0077346531 0.041926593 0.67246151
0.01128381 0.040666036 0.67066669
0.0032095241 0.045575242 0.67400002
-0.13515334 -0.035566669 0.67900002
-0.13321334 -0.035566669 0.67900002
-0.12933335 -0.035566669 0.67900002
-0.12286668 -0.035566669 0.67900002
-0.11704667 -0.035566669 0.67900002
-0.11187335 -0.035566669 0.67900008
-0.10730763 -0.036200244 0.67874998
-0.10250413 -0.035962861 0.6783334
-0.097502857 -0.035514288 0.67800009
-0.092676386 -0.035804387 0.67860001
-0.087702334 -0.03641725 0.67877775
-0.08271239 -0.036187146 0.6785
-0.078458868 -0.036063053 0.67860001
-0.071745403 -0.035549209 0.67866671
-0.067127392 -0.035501193 0.67774999
-0.062080007 -0.036213338 0.67899996
-0.057370715 -0.03668524 0.67874998
-0.053207517 -0.036405616 0.67855555
-0.047673814 -0.036564477 0.67830002
-0.042715766 -0.036840785 0.67863637
-0.037485596 -0.036193691 0.67862499
-0.032327022 -0.036206789 0.67887497
-0.027431568 -0.036113478 0.67885715
-0.022249525 -0.036098506 0.67857146
-0.018106669 -0.035566669 0.67900002
-0.008406667 -0.035566669 0.67900002
0.0038800002 -0.035566669 0.67900002
-0.13541201 -0.032462668 0.67900002
-0.13248564 -0.032313257 0.67858332
-0.12773393 -0.032258209 0.67737496
-0.12235853 -0.032201845 0.67618752
-0.11726304 -0.032962084 0.67618197
-0.11260894 -0.033349644 0.67662501
-0.10790709 -0.033394154 0.67614293
-0.10304745 -0.03383448 0.67540002
-0.097750247 -0.034084052 0.67524999
-0.092639059 -0.034096669 0.67550004
-0.087688573 -0.034172386 0.67700005
-0.082407624 -0.034121908 0.67600006
-0.077397391 -0.034185 0.67725003
-0.072268099 -0.034197621 0.67750007
-0.066881195 -0.034084052 0.67525005
-0.062172119 -0.033621091 0.67699999
-0.057953697 -0.033163454 0.67612511
-0.053147435 -0.033844572 0.67560005
-0.047447942 -0.034138735 0.67633337
-0.042523336 -0.034147143 0.67650008
-0.037105527 -0.033113144 0.67640013
-0.032609809 -0.032999527 0.67670006
-0.027120002 -0.03422286 0.67800003
-0.022577781 -0.034189209 0.67733335
-0.017235002 -0.033021905 0.67650002
-0.012903991 -0.032261487 0.6774376
-0.0077413497 -0.032897066 0.67725003
-0.0023634923 -0.032024451 0.67699999
0.0025769644 -0.032214224 0.6764375
0.0072217998 -0.032252911 0.67577791
0.012959864 -0.032262452 0.67557156
0.017860087 -0.031448316 0.67636365
0.022305811 -0.031719524 0.67690009
0.026057463 -0.031225398 0.67833328
-0.13256668 -0.029100005 0.67900008
-0.12771069 -0.027245531 0.67793339
-0.12263954 -0.026862791 0.6762144
-0.11855875 -0.025512382 0.67533338
-0.014142858 -0.028928574 0.67500001
0.023357145 -0.028500002 0.67500007
0.025810953 -0.029035717 0.67750001
-0.12674667 -0.023926668 0.67900002
-0.12228392 -0.022905292 0.67855555
-0.11778126 -0.021867692 0.67692322
-0.11549763 -0.019355714 0.67750001
-0.11238401 -0.017804192 0.67740005
-0.10802683 -0.01693254 0.67516673
-0.11058 -0.014873334 0.67900002
-0.1067846 -0.013993176 0.67816675
-0.10266906 -0.012880096 0.67630011
-0.09815868 -0.01119219 0.67540002
-0.10123848 -0.0091798101 0.67880005
-0.097288452 -0.0085498821 0.677625
-0.093198024 -0.0071947197 0.67572737
-0.088071436 -0.0057857148 0.67500007
-0.092556097 -0.0035177784 0.67855555
-0.087688692 -0.0025763097 0.67700005
-0.083283402 -0.0020721697 0.67555559
-0.08697667 0.00096999999 0.67900002
-0.082451306 0.0023068031 0.67785722
-0.078077033 0.0033817859 0.67612505
-0.077178389 0.0069812387 0.67869997
-0.072406486 0.0078760646 0.67760003
-0.067799412 0.0085365484 0.67637503
-0.064928576 0.0096428581 0.67500001
-0.070917785 0.011424446 0.67900008
-0.066947863 0.012701826 0.67808336
-0.062490653 0.01341446 0.67645466
-0.058206398 0.013885852 0.67585725
-0.05464286 0.014785715 0.67500001
-0.061433341 0.016813336 0.67900002
-0.05734463 0.017083677 0.67871433
-0.053258479 0.01766762 0.67700005
-0.049500003 0.019928573 0.67500001
-0.052380007 0.020477779 0.67900008
-0.047783971 0.022601116 0.67800009
-0.043000747 0.022823598 0.67611116
-0.039214287 0.023785716 0.67500001
-0.045913335 0.025220001 0.67900002
-0.042101588 0.026180107 0.67777777
-0.037378103 0.027286496 0.67772734
-0.032481637 0.028432112 0.6762858
-0.035566669 0.031040002 0.67900002
-0.032033999 0.031386573 0.67810005
-0.027720481 0.032880481 0.67690003
-0.022511749 0.034088258 0.67533338
-0.025220001 0.035566669 0.67900002
-0.021320358 0.03698869 0.67837501
-0.017631747 0.037417151 0.67733335
-0.013228499 0.037702348 0.67623085
-0.0090000005 0.039214287 0.67500001
-0.017460002 0.040740002 0.67900002
-0.012018287 0.041221336 0.67840004
-0.0078673661 0.042685777 0.67700005
-0.0030561907 0.043586191 0.67550009
0.0012857143 0.044357147 0.67500001
0.0075000003 0.043928575 0.67500007
-0.0067900005 0.046236672 0.67900002
-0.0023680427 0.046691854 0.67777777
0.0025190478 0.047161818 0.67663646
0.0066538109 0.046796672 0.67616671
-0.15048002 -0.041040003 0.68400002
-0.14722286 -0.041040003 0.68400002
-0.14222859 -0.041040003 0.68400002
-0.13745145 -0.041040003 0.68400002
-0.13224001 -0.041040003 0.68400002
-0.11204572 -0.041040003 0.68400002
-0.10732859 -0.040980004 0.68300003
-0.10290655 -0.041683935 0.68387502
-0.09771429 -0.041040003 0.68400002
-0.092359342 -0.042076293 0.68390006
-0.087640643 -0.041434288 0.6833334
-0.081749797 -0.04157266 0.68357152
-0.077167727 -0.042453866 0.6834445
-0.072871596 -0.04229207 0.68316668
-0.067866512 -0.042390004 0.68300003
-0.062434647 -0.041623458 0.6828751
-0.056808256 -0.041414291 0.68300009
-0.051662482 -0.04125258 0.68320006
-0.047710616 -0.04194491 0.68357152
-0.042900242 -0.041600958 0.68250006
-0.037761785 -0.041668933 0.68362504
-0.032571431 -0.04147429 0.68400002
-0.027620573 -0.042082291 0.68400002
-0.022140715 -0.042327862 0.68375003
-0.017833715 -0.041525152 0.68340009
-0.013447145 -0.041424289 0.68316668
-0.0091200005 -0.041040003 0.68400002
-0.15166444 -0.0376052 0.68400002
-0.14710234 -0.037752323 0.68343741
-0.14228609 -0.037887551 0.68315393
-0.13774294 -0.037685923 0.68221432
-0.13272208 -0.03820103 0.68338472
-0.12757143 -0.038059048 0.68261546
-0.12255482 -0.038216453 0.68218184
-0.11758654 -0.03796177 0.68214279
-0.11279456 -0.037954897 0.68172735
-0.10770287 -0.038929764 0.68124998
-0.10248363 -0.038627427 0.68280005
-0.097584054 -0.038384046 0.68308342
-0.092546672 -0.03860553 0.68240011
-0.087382868 -0.03915048 0.68133342
-0.082721367 -0.038814425 0.68085724
-0.077446073 -0.038281739 0.6812728
-0.072847776 -0.038097002 0.68153852
-0.06743525 -0.038257942 0.68083328
-0.062217623 -0.038886193 0.68049997
-0.057379056 -0.039245721 0.68000001
-0.052534293 -0.038915239 0.68100011
-0.048139688 -0.03907302 0.68000001
-0.042613339 -0.038986668 0.68000001
-0.03757548 -0.038871672 0.68024999
-0.03248667 -0.038986433 0.68225008
-0.027054394 -0.038743708 0.68177783
-0.021850266 -0.038724344 0.68144447
-0.017376384 -0.037996575 0.68080002
-0.012962383 -0.03759072 0.68050003
-0.0078804772 -0.037647009 0.68150008
-0.0026026985 -0.037087467 0.68316668
0.0023396192 -0.037306674 0.68240005
0.0078011118 -0.037051748 0.68250006
0.012702858 -0.036154289 0.68400002
0.017585505 -0.037125614 0.68388891
0.022124369 -0.037091993 0.68325007
0.027116617 -0.036662225 0.6833334
0.030594762 -0.036453813 0.68350005
-0.15145716 -0.034200002 0.68400002
-0.14695831 -0.033645928 0.68377781
-0.14231758 -0.032696452 0.68290919
-0.13813508 -0.032339394 0.6803636
-0.0025904763 -0.034323812 0.68000001
0.008419048 -0.034323812 0.68000001
0.013024524 -0.034513097 0.68375003
0.017553654 -0.034458414 0.68266672
0.022019049 -0.034323812 0.68000001
0.027570358 -0.033570595 0.68112504
0.030572383 -0.033825718 0.68300003
-0.14092574 -0.028445717 0.68400002
-0.13725889 -0.02762286 0.68250006
-0.13285354 -0.026490858 0.68180001
-0.13680002 -0.024102859 0.68400002
-0.13242525 -0.023662701 0.68383336
-0.12728734 -0.02168867 0.68190008
-0.12324991 -0.020865144 0.68040007
-0.1263312 -0.018233096 0.68375003
-0.12224564 -0.017555637 0.68275011
-0.11759692 -0.017354526 0.68125004
-0.11414953 -0.016214287 0.68099999
-0.12094858 -0.014548573 0.68400002
-0.11718369 -0.013019593 0.68357152
-0.11278898 -0.012999922 0.68258345
-0.10822117 -0.012039365 0.68133336
-0.10426667 -0.011009525 0.68000001
-0.11165487 -0.009510858 0.68400002
-0.10718584 -0.0086194053 0.68312502
-0.10293057 -0.0072768587 0.68230003
-0.098366432 -0.0061673811 0.68175
-0.10140572 -0.0041257148 0.68400002
-0.097622938 -0.0026027896 0.68335718
-0.093241192 -0.00097452389 0.68225002
-0.096802294 0.0011725714 0.68400002
-0.09222082 0.0023247623 0.68328577
-0.087498531 0.0035361904 0.68166667
-0.083542861 0.0045333337 0.68000001
-0.092046522 0.0062957155 0.68383336
-0.087244414 0.0065108342 0.68362504
-0.082247555 0.0079944907 0.68307149
-0.078000955 0.0091009531 0.68250006
-0.077180959 0.012514711 0.6835556
-0.073170625 0.013355972 0.68269241
-0.069032073 0.014500001 0.68166673
-0.071874291 0.017154288 0.68400002
-0.067601755 0.017550953 0.68250006
-0.062972389 0.018178731 0.68166673
-0.058370478 0.018808573 0.68099999
-0.071005717 0.020194286 0.68400002
-0.067724526 0.020186907 0.68375003
-0.062565319 0.020731566 0.68328583
-0.057074226 0.021845512 0.68321431
-0.052784406 0.02290036 0.68212509
-0.055371433 0.025405716 0.68400002
-0.051781636 0.027146395 0.68328583
-0.047514379 0.027448228 0.68172729
-0.043455653 0.028445037 0.68100005
-0.038857147 0.029142858 0.68000001
-0.050160002 0.030617144 0.68400002
-0.047365598 0.031740118 0.68362504
-0.042928036 0.032521848 0.68293744
-0.037931636 0.032646604 0.68164283
-0.032861274 0.033942543 0.68099999
-0.04169143 0.035828575 0.68400002
-0.037339844 0.03625413 0.68383336
-0.032188501 0.037395239 0.68330777
-0.027412767 0.037807815 0.68206668
-0.0230815 0.038467623 0.6812858
-0.030617144 0.041040003 0.68400002
-0.02696543 0.042206578 0.68390006
-0.02211667 0.042932622 0.68299997
-0.017530132 0.043030567 0.68172735
-0.01337905 0.043437928 0.6807273
-0.017588573 0.046577144 0.68400002
-0.012737008 0.046761226 0.68328583
-0.0082850009 0.047920957 0.68225008
-0.0032425399 0.048619054 0.68066669
0.0032380957 0.049866669 0.68000001
0.0077821435 0.04894881 0.68075001
-0.0062971432 0.050594293 0.68400002
-0.0023440954 0.051165432 0.68350005
0.0024520883 0.05250147 0.68315393
0.0074780174 0.052019447 0.68275011
0.0039085718 0.055371433 0.68400002
0.0065142862 0.05602286 0.68400002
-0.16667239 -0.045277145 0.68900001
-0.16470382 -0.045277145 0.68900001
-0.15158001 -0.045277145 0.68900001
-0.14895524 -0.045277145 0.68900001
-0.13386287 -0.045277145 0.68900001
-0.12861334 -0.045277145 0.68900001
-0.10170954 -0.045277145 0.68900001
-0.097116202 -0.045605239 0.68900001
-0.09274327 -0.045764495 0.68785727
-0.087800004 -0.045211431 0.68800008
-0.082621433 -0.045244288 0.68849999
-0.077363953 -0.045932658 0.68757159
-0.072327077 -0.045942046 0.68771434
-0.06747286 -0.04585667 0.68783331
-0.062687218 -0.045820821 0.68871439
-0.057724528 -0.045916907 0.68875003
-0.052326538 -0.045773882 0.68800002
-0.047054019 -0.045745719 0.68757159
-0.04241024 -0.046178814 0.68774998
-0.037939526 -0.045571592 0.68683338
-0.032300159 -0.045616038 0.6875
-0.027287941 -0.04562699 0.68766677
-0.022545448 -0.045745719 0.68757159
-0.018373333 -0.045277145 0.68900001
-0.1725781 -0.043308575 0.68900001
-0.16716547 -0.042163897 0.68881828
-0.16270815 -0.042086415 0.68833351
-0.15733171 -0.042683039 0.68754554
-0.15281081 -0.042508997 0.68666673
-0.14781429 -0.043167382 0.68675005
-0.14253862 -0.042958949 0.68688893
-0.13727081 -0.042994186 0.68744451
-0.13207039 -0.042637493 0.6868183
-0.12741612 -0.042692479 0.68750012
-0.1226881 -0.042571433 0.68766677
-0.11762365 -0.042422596 0.68718183
-0.11259799 -0.043207504 0.68737501
-0.10772611 -0.043065909 0.68720007
-0.10257335 -0.043773334 0.68600005
-0.098017976 -0.043127976 0.68612504
-0.093426675 -0.043773334 0.68600005
-0.087153032 -0.043359052 0.68633342
-0.082736574 -0.043524768 0.68620008
-0.079053335 -0.043773334 0.68600005
-0.067293338 -0.043773334 0.68600005
-0.062765718 -0.043805242 0.68650007
-0.057986356 -0.04338032 0.68666673
-0.052568987 -0.043231566 0.68628573
-0.04638667 -0.043773334 0.68600005
-0.04246667 -0.043773334 0.68600005
-0.037907861 -0.043789286 0.68625003
-0.032666668 -0.043337785 0.68600005
-0.026133336 -0.043773334 0.68600005
-0.016883431 -0.043588575 0.68720007
-0.012439365 -0.042986672 0.68733335
-0.0074315872 -0.042184927 0.68850005
-0.0026203573 -0.041928694 0.68787503
0.0026170241 -0.041882262 0.68712509
0.0078664292 -0.041951187 0.68825006
0.01246762 -0.042652383 0.68900007
0.017024923 -0.042560168 0.68750018
0.022287859 -0.04195071 0.68825006
0.027278777 -0.041902449 0.68900007
0.030840954 -0.040027622 0.68900001
-0.16601621 -0.03871524 0.68900001
-0.16198574 -0.037904959 0.68860006
-0.15758771 -0.037925001 0.68658346
-0.15457867 -0.038285334 0.68600005
-0.12348001 -0.039853334 0.68600005
-0.0058800005 -0.039853334 0.68600005
-0.0026133335 -0.039853334 0.68600005
0.0026133333 -0.039853334 0.68600005
0.007840001 -0.039853334 0.68600005
0.012566562 -0.038427092 0.68644452
0.016333334 -0.0392 0.68600005
0.022213334 -0.039853334 0.68600005
0.02773701 -0.039318234 0.68642867
0.033165146 -0.037491433 0.68820012
-0.16076668 -0.034778096 0.68900001
-0.15725736 -0.033153906 0.68800014
-0.15310228 -0.032320004 0.6870001
-0.14805716 -0.031292524 0.68657154
-0.14438668 -0.030706668 0.68600005
0.032448892 -0.034191117 0.68600005
-0.15092382 -0.029528573 0.68900001
-0.14660548 -0.028041432 0.68875003
-0.14276612 -0.027217716 0.68699998
-0.13916001 -0.025480002 0.68600005
-0.14165485 -0.022937011 0.68814296
-0.13764374 -0.02180535 0.68746167
-0.1323417 -0.02114762 0.68677777
-0.13189429 -0.018504573 0.68900007
-0.12774722 -0.016540954 0.68685728
-0.12413334 -0.015026668 0.68600005
-0.12676021 -0.012714858 0.68820012
-0.1229341 -0.01242362 0.68660015
-0.11956001 -0.011106667 0.68600005
-0.12205143 -0.0098428577 0.68900001
-0.11730203 -0.0089967865 0.68712503
-0.11250065 -0.0073433868 0.6872223
-0.10766553 -0.0061481907 0.68680006
-0.1108962 -0.0045933337 0.68900001
-0.10669355 -0.0032761907 0.68822223
-0.10296445 -0.0021064552 0.68666673
-0.099960007 -0.00065333338 0.68600005
-0.10190276 0.0022591536 0.68833339
-0.097926311 0.0032705953 0.686625
-0.094080009 0.0045733335 0.68600005
-0.10039715 0.0065619051 0.68900001
-0.097607158 0.0065519055 0.68783343
-0.093214929 0.0076415883 0.68766677
-0.087261759 0.0089436527 0.68716669
-0.085960954 0.011155238 0.68900001
-0.082521588 0.012444604 0.68766677
-0.079053335 0.013720001 0.68600005
-0.081070803 0.01551524 0.68833339
-0.07741034 0.017296603 0.68714297
-0.073391117 0.018511113 0.68600005
-0.076008573 0.020312384 0.68800002
-0.071958341 0.022386273 0.68791676
-0.067413442 0.022909313 0.6872223
-0.062738732 0.023337251 0.6870001
-0.058843337 0.024190955 0.68650007
-0.062994294 0.025591429 0.68900001
-0.057087433 0.02723524 0.68740004
-0.054266192 0.028768096 0.68650007
-0.055776194 0.030840954 0.68900001
-0.052064169 0.031925835 0.68762505
-0.048125714 0.034375716 0.68750006
-0.045866668 0.036694288 0.68800008
-0.04241024 0.037827861 0.6877501
-0.038080573 0.038079429 0.6870001
-0.033973336 0.0392 0.68600005
-0.036090478 0.040027622 0.68900001
-0.032288413 0.041882701 0.68716669
-0.029400002 0.043120004 0.68600005
-0.030840954 0.045277145 0.68900001
-0.027212657 0.045725856 0.68728578
-0.022246666 0.047109526 0.68700004
-0.016928438 0.048542049 0.68742865
-0.012439365 0.049095243 0.68733335
-0.018373333 0.050526671 0.68900001
-0.011936191 0.051284768 0.68860006
-0.0080747623 0.052587621 0.68733335
-0.0030500002 0.05380429 0.6861667
-0.0058971434 0.056351431 0.68800002
-0.0024023284 0.056551747 0.68777782
0.0023975663 0.057050686 0.68677789
0.0065380959 0.058843337 0.68650001
-0.16722097 -0.050893337 0.69400001
-0.13020763 -0.050893337 0.69400001
-0.12756382 -0.050893337 0.69400001
-0.0958381 -0.050893337 0.69400001
-0.092533335 -0.050893337 0.69400001
-0.089228578 -0.050893337 0.69400001
-0.07799238 -0.050893337 0.69400001
-0.072043814 -0.051422097 0.69400001
-0.067700416 -0.051459868 0.69400001
-0.062129531 -0.050893337 0.69400001
-0.057502862 -0.050893337 0.69400001
-0.045605719 -0.050893337 0.69400001
-0.042300954 -0.050893337 0.69400001
-0.038996194 -0.050893337 0.69400001
-0.017184764 -0.050893337 0.69400001
0.015201906 -0.050893337 0.69400001
-0.17032334 -0.046033815 0.69050002
-0.16746572 -0.047841821 0.69154549
-0.16271716 -0.04743484 0.69171441
-0.15740557 -0.046966307 0.69153845
-0.15264918 -0.04704655 0.69087505
-0.14735022 -0.046883386 0.69154549
-0.14242132 -0.04687706 0.69145459
-0.13757724 -0.046739142 0.69118184
-0.13221422 -0.047512621 0.69125003
-0.12731597 -0.047536928 0.69099998
-0.12246125 -0.047407329 0.69131255
-0.11724655 -0.047428697 0.69162512
-0.11237761 -0.047667418 0.69235718
-0.10757905 -0.047401145 0.69186676
-0.10267469 -0.047719762 0.69108337
-0.097679578 -0.048213597 0.69172734
-0.09210626 -0.048582863 0.69244444
-0.087264948 -0.048282951 0.69272727
-0.08262077 -0.047967244 0.69180006
-0.077711433 -0.048735715 0.69150001
-0.07246881 -0.048753574 0.69174999
-0.06696064 -0.04852064 0.69155556
-0.062564284 -0.048735719 0.69150007
-0.05791143 -0.048700001 0.69100004
-0.052869525 -0.048424523 0.69174999
-0.047517568 -0.048544023 0.69188893
-0.041888308 -0.048854835 0.69185722
-0.037077267 -0.048615597 0.69212502
-0.033361502 -0.047834422 0.69071442
-0.027825557 -0.047544923 0.69016671
-0.02196762 -0.048111748 0.69200003
-0.017084105 -0.047605868 0.69200003
-0.012656286 -0.047064669 0.69210005
-0.0079138111 -0.046816193 0.69233334
-0.0026364289 -0.046799451 0.6920833
0.0026369845 -0.046816509 0.69233334
0.0080935387 -0.047156531 0.69178575
0.012632 -0.046976004 0.69080007
0.016922452 -0.047102448 0.6910001
0.022458609 -0.046996631 0.69199997
0.027474428 -0.047141369 0.69157147
0.032812387 -0.046728406 0.69281822
0.036008812 -0.047241669 0.69375002
-0.171564 -0.041543055 0.69020003
-0.16888572 -0.040085718 0.69000006
-0.10777143 -0.044028573 0.69000006
-0.011828572 -0.044028573 0.69000006
-0.0078923814 -0.044060476 0.69050002
-0.0026285716 -0.044028573 0.69000006
0.0026285716 -0.044028573 0.69000006
0.007885715 -0.044028573 0.69000006
0.022342857 -0.044028573 0.69000006
0.028002858 -0.043778479 0.69020003
0.033020705 -0.042229969 0.69066674
0.036273815 -0.042210959 0.6925
-0.1717463 -0.037167054 0.69200003
-0.16818963 -0.037089102 0.69133341
-0.16450477 -0.036580957 0.69000006
0.036169052 -0.038142383 0.69050002
-0.16674043 -0.033522859 0.69322217
-0.16269143 -0.032727797 0.69109088
-0.15870002 -0.031214289 0.69000006
-0.16207621 -0.02884762 0.6936667
-0.15740494 -0.028136833 0.6925
-0.15258723 -0.027531669 0.69108337
-0.14833128 -0.026510958 0.69016671
-0.15160656 -0.022955121 0.69362509
-0.14725417 -0.022580137 0.69157147
-0.14343029 -0.021428764 0.69020003
-0.14607048 -0.018506669 0.69400001
-0.14249913 -0.017811146 0.69270003
-0.13779064 -0.017265348 0.69123077
-0.13309428 -0.016434547 0.69027281
-0.12945715 -0.015114287 0.69000006
-0.13651374 -0.013347238 0.69380003
-0.13221358 -0.012709049 0.69325006
-0.12856476 -0.012165715 0.69050002
-0.13020763 -0.0099142864 0.69400001
-0.12707882 -0.0087345243 0.69225001
-0.12263978 -0.0074441768 0.69146156
-0.11755222 -0.0063595246 0.69083333
-0.11368572 -0.0059142862 0.69000006
-0.12201182 -0.0040979055 0.69400001
-0.11733816 -0.0027701585 0.69293344
-0.11259525 -0.0024504764 0.69063646
-0.10882682 -0.0017838097 0.69014293
-0.11566667 0.00066095241 0.69400001
-0.11213316 0.0011887619 0.69340008
-0.10748868 0.002098009 0.69163638
-0.1034662 0.0035080954 0.69050014
-0.10259391 0.0069992393 0.69320005
-0.097378507 0.0091444906 0.69285721
-0.092482865 0.0094238101 0.69033337
-0.088714294 0.0098571433 0.69000006
-0.096499056 0.011236191 0.69400001
-0.092175722 0.012282192 0.69329995
-0.087755963 0.012678096 0.69150001
-0.09107925 0.01625943 0.69400001
-0.087588139 0.017314875 0.69307697
-0.083109766 0.017324368 0.69075
-0.08622358 0.020812619 0.69375002
-0.082200006 0.021789048 0.69325006
-0.077949047 0.022689732 0.69192863
-0.074310958 0.023674764 0.69050002
-0.077965006 0.025767859 0.69375002
-0.072244249 0.027040606 0.69245464
-0.067303255 0.027792767 0.69146669
-0.062488895 0.028285081 0.69066668
-0.059274286 0.028520003 0.69000006
-0.066425718 0.031395242 0.69400001
-0.062073696 0.03202774 0.69337499
-0.05767503 0.032237142 0.69077784
-0.053295515 0.03412082 0.69085723
-0.057048738 0.035903022 0.69383335
-0.052623067 0.037210379 0.69355565
-0.048042145 0.03784167 0.69099998
-0.046870485 0.041023679 0.69314295
-0.042195 0.04219738 0.69225013
-0.037651174 0.04232217 0.69136369
-0.033968892 0.043173652 0.69033337
-0.040318098 0.045605719 0.69400001
-0.037013337 0.046927627 0.69400007
-0.032712858 0.047091719 0.6925
-0.027895981 0.048543599 0.69188887
-0.022360003 0.049321428 0.69050002
-0.026768574 0.051223814 0.69400001
-0.022301398 0.052649211 0.69273341
-0.016912384 0.052897822 0.69057155
-0.012864082 0.053427625 0.69014293
-0.0098571433 0.054542862 0.69000006
-0.020489525 0.05684191 0.69400001
-0.016683096 0.056986909 0.69375002
-0.012533968 0.057394285 0.69266671
-0.0082943821 0.057394959 0.69110006
-0.0029118371 0.059261501 0.6902858
0.0024977145 0.059554484 0.69020003
-0.0070022861 0.060640763 0.6936
-0.0026380953 0.061291434 0.69200003
0.0025024763 0.061520386 0.69160002
0.0065809526 0.061202861 0.69100004
-0.16619048 -0.055175241 0.69800001
-0.13162287 -0.055175241 0.69800001
-0.12032191 -0.055175241 0.69800001
-0.092358425 -0.055148892 0.69766665
-0.08771643 -0.055155482 0.69774997
-0.084424764 -0.055175241 0.69800001
-0.077777147 -0.055175241 0.69800001
-0.071743339 -0.055135719 0.69749999
-0.068437785 -0.055148896 0.69766665
-0.064481907 -0.055175241 0.69800001
-0.048527621 -0.055175241 0.69800001
-0.042544767 -0.055175241 0.69800001
-0.027255241 -0.055175241 0.69800001
-0.024596192 -0.055175241 0.69800001
-0.017948573 -0.055175241 0.69800001
-0.1665471 -0.052799329 0.69671434
-0.16258955 -0.052429002 0.69681817
-0.15774408 -0.052301306 0.69672734
-0.15263923 -0.052430004 0.69683337
-0.14742072 -0.052361641 0.69754547
-0.14219871 -0.052549694 0.69681823
-0.13755526 -0.052264959 0.69640011
-0.13283905 -0.052521996 0.69645464
-0.12723103 -0.052884758 0.69700003
-0.12241554 -0.05252276 0.69630009
-0.11779145 -0.052239578 0.6959092
-0.11277961 -0.052411191 0.69658339
-0.10747822 -0.051750358 0.69662499
-0.10242709 -0.051830616 0.69642866
-0.097850375 -0.052350476 0.69577783
-0.092773341 -0.052616954 0.69580007
-0.087282352 -0.052466929 0.69572735
-0.082204051 -0.052373733 0.69608349
-0.077098221 -0.052892979 0.69637507
-0.073083021 -0.052770317 0.69550008
-0.067233339 -0.053442098 0.69620007
-0.062605858 -0.05294599 0.69614297
-0.056905534 -0.052661717 0.69640011
-0.052577741 -0.051916551 0.69662505
-0.047962341 -0.052549701 0.69681823
-0.042453337 -0.053068094 0.69650006
-0.036928996 -0.052261699 0.69655561
-0.032511111 -0.052417781 0.69666672
-0.027873335 -0.052429371 0.69683337
-0.022555955 -0.052411348 0.69658345
-0.017238669 -0.052647423 0.69620007
-0.012614815 -0.052450374 0.69711113
-0.0077052391 -0.05221343 0.69749999
-0.0024356614 -0.052032065 0.69744444
0.0023900953 -0.052190859 0.6972
0.0079575004 -0.051731549 0.69637507
0.012609366 -0.051765874 0.69683337
0.017265953 -0.051463574 0.69725001
0.022918098 -0.051980954 0.69749999
0.028149432 -0.052182961 0.69710004
0.032433338 -0.051628575 0.69500011
0.035080954 -0.050966669 0.69500005
-0.16084287 -0.049642861 0.69500005
-0.15819526 -0.049642861 0.69500005
-0.1522381 -0.049642861 0.69500005
-0.14725858 -0.049750004 0.69650006
-0.14230955 -0.049642861 0.69500005
-0.13767619 -0.049642861 0.69500005
-0.13304287 -0.049642861 0.69500005
-0.052290481 -0.049642861 0.69500005
-0.031771429 -0.049642861 0.69500005
-0.027800003 -0.049642861 0.69500005
-0.0227254 -0.049642861 0.69500005
-0.01522381 -0.049642861 0.69500005
-0.011914287 -0.049642861 0.69500005
-0.0079428582 -0.049642861 0.69500005
-0.0026490476 -0.049678575 0.69550002
0.0026476192 -0.049642861 0.69500005
0.0066190483 -0.049642861 0.69500005
0.011914287 -0.049642861 0.69500005
0.018533334 -0.049642861 0.69500005
0.022284128 -0.049642861 0.69500005
0.029123813 -0.049642861 0.69500005
0.032433338 -0.049642861 0.69500005
0.035080954 -0.049642861 0.69500005
-0.17408097 -0.03574286 0.69500005
-0.17203143 -0.033011433 0.69675004
-0.16850635 -0.031580638 0.69566673
-0.16693842 -0.028105186 0.69711113
-0.16299033 -0.026959594 0.69528586
-0.15819526 -0.025814287 0.69500005
-0.16552572 -0.024596192 0.69800001
-0.16212447 -0.023919685 0.69766665
-0.15740269 -0.023104852 0.69681823
-0.15352622 -0.021426827 0.69583344
-0.15112796 -0.018807303 0.69700003
-0.14797178 -0.016827881 0.69672728
-0.14297143 -0.015554763 0.69500005
-0.14602605 -0.013516827 0.69800007
-0.14232311 -0.012786905 0.69749999
-0.13811748 -0.012134921 0.69500011
-0.13370478 -0.011252382 0.69500005
-0.14026476 -0.0099714296 0.69800001
-0.13733131 -0.0090156468 0.69757146
-0.13291004 -0.0085060606 0.69681823
-0.12793145 -0.0064069848 0.6960001
-0.12579238 -0.0036500003 0.69700003
-0.12262858 -0.0017666667 0.69600004
-0.11980477 -0.00066190481 0.69500005
-0.12159397 0.00066444452 0.69766665
-0.11680974 0.0024340742 0.69644451
-0.11250036 0.0034803571 0.69587505
-0.10855239 0.0046333335 0.69500005
-0.11145842 0.0064260326 0.69800007
-0.10708278 0.0075237313 0.6969167
-0.10291982 0.0094047626 0.69540006
-0.099947624 0.009928572 0.69500005
-0.10569715 0.011300953 0.69800001
-0.10194219 0.011854287 0.69700009
-0.097417623 0.01281254 0.69583338
-0.093990482 0.013900001 0.69500005
-0.096866675 0.016344381 0.69760001
-0.093463913 0.017656971 0.6960001
-0.095060959 0.02060762 0.69800001
-0.091938578 0.020910477 0.69700003
-0.087547623 0.022949528 0.69640005
-0.083400011 0.023828574 0.69500005
-0.086419053 0.025925716 0.69800001
-0.082147941 0.027039155 0.69622225
-0.077159598 0.028119326 0.69585729
-0.07314048 0.029123811 0.69500005
-0.071845345 0.03200572 0.6972
-0.06809774 0.032971788 0.69587505
-0.062880956 0.033757146 0.69500005
-0.067140959 0.035232384 0.69800001
-0.06198667 0.035640955 0.69733334
-0.05785048 0.037993338 0.69500011
-0.053614289 0.039052382 0.69500005
-0.055800006 0.041186191 0.69749999
-0.052323621 0.042098671 0.6972
-0.048226248 0.043367621 0.69577789
-0.046919052 0.046387244 0.69779998
-0.042427968 0.047732454 0.69607145
-0.037486289 0.04940667 0.69540006
-0.032433338 0.049642861 0.69500005
-0.040550478 0.05118667 0.69800001
-0.037012558 0.052348316 0.69736367
-0.032500956 0.052400641 0.69644451
-0.028030165 0.053043071 0.69522232
-0.024490478 0.0549381 0.69500005
-0.032573335 0.055175241 0.69800007
-0.027899526 0.05580049 0.69749999
-0.022704048 0.057503339 0.69600004
-0.018202383 0.058578573 0.69500005
-0.1635962 -0.061013337 0.70400006
-0.11800382 -0.061013337 0.70400006
-0.11233021 -0.061575655 0.70385718
-0.1076216 -0.061402544 0.70333338
-0.10325334 -0.061013337 0.70400006
-0.099900961 -0.061013337 0.70400006
-0.092525721 -0.061013337 0.70400006
-0.086759627 -0.061281528 0.70400006
-0.082468584 -0.061013337 0.70400012
-0.066345721 -0.061431434 0.70366669
-0.064319529 -0.060970005 0.70350003
-0.058331434 -0.061013337 0.70400006
-0.052508421 -0.061445877 0.70383334
-0.047295053 -0.061497718 0.70340002
-0.042879999 -0.061640482 0.70350003
-0.03888762 -0.061013337 0.70400006
-0.027482098 -0.061532386 0.70380002
-0.022780001 -0.060970005 0.70350003
-0.017424127 -0.061431434 0.70366669
-0.0026819049 -0.061013337 0.70400006
0.0020114286 -0.061683815 0.70400012
0.0073752385 -0.061013337 0.70400012
0.011662287 -0.061264195 0.70380008
0.016091431 -0.061013337 0.70400006
-0.16568619 -0.05812715 0.70150006
-0.16257766 -0.057524759 0.70182359
-0.15761034 -0.057133999 0.70192313
-0.15243414 -0.056830794 0.70200008
-0.14741655 -0.057709053 0.70221436
-0.14275935 -0.057055462 0.70223087
-0.13745466 -0.056672126 0.70154548
-0.13240381 -0.05730217 0.70181823
-0.12725191 -0.056871146 0.70250005
-0.12247679 -0.057667542 0.70215398
-0.11750104 -0.057350036 0.70180005
-0.11230049 -0.057489406 0.70187509
-0.10751256 -0.05742937 0.70116681
-0.10289495 -0.057462685 0.70156258
-0.097602926 -0.057495069 0.70193756
-0.092445709 -0.058289357 0.70200008
-0.087502442 -0.058115065 0.70136368
-0.082531705 -0.057441227 0.70128578
-0.077707842 -0.057345357 0.70200014
-0.071989618 -0.057673812 0.70250005
-0.067296587 -0.05781753 0.70100003
-0.062674299 -0.05759988 0.70160013
-0.057549048 -0.057550836 0.7026251
-0.052098036 -0.057443157 0.70131254
-0.047242686 -0.057553336 0.70045447
-0.042701092 -0.057667218 0.70057142
-0.037527055 -0.05729505 0.70113337
-0.032081433 -0.057482246 0.7017858
-0.027608227 -0.057584163 0.70081818
-0.022556894 -0.057528451 0.70073336
-0.017317718 -0.057567365 0.70120007
-0.012224559 -0.057207149 0.70192868
-0.007354286 -0.056830063 0.70200008
-0.0026759526 -0.057519533 0.70225012
0.0026763692 -0.057525292 0.70231265
0.0073647625 -0.05758144 0.70300007
0.01204286 -0.057539523 0.70250005
0.017082179 -0.05726083 0.70142871
0.022009842 -0.055359688 0.70033336
-0.14866668 -0.054000005 0.70000005
-0.11000001 -0.054000005 0.70000005
-0.10733335 -0.054000005 0.70000005
-0.10266667 -0.054000005 0.70000005
-0.060666669 -0.054000005 0.70000005
-0.057583179 -0.054025721 0.70033336
-0.053333338 -0.054000005 0.70000005
-0.037333336 -0.054000005 0.70000005
-0.010000001 -0.054000005 0.70000005
-0.0086666672 -0.054000005 0.70000005
-0.003335556 -0.054025721 0.70033336
0.0040000002 -0.054000005 0.70000005
0.0073361909 -0.054025721 0.70033336
0.012000001 -0.054000005 0.70000005
0.017637689 -0.053483136 0.70071435
0.022000002 -0.053666674 0.70000005
-0.17621811 -0.031662285 0.70139998
-0.17345715 -0.030688098 0.70050007
-0.17633525 -0.028160002 0.70400006
-0.17225055 -0.027741669 0.70191681
-0.16878715 -0.026685242 0.70050001
-0.17191949 -0.023283282 0.70300007
-0.16776477 -0.022723431 0.70180005
-0.16294098 -0.02156212 0.70022231
-0.15866667 -0.020666668 0.70000005
-0.16549 -0.018759526 0.70350003
-0.16229171 -0.017963722 0.70336366
-0.15728617 -0.017530993 0.70184624
-0.15310943 -0.016830053 0.70066667
-0.15689144 -0.014080001 0.70400006
-0.15161154 -0.012432097 0.70190012
-0.14774743 -0.01148963 0.70055562
-0.14360002 -0.010533335 0.70000005
-0.15085715 -0.0087161912 0.70400006
-0.14752232 -0.007742994 0.70271432
-0.14270666 -0.0074644159 0.70109093
-0.13790858 -0.0064501595 0.70066679
-0.13204786 -0.006002143 0.70025003
-0.14147049 -0.0042463494 0.70400012
-0.1373142 -0.0036413756 0.7025556
-0.13246019 -0.0026733931 0.70243758
-0.1280387 -0.0021682144 0.70112503
-0.12466668 -0.00066666672 0.70000005
-0.13074286 0.00067047623 0.70400006
-0.12709217 0.0024573812 0.70358342
-0.12238944 0.0030700003 0.70069999
-0.11837596 0.0043350006 0.70025003
-0.12207651 0.0073662442 0.70300001
-0.11739535 0.0072287447 0.70145464
-0.11278273 0.0079133343 0.70071441
-0.10866667 0.0086666672 0.70000005
-0.11685889 0.010948731 0.70383346
-0.11235257 0.012038514 0.70218754
-0.107698 0.012527195 0.70044446
-0.10306668 0.013733335 0.70000005
-0.099333338 0.014000001 0.70000005
-0.11099699 0.016973494 0.70350003
-0.10732423 0.016864367 0.70358336
-0.1022497 0.017215932 0.70254552
-0.098753348 0.018033881 0.70128578
-0.10124191 0.020784764 0.70400006
-0.096905321 0.022053881 0.70171434
-0.092837699 0.023376467 0.70128578
-0.090000004 0.024000002 0.70000005
-0.09139096 0.02644667 0.70300001
-0.087093346 0.027623177 0.70166671
-0.083333336 0.028666668 0.70000005
-0.081840001 0.030941335 0.70320004
-0.077420615 0.032036804 0.70078582
-0.073359765 0.033345476 0.70025003
-0.076434292 0.035535239 0.70400006
-0.071491331 0.036825079 0.70300007
-0.067474127 0.037594981 0.70145464
-0.062960863 0.038283329 0.70029992
-0.059333336 0.039333336 0.70000005
-0.066377148 0.041346036 0.70400012
-0.062371176 0.042292733 0.70281827
-0.057875559 0.043184295 0.70116675
-0.053333338 0.04466667 0.70000005
-0.057108458 0.047059648 0.70337498
-0.052062862 0.047390483 0.70083344
-0.047666669 0.048333336 0.70000005
-0.050920479 0.050250005 0.70350003
-0.047044449 0.051060326 0.70233339
-0.043099135 0.052675486 0.70158339
-0.039333336 0.054000005 0.70000005
-0.1611543 -0.065405719 0.708
-0.11710097 -0.065405719 0.70800006
-0.11260572 -0.065405719 0.708
-0.085634291 -0.065405719 0.708
-0.082937151 -0.065405719 0.70800006
-0.053942859 -0.065405719 0.708
-0.04787429 -0.065405719 0.708
-0.023150479 -0.06585525 0.70800006
-0.017506668 -0.065313339 0.70700002
-0.011884763 -0.065251753 0.70633334
-0.0077459533 -0.065673098 0.70725
-0.16211651 -0.062652387 0.70566666
-0.15772296 -0.062490735 0.70690912
-0.15228096 -0.061990958 0.70749998
-0.14756429 -0.061990958 0.70749998
-0.14279763 -0.061968818 0.70725
-0.13743323 -0.061979886 0.70737493
-0.13251573 -0.061990961 0.7075001
-0.12754247 -0.061800964 0.70642859
-0.12217447 -0.062402695 0.70590913
-0.11716215 -0.063036911 0.70599997
-0.11303858 -0.063585721 0.70650005
-0.10608572 -0.062442861 0.70500004
-0.10172842 -0.062517628 0.70583338
-0.097253159 -0.062685721 0.70620006
-0.09253715 -0.0631347 0.70628577
-0.087733068 -0.06332653 0.70628577
-0.082351029 -0.063326538 0.70628577
-0.077994771 -0.061859529 0.70600003
-0.072669521 -0.061903339 0.70649993
-0.068129808 -0.06294287 0.70628572
-0.062244385 -0.061976578 0.7058
-0.057564106 -0.062542006 0.70609999
-0.052610673 -0.06337525 0.70640004
-0.047114525 -0.063608341 0.70675004
-0.042480003 -0.064057156 0.70800006
-0.037557557 -0.06234042 0.70600003
-0.032240715 -0.061793577 0.70525002
-0.026912859 -0.063250005 0.70650005
-0.022865357 -0.063216075 0.70612502
-0.017468097 -0.063159533 0.70550001
-0.012095874 -0.062502548 0.70566666
-0.0074017993 -0.062582336 0.7065556
-0.0030925719 -0.062765725 0.70559996
0.0047000004 -0.061100002 0.70500004
-0.15577143 -0.059757147 0.70500004
-0.15241429 -0.059757151 0.7050001
-0.14167145 -0.059757151 0.7050001
-0.13764286 -0.059757151 0.7050001
-0.13271907 -0.059757151 0.7050001
-0.12777925 -0.05952248 0.70540005
-0.076542862 -0.059757147 0.70500004
-0.074080959 -0.059309527 0.7050001
-0.035585716 -0.059757147 0.70500004
-0.034242861 -0.059757147 0.70500004
-0.010742858 -0.059757147 0.70500004
-0.0073857149 -0.059757151 0.7050001
-0.17792858 -0.027528573 0.70500004
-0.17255715 -0.021485716 0.70500004
-0.16987143 -0.020814287 0.70500004
-0.17114779 -0.018192224 0.7075001
-0.16773941 -0.01766393 0.70662498
-0.16248572 -0.015442858 0.70500004
-0.1658743 -0.01281143 0.708
-0.16300382 -0.013471192 0.70725
-0.15748572 -0.011775874 0.70666671
-0.15412065 -0.011439366 0.70666671
-0.15206715 -0.008075715 0.70650005
-0.14823858 -0.0060642865 0.70749998
-0.14670065 -0.0042682546 0.70766675
-0.14253727 -0.0024650798 0.7063334
-0.13797858 -0.0010071429 0.70500004
-0.14092572 0.00067428575 0.708
-0.13716839 0.002156381 0.70740002
-0.13278025 0.0026905555 0.70591664
-0.12913811 0.0042523816 0.7050001
-0.13117887 0.0071457149 0.70780003
-0.12733027 0.007104022 0.7065556
-0.12421429 0.0087285722 0.70500004
-0.12609144 0.010114286 0.708
-0.12190209 0.011561819 0.70645458
-0.11800383 0.013211429 0.70533341
-0.11712223 0.017287726 0.70722222
-0.11365642 0.017537886 0.70522225
-0.10709286 0.019135715 0.70500004
-0.10407144 0.019471429 0.70500004
-0.11195192 0.021180477 0.70600003
-0.1075222 0.021936858 0.70649999
-0.1022508 0.022873176 0.70633334
-0.098274864 0.023796001 0.70580006
-0.094671436 0.024842858 0.70500004
-0.097297624 0.026597144 0.70700002
-0.093227863 0.028052146 0.70550001
-0.088628575 0.02887143 0.70500004
-0.095074289 0.031017145 0.708
-0.092127271 0.031495597 0.70737505
-0.087464355 0.03229649 0.70643741
-0.083036877 0.033119597 0.70557147
-0.079900004 0.034242861 0.70500004
-0.085634291 0.035737146 0.708
-0.081850275 0.036768995 0.70766664
-0.07755705 0.038106956 0.70689994
-0.073629253 0.03849538 0.70557147
-0.076194294 0.041131433 0.708
-0.072738104 0.042430799 0.70716667
-0.067431644 0.043086879 0.70566666
-0.063114285 0.044985719 0.70500004
-0.071811438 0.045514289 0.708
-0.067140952 0.046931278 0.70733345
-0.062501907 0.04771778 0.70566666
-0.058750004 0.048678577 0.70500004
-0.15572001 -0.071400002 0.71400005
-0.15300003 -0.070040002 0.71400011
-0.13713335 -0.070040002 0.71400011
-0.13260001 -0.070040002 0.71400011
-0.12988001 -0.070040002 0.71400005
-0.11492001 -0.070040002 0.71400005
-0.10880001 -0.070040002 0.71400005
-0.10268001 -0.07049334 0.71400011
-0.097920008 -0.070040002 0.71400005
-0.093840003 -0.070720002 0.71400005
-0.072080001 -0.070040002 0.71400005
-0.067320004 -0.070040002 0.71400011
-0.062560007 -0.070040002 0.71400005
-0.057800006 -0.070040002 0.71400011
-0.051000006 -0.071400002 0.71400011
-0.047940001 -0.071060002 0.71400005
-0.042160004 -0.070040002 0.71400005
-0.036694288 -0.070670009 0.71350002
-0.031929526 -0.070880011 0.71333337
-0.16025716 -0.066266671 0.71000004
-0.1570491 -0.067618623 0.71140009
-0.15219413 -0.067307547 0.71254557
-0.14752088 -0.067044869 0.71250004
-0.1423194 -0.06700182 0.71190923
-0.13719907 -0.067242227 0.71316671
-0.13245535 -0.067247093 0.71322232
-0.12757114 -0.067180157 0.71250004
-0.12230233 -0.067143597 0.71211123
-0.1177362 -0.067424767 0.71150011
-0.11236342 -0.067366108 0.71160007
-0.10743308 -0.067325026 0.71272743
-0.1025549 -0.067282341 0.71227282
-0.097565815 -0.067078188 0.71141672
-0.092559054 -0.067472547 0.71200007
-0.087583244 -0.067250684 0.71180004
-0.082182489 -0.066747822 0.71079999
-0.077375248 -0.06719619 0.71266675
-0.07251133 -0.067091443 0.71155554
-0.067753747 -0.067078188 0.71141672
-0.062392779 -0.067140728 0.71208334
-0.057326 -0.06722182 0.71150011
-0.052322861 -0.067231014 0.71144444
-0.047596704 -0.067618094 0.7116155
-0.042269789 -0.067325033 0.71272737
-0.037582003 -0.067025624 0.7123
-0.032681338 -0.067669407 0.71193343
-0.027093178 -0.067054145 0.71116674
