# .PCD v0.7 - Point Cloud Data file format
VERSION 0.7
FIELDS x y z
SIZE 4 4 4
TYPE F F F
COUNT 1 1 1
WIDTH 1328
HEIGHT 1
VIEWPOINT 0 0 0 1 0 0 0
POINTS 1328
DATA ascii
0.012758642 -0.0029453065 0.65571433
0.015666667 -0.0043866672 0.65800005
-0.066426672 0.0006266667 0.65800005
-0.062426779 0.0014616932 0.65766668
-0.057910323 0.0029174606 0.65616673
-0.053647622 0.004366667 0.65500003
-0.056724764 0.0061358102 0.65740007
-0.052829359 0.0077926409 0.65681827
-0.049356192 0.0087476196 0.65600002
0.0093571432 0.0068619051 0.65500003
-0.051164925 0.012112859 0.6578334
-0.047792248 0.012685442 0.65657151
-0.043897148 0.013939049 0.6553334
0.0037428574 0.01434762 0.65500003
0.008733334 0.010604762 0.65500003
-0.046976507 0.016285397 0.65766668
-0.042512115 0.017505988 0.65642864
-0.038488258 0.018515876 0.6553334
0.002966905 0.017174764 0.6557501
0.0059373816 0.016564049 0.65625
-0.040733337 0.021306667 0.65800005
-0.037648499 0.022551209 0.65630776
-0.034361906 0.024365716 0.65600002
0.0018771429 0.020648573 0.65700001
-0.036119685 0.026098099 0.65766668
-0.032208256 0.027310319 0.65666676
-0.028567027 0.027942739 0.65562505
-0.030706668 0.030706668 0.65800005
-0.027466668 0.032056935 0.65711111
-0.022572596 0.033269312 0.65633339
-0.018714286 0.034309525 0.65500003
-0.0024952381 0.034309525 0.65500003
-0.020680001 0.036346667 0.65800005
-0.017385589 0.037396386 0.65660012
-0.012954763 0.038550004 0.65550005
-0.0060301591 0.038884129 0.65500009
-0.004366667 0.038052384 0.65500003
-0.016293334 0.040733337 0.65800005
-0.012178388 0.04221268 0.65700006
-0.0078399274 0.042183962 0.65653855
-0.010653334 0.045746669 0.65800005
-0.0094000008 0.045746669 0.65800005
-0.081013188 -0.021673812 0.66283345
-0.077286862 -0.021847431 0.66300005
-0.072253481 -0.02137837 0.66300005
-0.066812389 -0.021730207 0.66271436
-0.062948935 -0.021614645 0.66262507
-0.058056768 -0.02183467 0.6626001
-0.05289958 -0.021650691 0.66211116
-0.047915481 -0.021436907 0.66200006
-0.043179594 -0.021364901 0.66257155
-0.037843809 -0.021444764 0.66225004
-0.032772779 -0.022059446 0.66175008
-0.027530374 -0.021646775 0.66200012
-0.022520954 -0.021679049 0.66300005
-0.017929809 -0.021844288 0.66290009
-0.012628572 -0.020837145 0.66300005
-0.0069428585 -0.021458097 0.66266674
-0.0039085718 -0.021814859 0.66200012
0.0082009537 -0.020816192 0.66233337
0.012839049 -0.020837147 0.66300005
-0.082155839 -0.017809013 0.66238469
-0.077591501 -0.017751873 0.66093338
-0.073260441 -0.017901473 0.66054541
-0.067733228 -0.018524129 0.66055554
-0.062754989 -0.018363636 0.66072726
-0.059325404 -0.019076509 0.6603334
-0.022057857 -0.019223096 0.66175002
-0.017399525 -0.018534003 0.6619001
-0.01259381 -0.018262066 0.66116673
-0.0075506675 -0.018497335 0.66060001
-0.002514286 -0.018480001 0.66000003
0.0027857148 -0.018959593 0.66042864
0.007487793 -0.018348226 0.66018182
0.012675376 -0.01789007 0.66071433
0.017773716 -0.017773336 0.66173339
0.021342287 -0.018311432 0.66300005
-0.080551594 -0.013038891 0.66250008
-0.077442303 -0.012590876 0.66108334
-0.074800007 -0.011942859 0.66000003
0.018663811 -0.012792065 0.6605556
0.020774286 -0.013849525 0.66100001
-0.076326668 -0.0090415888 0.66233337
-0.0727906 -0.0074807415 0.66077781
0.018270954 -0.0078747626 0.66150004
-0.070720002 -0.003157143 0.66300005
-0.068721913 -0.00063047622 0.66200006
0.014457144 -0.0031428575 0.66000003
0.015714286 -0.0031428575 0.66000003
-0.066653021 0.0023139683 0.66233337
-0.062953658 0.0037771433 0.66100007
0.012839049 0.0023152384 0.66300005
-0.062203433 0.0061824769 0.66240007
-0.058365639 0.0081921229 0.66154552
-0.054685719 0.0094285719 0.66000003
0.010734286 0.0069457144 0.66300005
-0.056154765 0.01135762 0.66250002
-0.053745907 0.012838858 0.6608001
0.009457143 0.014500953 0.66200006
-0.052015241 0.016077142 0.66200006
-0.048229624 0.018386003 0.66110003
-0.044628575 0.019485716 0.66000003
0.0039831749 0.019076509 0.6603334
0.0080917468 0.017969208 0.66200012
-0.046410002 0.021784287 0.66300005
-0.042941034 0.022572622 0.66141677
-0.039600004 0.024514288 0.66000003
0.0035142861 0.022076737 0.6622858
0.0056828577 0.021468572 0.66300005
-0.041443177 0.026296511 0.66266674
-0.037816957 0.027733907 0.66180009
-0.034169845 0.029138735 0.6603334
-0.03599143 0.030940002 0.66300005
-0.032532956 0.032281529 0.66200012
-0.028554669 0.034089528 0.66040003
-0.024514288 0.034571432 0.66000003
-0.02729634 0.037670411 0.66176933
-0.022916127 0.037923068 0.66049999
-0.019485716 0.039600004 0.66000003
-0.0037785717 0.039690003 0.66150004
-0.026296511 0.041443177 0.66266674
-0.022180876 0.042574212 0.66225004
-0.017809048 0.043083474 0.66107148
-0.014045398 0.044232067 0.6603334
-0.0060790479 0.044232067 0.6603334
-0.003991588 0.042442705 0.66183347
-0.016726905 0.046392623 0.66275001
-0.012534817 0.047131214 0.66177785
-0.0078770239 0.04710298 0.66162503
-0.0044200001 0.046094287 0.66300005
-0.096845716 -0.026122859 0.66900003
-0.092810482 -0.026122859 0.66900003
-0.087925717 -0.026122859 0.66900003
-0.082689643 -0.026716072 0.66787511
-0.07792782 -0.02631524 0.66740006
-0.072634295 -0.026122859 0.66900003
-0.067354605 -0.026928995 0.66788894
-0.062346667 -0.026720952 0.66799998
-0.056996603 -0.026635511 0.66814297
-0.051979743 -0.027234808 0.66781825
-0.047008064 -0.027540667 0.66769236
-0.042261228 -0.028175922 0.66799998
-0.037519768 -0.027984412 0.66775
-0.032776807 -0.02778592 0.66735721
-0.028025134 -0.027537363 0.66761547
-0.023045715 -0.026860241 0.66750002
-0.017782023 -0.026676072 0.66687506
-0.013101145 -0.026330858 0.66780013
-0.007645715 -0.026122859 0.66900003
-0.0025485717 -0.026122859 0.66900003
0.0031857146 -0.026122859 0.66900003
0.0057342863 -0.026122859 0.66900003
-0.096660763 -0.023815049 0.66860002
-0.092832506 -0.022889884 0.66762501
-0.087614529 -0.022857141 0.66662502
-0.08304172 -0.02345543 0.6656
-0.076902069 -0.024296349 0.66550004
-0.072072811 -0.023884233 0.66577774
-0.067462973 -0.023912977 0.66512501
-0.061848033 -0.024178369 0.66557145
-0.056706198 -0.024333492 0.66650003
-0.051876199 -0.024173064 0.66542858
-0.047199324 -0.02418871 0.66585714
-0.0426156 -0.023763932 0.66537499
-0.038021076 -0.024080593 0.66537499
-0.032994051 -0.024746429 0.66625005
-0.028156465 -0.024173064 0.66542858
-0.023081772 -0.024167757 0.66528577
-0.017319366 -0.024290159 0.66533339
-0.012677541 -0.023454528 0.66558331
-0.0082431752 -0.02346159 0.66577774
-0.0016505715 -0.023114001 0.66670001
0.002544048 -0.022896908 0.66774988
0.0074797077 -0.023323668 0.66738474
0.012641687 -0.023283593 0.6662308
0.017777143 -0.022858692 0.6666249
0.022548793 -0.0225485 0.66761547
-0.091445409 -0.018245716 0.66833341
-0.087532632 -0.017759165 0.66599995
-0.084233336 -0.015833335 0.66500002
0.022183334 -0.017428573 0.66549999
-0.087392524 -0.013056118 0.66753852
-0.083320387 -0.01242705 0.66580003
-0.082265407 -0.0085580954 0.66844451
-0.077630915 -0.0072132475 0.66663641
-0.074100003 -0.0057000006 0.66500002
0.018704049 -0.0060230959 0.66575003
-0.07645715 -0.0038228575 0.66900003
-0.072920874 -0.0022218255 0.66675007
0.014654287 -0.0012742858 0.66900003
0.017202856 -0.0025485717 0.66900009
-0.071163274 0.0022729253 0.6680001
-0.068155721 0.0033371428 0.6672501
0.013874152 0.0029903403 0.66642857
0.016353335 0.0021238099 0.66900009
-0.066496097 0.0071386248 0.66777784
-0.062989809 0.0086104777 0.66614288
0.013088479 0.0073719057 0.66710007
0.015857143 0.0069771432 0.66600001
-0.06562572 0.011468573 0.66900003
-0.061925203 0.012085889 0.66781825
-0.058000293 0.012947145 0.6663
-0.05689048 0.016345397 0.66866672
-0.052646264 0.018394833 0.66600007
0.01083143 0.017202858 0.66900003
-0.051270574 0.022645433 0.66790009
-0.047720533 0.023473546 0.66611111
-0.043700002 0.024700001 0.66500002
0.0028500003 0.024383334 0.66500002
0.0071143922 0.02289471 0.66566664
-0.05033429 0.026760001 0.66900003
-0.046942737 0.027860831 0.66786677
-0.042815138 0.028425928 0.66655558
-0.039497778 0.029359369 0.66533339
-0.00063714292 0.029945716 0.66900003
0.0026902568 0.02803004 0.66769242
0.0057342863 0.026122859 0.66900003
-0.045661908 0.031644765 0.66900003
-0.041957147 0.032104287 0.66750008
-0.037705239 0.0326281 0.66650003
-0.033861529 0.034368195 0.66580003
-0.00063714292 0.032494288 0.66900003
-0.036571998 0.036062285 0.66900009
-0.032392595 0.037474502 0.66688889
-0.029789049 0.038029052 0.66550004
-0.001179864 0.037682455 0.66742861
0.00063714292 0.038228571 0.66900003
-0.031220002 0.040140003 0.66900003
-0.028206805 0.042169798 0.66657144
-0.02427778 0.043700002 0.66500008
-0.0016200001 0.042644344 0.66611111
0.00089123816 0.041620385 0.66820002
-0.026044764 0.045101907 0.66700006
-0.022869211 0.046373338 0.667
-0.018250238 0.048084054 0.66649997
-0.013933334 0.048766669 0.66500002
-0.0061279377 0.048393339 0.6656667
-0.0023292862 0.047226593 0.66708338
-0.017058382 0.051810384 0.66830009
-0.012692798 0.05203804 0.66631252
-0.0077438112 0.051932894 0.66660005
-0.0044600004 0.05033429 0.66900003
-0.012239684 0.056385715 0.66855568
-0.0089200009 0.056068577 0.66900003
-0.10255239 -0.03076667 0.67299998
-0.09801589 -0.030109843 0.67266673
-0.091336198 -0.030445715 0.67300004
-0.087407775 -0.030845035 0.67271435
-0.082265556 -0.031266402 0.67245454
-0.077574372 -0.031586744 0.67224997
-0.072834201 -0.031266063 0.67245454
-0.067899607 -0.031388968 0.67258334
-0.062789455 -0.031396426 0.67274994
-0.057700481 -0.031415716 0.67316663
-0.052519374 -0.031384923 0.67250001
-0.047622956 -0.032006383 0.67210001
-0.042177144 -0.031953335 0.671
-0.036843818 -0.03190966 0.67200005
-0.031995121 -0.031994645 0.671875
-0.027520001 -0.032000639 0.67200005
-0.023223123 -0.031257574 0.67227274
-0.018006245 -0.030959899 0.67255563
-0.013052065 -0.030169528 0.67400002
-0.0077028582 -0.030169526 0.67400002
-0.0025671429 -0.030147145 0.6735
0.0028371431 -0.03064939 0.67242855
0.0076861917 -0.030530322 0.67250001
0.013214478 -0.030408382 0.67360002
0.018374922 -0.0305527 0.67300004
0.022668255 -0.030582543 0.67366666
0.026960002 -0.030490479 0.67400002
-0.10259464 -0.027156398 0.6720714
-0.097362973 -0.027910693 0.67111117
-0.092415109 -0.027880957 0.67185718
-0.08782123 -0.027997281 0.67028582
-0.082952388 -0.028714288 0.67000002
-0.07760682 -0.028179593 0.67028576
-0.072797865 -0.028097384 0.67050004
-0.067850798 -0.02871429 0.67000002
-0.062555954 -0.028725002 0.67025006
-0.057862669 -0.028484765 0.67060006
-0.05431905 -0.028757146 0.671
-0.046580955 -0.029990477 0.67000002
-0.027863493 -0.029990477 0.67000002
-0.022652382 -0.028395239 0.67000002
-0.017866667 -0.028714288 0.67000002
-0.012517961 -0.0282347 0.67157149
-0.0076757153 -0.028140239 0.67150003
-0.0025541671 -0.028092263 0.67037505
0.0024943727 -0.027554117 0.67000008
0.0078322962 -0.027558014 0.67009097
0.01277508 -0.027466511 0.67066669
0.017889367 -0.027473338 0.67083347
0.023005558 -0.027480002 0.671
0.027530162 -0.027529949 0.67222226
0.030169526 -0.026960002 0.67400002
-0.10105684 -0.023500001 0.67300004
-0.098343141 -0.022370886 0.67114288
0.024460319 -0.024460319 0.67000002
0.027501432 -0.023022225 0.67150009
0.030169526 -0.023750478 0.67400002
-0.096848369 -0.018741483 0.67344445
-0.093491279 -0.017462382 0.67083335
0.024380682 -0.017622314 0.67114294
0.026839869 -0.018227348 0.67328578
-0.092070483 -0.013440546 0.67200005
-0.089333341 -0.011485714 0.67000002
0.022694385 -0.012564478 0.67309994
0.02503429 -0.013052065 0.67400002
-0.090374291 -0.0089723812 0.67300004
-0.087359145 -0.0080559058 0.67150009
-0.083460018 -0.0065993657 0.67066669
-0.07988096 -0.0057514291 0.671
0.021969527 -0.0081776194 0.67349994
0.025034288 -0.0096285725 0.67400002
-0.085373342 -0.0044933334 0.67400002
-0.081667714 -0.0032050221 0.67327267
-0.077615961 -0.0019159525 0.67075002
0.019355558 -0.0021269845 0.67000002
0.021096429 -0.0025602384 0.67125005
-0.076606132 0.0019239457 0.67271429
-0.073656879 0.0024661226 0.67085719
0.01877143 0.0028099052 0.67040008
0.021057144 0.0012761905 0.67000002
-0.075102866 0.0057771434 0.67400002
-0.072169527 0.0066778236 0.6722858
-0.06894096 0.0083110211 0.67114294
0.014720001 0.0089619057 0.67200005
0.017286828 0.0068287309 0.67216671
-0.067812771 0.011666477 0.67300004
-0.063502871 0.01418324 0.67080003
0.012927432 0.012927684 0.67193329
0.016047619 0.012196192 0.67400002
-0.061990481 0.017140478 0.67275
-0.057788193 0.018794859 0.67120004
-0.0542381 0.019780954 0.67000002
0.012001226 0.017311158 0.67328578
-0.05667397 0.022028256 0.67366666
-0.053808577 0.023132764 0.67100006
-0.052402321 0.027158508 0.67214292
-0.049133338 0.029990477 0.67000002
0.0044666668 0.029990477 0.67000002
0.0063966671 0.027498573 0.67150003
-0.050635241 0.030766668 0.67300004
-0.047516581 0.032404192 0.67240006
-0.042817466 0.033869527 0.671
0.0025563496 0.032576036 0.67066669
0.0057628579 0.031377465 0.67233342
-0.042017434 0.036251526 0.67249995
-0.037549954 0.037975982 0.6707778
0.002174 0.036814194 0.67110008
-0.036201194 0.040685955 0.67275006
-0.032518413 0.042540323 0.67166674
-0.029352382 0.043390479 0.67000002
0.0029380957 0.041257717 0.67060006
-0.031247143 0.046630003 0.67299998
-0.027524477 0.047369052 0.67210001
-0.023275649 0.048648987 0.67085719
0.00063809525 0.045304764 0.67000002
-0.025676193 0.051352385 0.67400002
-0.02213122 0.05201757 0.67244446
-0.019152701 0.052988894 0.67033339
-0.0057428577 0.0542381 0.67000002
-0.0028745241 0.052383572 0.67075002
-0.017438214 0.056470599 0.671875
-0.013430205 0.058739603 0.67142856
-0.0073745465 0.057782337 0.67072731
-0.0038480954 0.056446195 0.6735
-0.010912382 0.060980957 0.67400002
-0.0089866668 0.061622862 0.67400002
-0.11575334 -0.035566669 0.67900002
-0.11206175 -0.035989054 0.67883337
-0.10734667 -0.036213338 0.67899996
-0.10260445 -0.035997782 0.67900002
-0.097000003 -0.035566669 0.67900002
-0.087257788 -0.035549209 0.67866671
-0.08303266 -0.036113478 0.67885715
-0.076761916 -0.035479367 0.67733335
-0.072399765 -0.035553575 0.67875004
-0.066919595 -0.036091022 0.67842859
-0.061999649 -0.036490835 0.67812502
-0.058093097 -0.036471188 0.67775005
-0.052996196 -0.036580008 0.67860001
-0.048204858 -0.036704097 0.6785
-0.042632148 -0.036174051 0.67824996
-0.036664646 -0.036665119 0.67837501
-0.032264825 -0.037348896 0.6784668
-0.027361749 -0.036950167 0.67866671
-0.022310002 -0.035890002 0.67900002
-0.018753335 -0.035566669 0.67900002
-0.0071133338 -0.035566669 0.67900002
-0.0025866667 -0.035566669 0.67900002
0.002586667 -0.035566669 0.67900002
0.007975556 -0.035566669 0.67900008
0.012545334 -0.035825338 0.67900002
0.017460002 -0.035566669 0.67900008
0.022633335 -0.035566669 0.67900008
0.027160002 -0.035566669 0.67900002
0.030824449 -0.035997782 0.67900008
-0.11615604 -0.032756351 0.67883337
-0.11230376 -0.032271016 0.67768759
-0.10742808 -0.03237414 0.67669231
-0.10253537 -0.033534884 0.6771251
-0.097390272 -0.0326644 0.67653859
-0.093008138 -0.032646582 0.67690915
-0.087720715 -0.03354143 0.67725003
-0.082820013 -0.033874862 0.67620003
-0.076500013 -0.034071431 0.67500007
-0.072211429 -0.034172382 0.67700005
-0.067667946 -0.034155563 0.67666674
-0.063000001 -0.034071431 0.67500001
-0.057857145 -0.034071431 0.67500001
-0.052853577 -0.034159765 0.67675
-0.047494289 -0.034172382 0.67700005
-0.04244405 -0.034084052 0.67524999
-0.037692763 -0.03383448 0.67540002
-0.032236192 -0.034172386 0.67700005
-0.027100477 -0.034197621 0.67750007
-0.022253573 -0.033863574 0.67724997
-0.017930206 -0.033563681 0.67585725
-0.012836997 -0.032664984 0.67653847
-0.0077404091 -0.032531023 0.67728579
-0.0025803971 -0.032897383 0.67725003
0.0023623283 -0.033286989 0.67644447
0.0077348575 -0.033133332 0.67680001
0.012711343 -0.032980263 0.67654562
0.017528573 -0.032984447 0.67611116
0.022391548 -0.033349883 0.67662501
0.027226582 -0.032966498 0.67627281
0.032254942 -0.03225518 0.67731249
0.036855638 -0.032329604 0.67891663
-0.11575334 -0.029100003 0.67900002
-0.11207101 -0.027482422 0.67838466
-0.10754382 -0.027045082 0.67616677
-0.094500005 -0.028928574 0.67500001
0.032588195 -0.02730648 0.67620009
0.035540476 -0.028431907 0.67850006
-0.11058 -0.023280002 0.67900002
-0.10726795 -0.021970002 0.67850006
-0.10363466 -0.022206312 0.67587507
0.03123012 -0.021890836 0.67612505
-0.10235105 -0.018067431 0.67760003
-0.098603815 -0.017000275 0.67542869
0.028697146 -0.017629717 0.67560005
0.030370954 -0.01809286 0.67850006
-0.10127838 -0.01394041 0.67857146
-0.097383663 -0.012895716 0.6771667
-0.093850963 -0.011810636 0.67650008
0.02737405 -0.012774048 0.6762501
-0.095706671 -0.0097000003 0.67900002
-0.092337973 -0.0080253072 0.67800009
-0.088115558 -0.0057885721 0.67533338
0.023464287 -0.0067500006 0.67500001
0.026380004 -0.0083642183 0.6755715
-0.087618843 -0.0027250554 0.67684621
-0.083210669 -0.0011573334 0.67519999
0.022973336 -0.003003492 0.67633337
0.025108574 -0.0045066671 0.67600006
-0.086006671 0.0019400002 0.67900008
-0.08243487 0.0024527623 0.67726678
-0.078036338 0.0035851703 0.6755715
0.022633335 0.00064666668 0.67900002
-0.081480004 0.0058200005 0.67900002
-0.077208787 0.0070974613 0.67744446
-0.073074482 0.0091499053 0.67660004
0.018666191 0.0077236509 0.6758334
-0.075660005 0.011640001 0.67900002
-0.072283745 0.01290837 0.67764294
-0.067962542 0.013935557 0.67533338
0.01659086 0.012988954 0.67520005
-0.070883185 0.016589843 0.67866671
-0.06734927 0.017557058 0.67818183
-0.063166291 0.018911431 0.67540002
0.013824168 0.018646549 0.67512506
0.017076602 0.017445581 0.67842859
-0.066578917 0.02077728 0.67871433
-0.062358286 0.022723429 0.67780006
-0.0587922 0.022770857 0.67540002
0.0096857157 0.022600001 0.67800009
0.012665811 0.022358572 0.6785
0.016597779 0.021771114 0.67900008
-0.061065242 0.025524762 0.67850006
-0.057426989 0.027102225 0.67750001
-0.054442383 0.028027143 0.67650002
0.008715 0.027110239 0.67774999
0.011419049 0.025638733 0.67866671
-0.056663495 0.030809527 0.67866671
-0.052868892 0.031778943 0.67788887
-0.048608575 0.033800475 0.67600006
0.0067652389 0.032214765 0.67650002
-0.047117621 0.036790766 0.67769998
-0.042953815 0.038872223 0.67650008
0.0045083342 0.037355002 0.67625004
0.0058200005 0.035566669 0.67900002
-0.041990209 0.041435923 0.67828572
-0.037706748 0.04307659 0.67675006
0.0045266668 0.043326668 0.67900002
-0.03647726 0.047129165 0.67787504
-0.032989882 0.048438933 0.67587507
-0.028928574 0.049500003 0.67500001
-0.031654425 0.051771708 0.67828572
-0.027487066 0.053256586 0.67641675
-0.023368891 0.054241277 0.67533338
0.001073016 0.053865399 0.67600006
-0.025651112 0.056691118 0.67900008
-0.021839594 0.057224907 0.67728585
-0.018012859 0.058543812 0.67550004
-0.0057857148 0.05978572 0.67500001
-0.0023161906 0.058071818 0.67600006
-0.020046668 0.060140003 0.67900002
-0.017190669 0.061139245 0.67860001
-0.012883573 0.062794857 0.67624998
-0.0074571441 0.063128576 0.67500013
-0.0030790479 0.061822761 0.67700011
-0.012014668 0.066269912 0.67820007
-0.0074842866 0.066719152 0.67750001
-0.0041966671 0.066833332 0.67799997
-0.11269715 -0.041040003 0.68400002
-0.10788039 -0.041252576 0.68320006
-0.10288738 -0.041025005 0.68375003
-0.090548575 -0.04169143 0.68400002
-0.087291434 -0.041040003 0.68400002
-0.08338286 -0.041040003 0.68400002
-0.076868579 -0.041040003 0.68400002
-0.072933815 -0.041676432 0.68375003
-0.067687027 -0.041653935 0.68337506
-0.062491909 -0.041010004 0.68350005
-0.057179764 -0.040935002 0.68225002
-0.052313905 -0.042034294 0.68320006
-0.047507621 -0.041651431 0.6833334
-0.042847898 -0.041546941 0.6831429
-0.037794076 -0.041841906 0.68288893
-0.032480717 -0.042226113 0.68208337
-0.027295321 -0.042246275 0.68241668
-0.022582859 -0.04147429 0.68400002
-0.016285716 -0.041040003 0.68400002
-0.014331429 -0.041040003 0.68400002
-0.0071657151 -0.041040003 0.68400002
-0.0026038098 -0.041010004 0.68350005
0.0022140953 -0.041276574 0.68360007
0.0071657151 -0.041040003 0.68400002
0.022444675 -0.04234286 0.68400002
0.026786409 -0.042400781 0.68300009
0.031085715 -0.040800001 0.68000001
-0.12572572 -0.036480002 0.68400002
-0.12224711 -0.036964852 0.68309098
-0.117162 -0.037718877 0.68172723
-0.11273049 -0.038443577 0.68125004
-0.10758382 -0.038886193 0.68049997
-0.10225821 -0.038543146 0.68129998
-0.097464055 -0.038338494 0.68225002
-0.092249647 -0.037682146 0.68212509
-0.087189622 -0.038431522 0.68181831
-0.0817798 -0.038762439 0.68211108
-0.07780572 -0.037989959 0.68236369
-0.072622702 -0.038257621 0.68083334
-0.067667201 -0.03869937 0.68099999
-0.062580146 -0.039032657 0.68142861
-0.056803502 -0.038876511 0.68033338
-0.052716196 -0.038986668 0.68000001
-0.047276195 -0.038857147 0.68000001
-0.042757861 -0.038871668 0.68024999
-0.038385957 -0.038385957 0.68024999
-0.033028573 -0.039504763 0.68000001
-0.026552383 -0.039180957 0.68000001
-0.02196119 -0.038192466 0.68158334
-0.017426061 -0.037867624 0.68227273
-0.012999227 -0.037699584 0.68243748
-0.0078849681 -0.037941437 0.68178576
-0.0025940479 -0.038262781 0.68091667
0.0025930954 -0.038253102 0.68075001
0.0077321632 -0.038063593 0.6809231
0.013164329 -0.038431693 0.68181819
0.01753778 -0.038323391 0.68200004
0.021963373 -0.038175236 0.68292314
0.02725254 -0.038286038 0.68133342
0.032629844 -0.037815243 0.68066663
0.03626667 -0.03561905 0.68000001
-0.12572572 -0.033874288 0.68400002
-0.12204366 -0.032840163 0.68283343
-0.11837906 -0.032116193 0.68028569
-0.1205143 -0.029314287 0.68400002
-0.11773704 -0.027535766 0.68300003
-0.11430921 -0.025713652 0.68066669
0.034475237 -0.026018098 0.68300003
0.036737859 -0.02763262 0.68274999
-0.11587001 -0.023434764 0.68350005
-0.11269144 -0.022198668 0.68160003
-0.10960858 -0.020753335 0.68099999
0.034525715 -0.024102859 0.68400002
-0.11139429 -0.01889143 0.68400002
-0.10733429 -0.017827621 0.68211114
-0.10426667 -0.016190477 0.68000001
0.031394921 -0.017538413 0.68200004
-0.10613112 -0.0136727 0.68366671
-0.10320847 -0.012187514 0.68155557
0.029142858 -0.013600001 0.68000001
0.031085715 -0.014895239 0.68000001
-0.1023631 -0.008950239 0.68350005
-0.097479127 -0.007642345 0.68199998
-0.093565091 -0.0062660323 0.68066669
0.027443176 -0.00756254 0.68066669
-0.095760003 -0.0039085718 0.68400002
-0.092682153 -0.0025999206 0.68291664
-0.088723816 -0.00064761908 0.68000001
0.024102859 -0.0019542859 0.68400002
-0.090874292 0.0016285714 0.68400002
-0.088147946 0.0028171432 0.68222231
-0.0848381 0.0045333337 0.68000001
0.022239618 0.0035127623 0.68280011
-0.086552285 0.0071587623 0.68330008
-0.082382083 0.0083289193 0.682091
-0.078241915 0.008952762 0.68120003
0.01886381 0.0097571434 0.68300003
0.021497143 0.0058628577 0.68400002
-0.080974773 0.011940161 0.68383336
-0.077656485 0.013268477 0.68290007
-0.074476197 0.014895239 0.68000001
0.020194286 0.011074287 0.68400002
-0.076515004 0.017256906 0.68375003
-0.073169209 0.017806455 0.68122226
0.01886381 0.016261905 0.68300003
-0.072070062 0.021470267 0.68311119
-0.068012916 0.023007412 0.68155563
0.014269525 0.023997145 0.68099999
0.017287619 0.022040002 0.68066669
-0.066898771 0.026942385 0.68330008
-0.062641516 0.027805794 0.68158334
0.0097142868 0.029142858 0.68000001
0.012348255 0.027293017 0.68233341
-0.061992746 0.031402741 0.68337506
-0.057549354 0.033114202 0.68172735
-0.053320639 0.033892065 0.68000001
0.0088774608 0.032694604 0.68200004
0.011068891 0.031905081 0.68366671
-0.056627762 0.036542863 0.68342865
-0.052295379 0.037899185 0.68271434
-0.048607141 0.038562384 0.68050003
0.0076352395 0.037462257 0.68354553
-0.050811432 0.041040003 0.68400002
-0.047354549 0.04274416 0.68281823
-0.043318521 0.04375048 0.68111116
0.0038857146 0.044685718 0.68000001
0.0061165723 0.042811431 0.68320006
-0.046251431 0.046251431 0.68400002
-0.042672575 0.047224957 0.68300003
-0.038784958 0.047865719 0.68100005
0.0026715347 0.047736086 0.68244451
-0.041040003 0.050160002 0.68400002
-0.03749413 0.051796358 0.68266672
-0.03332724 0.053297531 0.68080008
-0.00064952386 0.050013337 0.68200004
0.0013014288 0.05140112 0.68316668
-0.032171138 0.056886304 0.68292314
-0.027755238 0.058030162 0.68122226
-0.023553653 0.058559369 0.68066669
-0.031268574 0.060582861 0.68400002
-0.027008258 0.061934926 0.6833334
-0.022059634 0.062276054 0.6827693
-0.017926669 0.063282222 0.68033332
-0.020194286 0.065794289 0.68400002
-0.017447621 0.067482777 0.68309098
-0.013628954 0.068141721 0.6814
-0.0077714291 0.069295242 0.68000001
-0.0045333337 0.069295242 0.68000001
-0.01251069 0.071949214 0.6833334
-0.0080520958 0.071827732 0.68190002
-0.004546667 0.070798099 0.68200004
-0.095803812 -0.045277145 0.68900001
-0.09252286 -0.045277145 0.68900001
-0.088585719 -0.045277145 0.68900001
-0.082680009 -0.045277145 0.68900001
-0.077053748 -0.04578327 0.68814296
-0.072002977 -0.046377569 0.68800002
-0.067834839 -0.045755107 0.68771434
-0.062994294 -0.045277145 0.68900001
-0.057252701 -0.0456708 0.68833339
-0.052699324 -0.045773882 0.68800008
-0.047058858 -0.045487054 0.6882
-0.041840952 -0.045775812 0.68860006
-0.037714697 -0.045764495 0.68785727
-0.033424288 -0.045878574 0.68816674
-0.027119432 -0.045460768 0.68780005
-0.021829844 -0.04562699 0.68766677
-0.017147347 -0.045820821 0.68871439
-0.01312381 -0.045277145 0.68900001
0.0085304771 -0.045277145 0.68900001
0.012785714 -0.045572385 0.68849999
0.016590478 -0.04562699 0.68766677
0.021560004 -0.045080002 0.68600005
-0.1322224 -0.041668098 0.68900007
-0.12715316 -0.042603623 0.68820012
-0.12257358 -0.041951187 0.68825006
-0.11742964 -0.042092741 0.68787503
-0.11272423 -0.043126397 0.68757141
-0.10775905 -0.043078292 0.68740004
-0.10173017 -0.043007307 0.68766677
-0.097707912 -0.042380285 0.68670005
-0.09321963 -0.042622667 0.68640006
-0.087704763 -0.04319929 0.68725002
-0.082154863 -0.042778667 0.68680012
-0.077612154 -0.042972382 0.68625003
-0.072520003 -0.043773334 0.68600005
-0.067946672 -0.043773334 0.68600005
-0.062844649 -0.043207027 0.68737507
-0.057609882 -0.043207027 0.68737507
-0.050996669 -0.043805242 0.68650007
-0.047040004 -0.043773334 0.68600005
-0.042809289 -0.043462623 0.68625009
-0.037675556 -0.043773334 0.68600005
-0.021777779 -0.043337785 0.68600005
-0.017257906 -0.042753525 0.68640006
-0.012256786 -0.042653933 0.68637502
-0.008074075 -0.042986881 0.68733335
-0.0023367349 -0.043090481 0.68700004
0.0028987757 -0.043286268 0.68714297
0.0080663487 -0.042951643 0.68677777
0.012420953 -0.042494599 0.68644452
0.01699524 -0.042487618 0.68633336
0.021560002 -0.043773334 0.68600005
-0.13211888 -0.037522864 0.68880004
-0.1277364 -0.038176768 0.68640006
-0.12299334 -0.039603621 0.68620008
-0.11825334 -0.039853334 0.68600005
-0.13058192 -0.034778096 0.68900001
-0.127772 -0.033041906 0.68800002
-0.12447239 -0.0311727 0.68666673
-0.12533239 -0.029528573 0.68900001
-0.12247685 -0.027506385 0.68770009
-0.11890668 -0.025480002 0.68600005
0.037258733 -0.025492383 0.68633336
-0.12008286 -0.023622859 0.68900001
-0.11747539 -0.022183677 0.68800008
-0.11433334 -0.020253334 0.68600005
0.033973336 -0.021560002 0.68600005
0.036789764 -0.022563335 0.68675005
-0.11202827 -0.016813654 0.68788892
-0.10872414 -0.015469524 0.68633342
-0.11122429 -0.012795716 0.68900001
-0.10833184 -0.012243947 0.6870001
0.032235663 -0.012298943 0.68766671
-0.10692614 -0.008700002 0.68757141
-0.10295544 -0.0064095245 0.68680006
-0.099960007 -0.0058800005 0.68600005
0.026786668 -0.0058800005 0.68600005
-0.10112573 -0.0037123812 0.68800008
-0.097693913 -0.0023529525 0.68660003
-0.094733343 -0.00065333338 0.68600005
0.024173334 -0.00065333338 0.68600005
0.025978096 -0.0032733339 0.68766677
-0.096366674 0.001093016 0.68833339
-0.092824169 0.0026151191 0.68637502
0.024199765 0.0026159526 0.68675005
0.025517145 0.0032714289 0.68700004
-0.091866672 0.0059057148 0.68900001
-0.08845906 0.0085161915 0.68800008
0.022933334 0.0072095245 0.68800008
-0.086315244 0.011581905 0.68833339
-0.083429381 0.012852225 0.68616676
0.018988095 0.013093811 0.6875
0.020341907 0.01246762 0.68900001
-0.081449054 0.015941113 0.68783343
-0.078599431 0.017917527 0.68660009
-0.076863021 0.021181747 0.68783343
-0.07358072 0.023219762 0.68675005
-0.0711862 0.027294762 0.68783343
-0.06892667 0.027766669 0.68600005
0.013291113 0.028978733 0.68633336
-0.070212387 0.030840954 0.68900001
-0.067274831 0.031720277 0.68771434
-0.063028894 0.03358762 0.68700004
0.01243981 0.032339241 0.68740004
-0.060937148 0.036694288 0.68800002
-0.057846814 0.038594835 0.68685728
0.0084933341 0.038982224 0.68600005
0.011106667 0.036586668 0.68600005
-0.057318669 0.04105353 0.68860006
-0.052590288 0.042778861 0.68680012
0.0076222224 0.042031117 0.68600005
-0.051818099 0.046008304 0.68871439
-0.047582384 0.047419049 0.68675005
-0.043773334 0.049000002 0.68600005
0.0045733335 0.047693338 0.68600005
0.0058828574 0.04771715 0.68633342
-0.045277145 0.050526671 0.68900001
-0.042412147 0.052073337 0.68774998
-0.039437145 0.053817462 0.68633336
0.0039211116 0.051625878 0.68616676
0.0059057148 0.051182859 0.68900001
-0.040027622 0.055776194 0.68900001
-0.037022013 0.057097573 0.68733341
-0.034258414 0.059132706 0.68733335
-0.03208055 0.06257116 0.68742865
-0.028420001 0.064353332 0.68600005
-0.02352 0.064680003 0.68600005
-0.026866127 0.066928439 0.68800008
-0.022247048 0.067392007 0.6870001
-0.018946668 0.069906674 0.68600005
-0.11831048 -0.050893337 0.69400001
-0.091211438 -0.050893337 0.69400001
-0.088171057 -0.051422097 0.69400001
-0.076670483 -0.050893337 0.69400001
-0.07303524 -0.051223814 0.69400001
-0.060720004 -0.050820004 0.69300002
-0.057474609 -0.050868895 0.6936667
-0.041819688 -0.051285084 0.69333339
-0.037273336 -0.051617287 0.69357151
-0.032737143 -0.051417965 0.69342864
-0.028156573 -0.05115772 0.69400001
-0.015201906 -0.050893337 0.69400001
-0.01388 -0.050893337 0.69400001
0.0038335242 -0.051950861 0.69400001
0.0076242187 -0.051311571 0.69200009
-0.14640096 -0.046927623 0.69400001
-0.14249288 -0.046838414 0.69266671
-0.13751657 -0.046939433 0.69220001
-0.13259143 -0.046760481 0.69150007
-0.1273866 -0.046853572 0.69125003
-0.1224743 -0.047331698 0.69213337
-0.11736411 -0.047475778 0.69231248
-0.11230811 -0.047637898 0.69192863
-0.10783423 -0.04704389 0.69269234
-0.10280754 -0.046753336 0.69318187
-0.097573698 -0.047261305 0.69181824
-0.092222236 -0.048089847 0.69166672
-0.087235771 -0.04796182 0.69154549
-0.082794301 -0.047955155 0.69145465
-0.077949956 -0.048528362 0.69166666
-0.072793655 -0.04889524 0.69066668
-0.066981591 -0.048536293 0.69177788
-0.062569536 -0.048081908 0.69155556
-0.05814115 -0.048277143 0.6906001
-0.052635714 -0.048030317 0.69083333
-0.047493249 -0.048213597 0.6917274
-0.042344388 -0.048262861 0.69040006
-0.037502386 -0.048688099 0.69083345
-0.032528955 -0.048202287 0.69140005
-0.027836708 -0.048194464 0.69145459
-0.022398334 -0.048095003 0.69175005
-0.017067727 -0.048567407 0.69222236
-0.01238143 -0.047815144 0.69150013
-0.0079009533 -0.046749212 0.69133341
-0.0026353179 -0.046765961 0.69158334
0.0028223137 -0.047132529 0.6914286
0.0077419789 -0.047823884 0.6907692
0.011828572 -0.047314286 0.69000006
-0.14651112 -0.043843176 0.69400001
-0.14225194 -0.042318225 0.69213337
-0.13740985 -0.042077463 0.69033337
-0.13372858 -0.043042857 0.69000006
-0.12945715 -0.044028573 0.69000006
-0.12222858 -0.044028573 0.69000006
-0.11828572 -0.044028573 0.69000006
-0.11237144 -0.044028573 0.69000006
-0.10645715 -0.044028573 0.69000006
-0.10382858 -0.044028573 0.69000006
-0.0046000001 -0.044028573 0.69000006
-0.1413424 -0.038307622 0.69350004
-0.13789888 -0.037094206 0.69218183
-0.13471429 -0.036800005 0.69000006
-0.13671905 -0.034014288 0.69350004
-0.13263845 -0.033112213 0.69163638
-0.12914413 -0.03135429 0.69066668
-0.13105762 -0.028854445 0.69383335
-0.12716702 -0.027466755 0.69118184
-0.12420001 -0.025628572 0.69000006
-0.12669793 -0.023384003 0.69360006
-0.12277804 -0.022201566 0.69150001
-0.11828572 -0.02037143 0.69000006
-0.1212412 -0.018169288 0.69375002
-0.11711302 -0.017255748 0.69160008
-0.11368572 -0.015114287 0.69000006
0.034050837 -0.016778931 0.69087499
0.036230162 -0.017784446 0.69166672
-0.11656301 -0.012741226 0.69371432
-0.11322591 -0.012229715 0.69040006
0.034171432 -0.013800001 0.69000006
-0.11566667 -0.0099142864 0.69400001
-0.11234912 -0.0085734399 0.69255567
-0.10814732 -0.0070184134 0.69099998
0.029264286 -0.0069047622 0.69050002
0.032065853 -0.0089322459 0.69114286
-0.10699321 -0.0032985036 0.69285721
-0.103292 -0.0019727619 0.69080001
0.027414287 -0.0023530615 0.69242865
-0.10575239 0.0013219048 0.69400001
-0.10246572 0.0014859525 0.69299996
-0.097752079 0.0031828573 0.69116676
-0.093971431 0.0046000001 0.69000006
0.025678096 0.0024114286 0.69133341
-0.097273216 0.0067713102 0.69362497
-0.092618749 0.0084622232 0.69216675
-0.088714294 0.0098571433 0.69000006
0.023194646 0.0083891675 0.69087505
0.02632381 0.0098714288 0.69100004
-0.092136763 0.011500572 0.69400001
-0.088157311 0.01297127 0.69250005
0.022794385 0.012649049 0.69169998
0.025715239 0.012529207 0.6923334
-0.087002739 0.016839644 0.69337499
-0.083405413 0.017617462 0.69077784
0.022409052 0.015816906 0.69200003
0.025665715 0.015794287 0.69100004
-0.085262865 0.020489525 0.69400001
-0.082200013 0.021789286 0.69325006
-0.078294717 0.023363071 0.69211113
-0.077132389 0.027029527 0.69220001
-0.073489524 0.028114049 0.69050002
0.016988955 0.027784891 0.69133335
-0.07177797 0.032267485 0.6914286
-0.067052618 0.03418405 0.69025004
-0.063742861 0.034828573 0.69000006
0.013810001 0.032881431 0.69050002
0.016770286 0.031293333 0.69320005
-0.066252381 0.03697842 0.69333333
-0.062843405 0.037668712 0.69042861
0.012558096 0.035030477 0.69400001
-0.061743457 0.041768692 0.69337511
-0.057982728 0.042947348 0.6907143
-0.057043679 0.046672527 0.69300014
-0.052995481 0.048224527 0.69124997
-0.048664287 0.049321432 0.69050002
0.0072704768 0.049571432 0.69400001
-0.051333975 0.051333975 0.69400001
-0.047304332 0.052340005 0.69245452
-0.043590479 0.054104768 0.69000006
0.0072704768 0.050893337 0.69400001
-0.045605719 0.056180958 0.69400001
-0.042366497 0.05746555 0.69209087
-0.038352069 0.059390798 0.69033337
-0.041783217 0.06094012 0.69362509
-0.037609208 0.062681593 0.69277787
-0.03427048 0.063270003 0.69200003
-0.091072388 -0.055175241 0.69800001
-0.087653577 -0.055115957 0.69725001
-0.076447621 -0.055175241 0.69800001
-0.048527621 -0.055175241 0.69800001
-0.042225856 -0.055699598 0.69742864
-0.037458915 -0.056234431 0.69700009
-0.032279432 -0.055659629 0.69740003
-0.027628981 -0.055733748 0.69785714
-0.022601906 -0.055840004 0.69800001
-0.016353143 -0.055707049 0.69800001
-0.0099714296 -0.058499053 0.69800001
-0.0026590477 -0.055175241 0.69800001
-0.15134415 -0.051629841 0.69800007
-0.1473092 -0.052056514 0.69777781
-0.14223629 -0.05256303 0.69700003
-0.13765402 -0.052302003 0.69690007
-0.13290477 -0.051833101 0.69775003
-0.12714991 -0.05216191 0.69680005
-0.12248639 -0.05255286 0.69670004
-0.11775601 -0.05238229 0.69620007
-0.1127056 -0.051713221 0.69612509
-0.10750832 -0.051714562 0.69742864
-0.10251313 -0.052032068 0.69744444
-0.097180143 -0.051862314 0.69685721
-0.092650846 -0.052542262 0.69612509
-0.086744636 -0.052879866 0.69528586
-0.082242787 -0.052398812 0.69641674
-0.07747215 -0.05292096 0.69675004
-0.072440289 -0.052745856 0.69600004
-0.067636438 -0.05172215 0.69625008
-0.062619053 -0.052198909 0.69628584
-0.057148337 -0.052497383 0.69774997
-0.052734673 -0.05140857 0.69740003
-0.047777385 -0.052424055 0.69675004
-0.042803179 -0.05317302 0.69500011
-0.0366254 -0.054055557 0.69500011
-0.032433338 -0.053614289 0.69500005
-0.0275498 -0.053113062 0.69585729
-0.022558734 -0.052417777 0.69666672
-0.017415587 -0.052487623 0.6960001
-0.012439643 -0.052580364 0.69662505
-0.007907534 -0.05234164 0.69727278
-0.0026555555 -0.052429371 0.69683337
0.0013238096 -0.052290481 0.69500011
-0.15263195 -0.047955237 0.69740009
-0.1479398 -0.04823545 0.69588894
-0.14230953 -0.049642861 0.69500005
-0.13767621 -0.049642861 0.69500005
-0.13257144 -0.04971429 0.6960001
-0.12730637 -0.049642861 0.69500005
-0.10656668 -0.049642861 0.69500005
-0.10259525 -0.049642861 0.69500005
-0.098623812 -0.049642861 0.69500005
-0.052340638 -0.049690481 0.69566673
-0.023828574 -0.049642861 0.69500005
-0.0079428582 -0.049642861 0.69500005
-0.0026476192 -0.049642861 0.69500005
0.0013238096 -0.049642861 0.69500005
-0.15151168 -0.043858334 0.69775003
-0.14806519 -0.041892704 0.69577783
-0.14495715 -0.040376194 0.69500005
-0.14682245 -0.037488304 0.69757146
-0.14322744 -0.036832571 0.69560009
-0.14181963 -0.033095431 0.69780004
-0.13756151 -0.032093473 0.69585723
-0.13436668 -0.031109527 0.69500005
-0.13722454 -0.029571192 0.69774997
-0.13327411 -0.027184382 0.69620007
-0.13155648 -0.02323701 0.6971429
-0.12847364 -0.021868711 0.69585729
-0.12640637 -0.018373651 0.69733334
-0.12310417 -0.016732739 0.69587505
-0.11980477 -0.01522381 0.69500005
-0.12191893 -0.012789883 0.69762498
-0.11892223 -0.012576192 0.69500005
-0.12032191 -0.0099714296 0.69800001
-0.11735117 -0.0086186398 0.69614297
-0.11264595 -0.0062945243 0.69575012
0.031199049 -0.0059742862 0.69700003
-0.11132556 -0.0030969842 0.69716668
-0.10874762 -0.0017213334 0.69540006
0.029496668 -0.002649524 0.6960001
0.031243812 -0.0033238097 0.69800007
-0.10712124 0.0023682993 0.69614297
-0.10291982 0.0041064764 0.69540006
0.027866075 0.0026546428 0.69662505
-0.10196355 0.0073042186 0.6971429
-0.098032862 0.0090531753 0.69550008
0.026857382 0.0062988098 0.69625008
-0.096800804 0.012598891 0.69616669
-0.093027629 0.013344082 0.69557154
-0.095725723 0.015954286 0.69800001
-0.092270486 0.016596003 0.69700003
-0.088827625 0.018136192 0.69500011
-0.091072388 0.02060762 0.69800001
-0.08709313 0.022050794 0.69688892
-0.083460487 0.023846194 0.69550002
-0.081783921 0.027360002 0.69688892
-0.078400962 0.029373018 0.69566673
-0.076984294 0.032076672 0.69683337
-0.074353978 0.032433338 0.69500005
0.017538097 0.033271976 0.69671434
0.020578096 0.032526668 0.69700003
-0.071538731 0.035658732 0.69766665
-0.068747625 0.03760381 0.69575006
0.012823969 0.037369687 0.6965
0.016281191 0.035552144 0.69774997
-0.066317469 0.041782226 0.69633341
-0.06341397 0.043528259 0.69600004
0.0094968257 0.043948896 0.69566673
0.011859184 0.042217556 0.69728577
-0.062000956 0.046998672 0.69700003
-0.058166098 0.048891433 0.69560003
-0.0549381 0.049642861 0.69500005
0.008177937 0.047736034 0.69616675
-0.055592071 0.0516054 0.69766665
-0.052660953 0.052662101 0.69640011
-0.048319053 0.054496832 0.69500005
0.0079552382 0.051701911 0.69600004
-0.051851429 0.055175241 0.69800001
-0.048116516 0.057627302 0.69683337
-0.10660572 -0.061013337 0.70400012
-0.086491436 -0.061013337 0.70400012
-0.082153909 -0.061515052 0.70360011
-0.078389525 -0.061305244 0.70350003
-0.065036193 -0.061683811 0.70400006
-0.062666908 -0.06132691 0.70375001
-0.057660956 -0.061013337 0.70400006
-0.052297145 -0.061013337 0.70400006
-0.047295053 -0.061497718 0.70340002
-0.042850479 -0.06159715 0.70300001
-0.037519768 -0.061640244 0.70349997
-0.032155119 -0.061629172 0.70337504
-0.027425714 -0.061537784 0.70233339
-0.022771906 -0.061618101 0.70325005
-0.017371906 -0.061464768 0.70150006
-0.013013572 -0.061065003 0.70074999
-0.16560763 -0.055649526 0.70400006
-0.16180745 -0.055901904 0.70380002
-0.15722714 -0.056763336 0.70325005
-0.15243509 -0.056830168 0.70200014
-0.14757535 -0.057173595 0.70172727
-0.14250866 -0.056783419 0.70141673
-0.13750648 -0.056694727 0.70181817
-0.13260067 -0.056384556 0.70200002
-0.1273091 -0.056996714 0.70254546
-0.12222137 -0.057047542 0.70191669
-0.11753136 -0.056730997 0.70227277
-0.11224301 -0.057270892 0.70271438
-0.10738727 -0.057627834 0.7016924
-0.1027955 -0.057348635 0.70180011
-0.097681575 -0.057253677 0.7025001
-0.092672616 -0.057891801 0.70238477
-0.08737953 -0.058181431 0.70216674
-0.082498513 -0.057226676 0.70100003
-0.077553779 -0.057600766 0.70160013
-0.072227433 -0.057231091 0.70221436
-0.067525879 -0.057499528 0.70200008
-0.062816851 -0.057473514 0.70168751
-0.057543751 -0.057545658 0.70256257
-0.05210286 -0.05744845 0.70137507
-0.047242861 -0.057553336 0.70045453
-0.042915981 -0.058482118 0.70044446
-0.037466265 -0.058822185 0.70071441
-0.032268677 -0.058528576 0.70100009
-0.027731024 -0.05841729 0.70042861
-0.022703972 -0.057876036 0.70116663
-0.017774114 -0.058053773 0.70063645
-0.012295308 -0.057184018 0.70050007
-0.0076045725 -0.055898674 0.70040005
-0.004666667 -0.055333339 0.70000005
-0.17231239 -0.054308575 0.70400006
-0.1660815 -0.052553069 0.7035715
-0.16232866 -0.052106436 0.70141673
-0.15755683 -0.052163944 0.70040005
-0.15266669 -0.053238101 0.70000011
-0.148 -0.054000005 0.70000005
-0.13533334 -0.054000005 0.70000005
-0.132 -0.054000005 0.70000005
-0.12866667 -0.054000005 0.70000005
-0.11533334 -0.054000005 0.70000005
-0.11200001 -0.054000005 0.70000005
-0.10766667 -0.05366667 0.70000005
-0.102 -0.054000005 0.70000005
-0.097333342 -0.054000005 0.70000005
-0.070000008 -0.054000005 0.70000005
-0.067333341 -0.054000005 0.70000005
-0.062888898 -0.054000005 0.70000005
-0.057374291 -0.054038577 0.70050001
-0.052933335 -0.053466674 0.70000005
-0.0086666672 -0.054000005 0.70000005
-0.16549 -0.048239529 0.70350003
-0.16226506 -0.047353622 0.70230007
-0.15765589 -0.047362968 0.70044452
-0.1609143 -0.044921909 0.70400006
-0.15694211 -0.043341059 0.7025556
-0.15321977 -0.042059291 0.70099998
-0.15173833 -0.03813725 0.7025556
-0.14829302 -0.035794608 0.70033336
-0.14699049 -0.032758642 0.70200002
-0.14342164 -0.031733472 0.70042866
-0.14215954 -0.02808143 0.7021001
-0.13821644 -0.027176194 0.70025003
-0.14012954 -0.024137145 0.70400006
-0.13675106 -0.022989715 0.70180005
-0.13354324 -0.021745523 0.70040005
-0.1317662 -0.018057812 0.70230001
-0.12786937 -0.016233493 0.70050001
-0.12748128 -0.012560635 0.70244449
-0.12383684 -0.010893652 0.70033336
0.036000002 -0.010000001 0.70000005
-0.12537906 -0.0087161912 0.70400006
-0.12218383 -0.007737007 0.70214289
-0.11786934 -0.0062735244 0.70080006
0.033345476 -0.0066688098 0.70025003
0.036017146 -0.0073361914 0.70033336
-0.12001525 -0.0046933335 0.70400006
-0.1167765 -0.0031940744 0.70244449
-0.11369097 -0.0022233336 0.70083344
0.03287581 -0.0022699051 0.70160002
0.037037939 -0.0026757144 0.70283341
-0.11185472 0.0021560851 0.70233333
-0.10827398 0.0042244452 0.70033336
0.031437147 0.0022494376 0.70227277
0.036849052 0.00067000004 0.70350003
-0.11062858 0.0060342862 0.70400006
-0.10745489 0.0071870247 0.70187509
-0.10370405 0.0083364295 0.70025003
0.02806 0.0080185719 0.7015
0.030128574 0.0073647625 0.70300001
-0.10623311 0.01038881 0.70375001
-0.10227504 0.011811958 0.70188898
-0.099522546 0.0126927 0.7013334
-0.097295836 0.01738631 0.70212507
-0.093600325 0.018898098 0.70033336
0.021424763 0.019416193 0.70300001
-0.095878102 0.020784764 0.70400006
-0.092088103 0.022621242 0.70270008
-0.088222228 0.024222225 0.70000005
0.021424763 0.020755239 0.70300001
-0.090450004 0.026800478 0.70350003
-0.087611437 0.027422011 0.70222229
-0.084262542 0.028235875 0.70033336
-0.08559747 0.030618414 0.70400012
-0.082211249 0.032084573 0.70180005
-0.078389525 0.033690952 0.70050001
-0.081127621 0.035535239 0.70400006
-0.077023819 0.036502384 0.70325005
-0.073114403 0.037931751 0.70144451
0.014020001 0.038721904 0.70100003
0.016734762 0.037931591 0.70283335
-0.071331225 0.042323388 0.70288891
-0.068032712 0.043354295 0.70033336
0.013777335 0.043202102 0.70220006
0.016421191 0.041219763 0.70375001
-0.070400007 0.04626286 0.70400006
-0.067360245 0.047301907 0.70200008
-0.064666674 0.048000004 0.70000005
0.012031905 0.047446199 0.70166671
-0.06162858 0.051503405 0.70228583
-0.057963181 0.053064764 0.70133334
-0.054000005 0.054000005 0.70000005
0.0077009532 0.053896669 0.70300001
0.010028572 0.050812386 0.70200002
-0.11395429 -0.065405719 0.708
-0.081858292 -0.06567543 0.708
-0.077542864 -0.065405719 0.70800006
-0.074171431 -0.065405719 0.708
-0.060685717 -0.065405719 0.708
-0.058662862 -0.065405719 0.708
-0.053268574 -0.065405719 0.708
-0.047200002 -0.065405719 0.708
-0.041131433 -0.065405719 0.708
-0.035737146 -0.065405719 0.708
-0.032221526 -0.065926671 0.70780003
-0.1712143 -0.061100002 0.70500004
-0.16747288 -0.06173731 0.70716667
-0.16275647 -0.061888441 0.70742857
-0.15764347 -0.06197989 0.70737505
-0.15228096 -0.061990958 0.70749998
-0.14753017 -0.061302226 0.70733333
-0.1428974 -0.061338339 0.70775002
-0.13721035 -0.061913207 0.70771438
-0.13236859 -0.062093478 0.70757145
-0.12759334 -0.061825726 0.70671427
-0.1221871 -0.062104132 0.70622224
-0.117313 -0.062728062 0.70681822
-0.1125403 -0.062390007 0.70589995
-0.10795182 -0.062245149 0.70580006
-0.10227429 -0.061903816 0.70649993
-0.097587943 -0.061917782 0.70666665
-0.092756435 -0.061837863 0.70574999
-0.087423928 -0.06288036 0.70612508
-0.082503051 -0.063661903 0.70660001
-0.07730817 -0.062904082 0.70585716
-0.072837062 -0.062442433 0.70636362
-0.067879051 -0.061830483 0.70566672
-0.061605401 -0.062950805 0.70566672
-0.057834644 -0.063216075 0.70612502
-0.052473452 -0.063238695 0.706375
-0.047523435 -0.063680008 0.70679998
-0.04242 -0.063966677 0.70700002
-0.037733335 -0.064011909 0.70749998
-0.03232 -0.063966669 0.70700002
-0.028200001 -0.063785717 0.70500004
-0.17188573 -0.057742864 0.70499998
-0.16821328 -0.057954744 0.70593327
-0.16283648 -0.058598023 0.70572728
-0.15751715 -0.059488576 0.70500004
-0.15241431 -0.059757151 0.7050001
-0.14704287 -0.059757151 0.7050001
-0.14234287 -0.059757147 0.70500004
-0.13777176 -0.059813656 0.70566672
-0.13281594 -0.059254292 0.70585716
-0.12757143 -0.059757147 0.70500004
-0.12242382 -0.059757151 0.7050001
-0.11750001 -0.059757151 0.7050001
-0.11414286 -0.059757147 0.70500004
-0.098028578 -0.059757147 0.70500004
-0.072514296 -0.059757147 0.70500004
-0.17121431 -0.053042859 0.7050001
-0.16892406 -0.052389286 0.70525002
-0.16754286 -0.048110001 0.70650005
-0.16496667 -0.045113336 0.70700002
-0.16194955 -0.043152798 0.70642865
-0.15883145 -0.041443497 0.70566672
-0.15704431 -0.037980292 0.70710009
-0.15353048 -0.036618099 0.70550001
-0.15576001 -0.034388572 0.708
-0.15191595 -0.032999188 0.70714289
-0.14849097 -0.03124286 0.70550001
-0.14720967 -0.027980002 0.70671427
-0.14435716 -0.026185716 0.70500004
-0.14632002 -0.024948573 0.708
-0.14268641 -0.023286002 0.70670003
-0.13928144 -0.021530002 0.70650005
-0.1367355 -0.017512143 0.70725
-0.13370906 -0.016460953 0.70550001
-0.13553144 -0.014160001 0.708
-0.13249439 -0.012521431 0.70690006
-0.12926064 -0.010528572 0.70566672
-0.13103619 -0.0078666676 0.70800006
-0.12756845 -0.007786395 0.70657146
-0.12354286 -0.0060428577 0.70500004
-0.12609144 -0.0047200001 0.708
-0.12246983 -0.0028476932 0.70684612
-0.11839525 -0.0011190478 0.7050001
0.036928575 -0.00067142863 0.70500004
-0.12052667 0.00067333336 0.70700002
-0.11706667 0.0021707939 0.70688885
-0.11355191 0.0036961907 0.70550007
0.033754289 0.0036316195 0.70600003
0.036204766 0.002558667 0.70660001
-0.11530287 0.0060685719 0.708
-0.11237933 0.0074027223 0.70657146
-0.10944287 0.0087285722 0.70500004
0.03231445 0.0067315879 0.70683336
-0.11185287 0.010780953 0.70749998
-0.10756544 0.012506192 0.70590001
-0.10340001 0.014100001 0.70500004
-0.10631239 0.015958097 0.70800006
-0.10228667 0.017496465 0.7065714
-0.098700009 0.018800002 0.70500004
0.023796003 0.018687813 0.7058
0.026260002 0.018853335 0.70700002
-0.10082287 0.021332702 0.70733333
-0.097681135 0.023060694 0.70645458
-0.094067156 0.024189049 0.70550001
0.019471429 0.024171431 0.70500004
0.023078639 0.023172112 0.70671433
0.027364096 0.023185618 0.70770007
-0.096153155 0.027376002 0.708
-0.092822626 0.027577383 0.70624995
0.019526668 0.026260002 0.70700002
0.02224651 0.026965242 0.70783341
-0.091638103 0.030995717 0.70749998
-0.08771731 0.032530006 0.70666665
-0.083928578 0.034242861 0.70500004
-0.085634291 0.035737146 0.708
-0.081896409 0.037770901 0.70677769
-0.078146666 0.038513973 0.70533335
0.018854605 0.038379692 0.70700002
0.021332067 0.037276193 0.70733333
-0.080689535 0.041580956 0.70800006
-0.077361591 0.042380005 0.70633328
-0.073761225 0.043642867 0.70500004
0.017226532 0.043398511 0.70728576
-0.076668769 0.046217337 0.70740002
-0.072867103 0.047905546 0.70663637
-0.069353335 0.049153335 0.70700002
0.016164605 0.047367781 0.70716667
-0.15572001 -0.070040002 0.71400005
-0.15436001 -0.070040002 0.71400005
-0.10812001 -0.070040002 0.71400005
-0.10177334 -0.07049334 0.71400011
