# .PCD v0.7 - Point Cloud Data file format
VERSION 0.7
FIELDS x y z
SIZE 4 4 4
TYPE F F F
COUNT 1 1 1
WIDTH 807
HEIGHT 1
VIEWPOINT 0 0 0 1 0 0 0
POINTS 807
DATA ascii
0.031911429 0.019397143 0.65700001
0.034466669 0.023813335 0.65800005
0.037726156 0.022983298 0.65769243
0.04180466 0.02316233 0.65733337
0.034466669 0.026320001 0.65800005
0.037975997 0.026821334 0.65800005
0.041736007 0.026194667 0.65800005
0.040733337 0.033213336 0.65800005
0.026520003 0.019574286 0.66300005
0.032960001 0.019525081 0.66133338
0.036457144 0.019485716 0.66000003
0.024625717 0.021468572 0.66300005
0.027886162 0.022587493 0.66246676
0.032450885 0.022473879 0.66071439
0.035828575 0.020742858 0.66000003
0.02856655 0.026988456 0.66287506
0.032592237 0.02775077 0.66107696
0.037085719 0.028914288 0.66000009
0.043221559 0.028336195 0.66118193
0.046071112 0.028399367 0.66266674
0.033213146 0.031445142 0.66300005
0.037993245 0.031829622 0.66050005
0.042784642 0.031458218 0.66062498
0.01975143 0.016565714 0.66900003
0.022255559 0.018865082 0.66766679
0.023369763 0.022735002 0.66775
0.025966669 0.024700001 0.66500002
0.024755714 0.027932858 0.66649997
0.02710643 0.028691906 0.66575003
0.031126669 0.029856192 0.66700006
0.028270613 0.031726129 0.66814297
0.031173335 0.031810477 0.66800004
0.029945716 0.03504286 0.66900003
0.014749208 0.013465399 0.67333335
0.016965 0.014404525 0.67225003
0.01445962 0.017530859 0.67180008
0.017614832 0.018072519 0.67085719
0.021057144 0.019142859 0.67000002
0.018750358 0.022278216 0.67312497
0.021880191 0.023416955 0.67180008
0.048000216 0.022751963 0.67400002
0.051031433 0.022466669 0.67400002
0.01989905 0.025034288 0.67400002
0.021182859 0.025676193 0.67400002
0.048399623 0.025547812 0.67400002
0.050710481 0.026318097 0.67400002
0.027466035 0.033427306 0.67066669
0.030035241 0.033869527 0.671
0.028448097 0.036761194 0.67124999
0.037872385 0.049426671 0.67400002
-0.00064666668 0.0019400001 0.67900002
0.0019400001 0.002586667 0.67900002
0.067900009 0.0084066661 0.67899996
0.072426677 0.008406668 0.67900002
0.077600002 0.008406668 0.67900002
0.080833338 0.0090533337 0.67900002
0.0097000003 0.014873334 0.67900002
0.012227382 0.014480239 0.67575008
0.049793337 0.014873334 0.67900002
0.053016547 0.014223929 0.67887497
0.057624333 0.013098444 0.67845458
0.062073782 0.01336828 0.67838466
0.067209937 0.012924347 0.67856258
0.072400481 0.012928454 0.67874998
0.076091118 0.011424446 0.67900008
0.0432561 0.018334005 0.67790002
0.047733873 0.01805887 0.67731255
0.052821316 0.018034404 0.67637509
0.057932392 0.018022977 0.67587495
0.062442195 0.017673811 0.67730004
0.067253344 0.017460003 0.67900002
0.071262673 0.016942669 0.67900002
0.013731191 0.021809287 0.6785
0.016398812 0.02283024 0.67524999
0.042871911 0.020951908 0.67699999
0.046071433 0.02164286 0.67500007
0.053558096 0.022516906 0.67550004
0.057413332 0.022579048 0.67733335
0.062080737 0.022118974 0.67846155
0.066606671 0.020785715 0.67900002
0.070486672 0.020046668 0.67900002
0.014442223 0.026082223 0.67900008
0.017749118 0.0258449 0.67600006
0.049536668 0.028307144 0.67550004
0.053017277 0.027132193 0.67720014
0.057428237 0.026980266 0.67890906
0.060786672 0.025220001 0.67900002
0.049793337 0.032333337 0.67900002
0.052497577 0.031804241 0.67899996
0.023926668 0.038153335 0.67900002
0.026112383 0.039008573 0.67700005
0.02716 0.040740002 0.67900002
0.032929908 0.049203813 0.67799997
0.036026195 0.049536668 0.67550004
0.033833809 0.05258302 0.67883337
0.035514288 0.051657148 0.67800003
0.074262857 -0.00065142859 0.68400002
0.077500805 -0.0013026985 0.68383336
0.082056381 -0.0016935238 0.68380004
0.087175988 -0.0015192594 0.68366671
0.092282742 -0.0012998811 0.68237507
0.096129537 -0.00064952386 0.68200004
-0.001424762 0.003497143 0.68000001
0.0016838097 0.0040152385 0.68000001
0.063033342 0.003545926 0.68388891
0.067686439 0.0026020242 0.683375
0.07277935 0.0025968459 0.68231249
0.077631846 0.0027805448 0.6817143
0.082247987 0.0024157146 0.68307143
0.087163344 0.002600953 0.68300003
0.092265956 0.0025989285 0.68225002
0.096777596 0.0024246757 0.68281823
-0.00064952386 0.0058457148 0.68200004
0.0026014289 0.0078080962 0.68300003
0.0058571436 0.0084596835 0.6833334
0.043372005 0.0095080007 0.68380004
0.047691073 0.0086260717 0.68362498
0.052075878 0.0084617464 0.68350005
0.057220876 0.0084523018 0.68275011
0.062416017 0.007800655 0.68268752
0.066646673 0.0069497963 0.68128574
0.072533339 0.005828572 0.68000001
0.077714294 0.005828572 0.68000001
0.08260458 0.0075207627 0.68080002
0.087124951 0.0078031565 0.68268758
0.091791965 0.0070169321 0.6835556
0.095760003 0.0058628577 0.68400002
0.0030400003 0.011508573 0.68400002
0.0066010896 0.013668301 0.68342859
0.033483427 0.013158858 0.68400002
0.038057223 0.013335636 0.68308342
0.042910781 0.013001967 0.68268758
0.04757737 0.013027621 0.68146151
0.051913217 0.011679882 0.68137509
0.05547937 0.011441271 0.68000001
0.061955564 0.011009525 0.68000001
0.078016594 0.01318405 0.68075007
0.082355097 0.013152309 0.68253857
0.086214028 0.012183812 0.68357152
0.0086247623 0.017413335 0.68350005
0.011491748 0.017129209 0.68300003
0.042176511 0.016222224 0.68133342
0.073397294 0.017863674 0.68028575
0.077419907 0.017566139 0.68311119
0.08125107 0.017422739 0.68387502
0.0093300007 0.022132223 0.68350005
0.011785989 0.022553064 0.68214291
0.064114287 0.023961907 0.68000001
0.067856088 0.022954497 0.67999995
0.07284274 0.022204384 0.68166673
0.07702969 0.021047778 0.68350005
0.080125719 0.020194286 0.68400002
0.009771429 0.026057145 0.68400002
0.012886859 0.027337715 0.68340003
0.016912382 0.029271431 0.68300003
0.058933336 0.029142858 0.68000001
0.062448718 0.027519867 0.68100005
0.067243025 0.026746668 0.68216676
0.071964577 0.025896763 0.68320006
0.013354287 0.031594288 0.68400002
0.01693286 0.031912543 0.68383336
0.053104766 0.034323812 0.68000001
0.057227623 0.032573272 0.68126661
0.062101442 0.031767145 0.68350005
0.065794289 0.030617144 0.68400002
0.014982858 0.035828575 0.68400002
0.017579367 0.036462225 0.68366671
0.021789255 0.039039597 0.68157142
0.049326193 0.036998574 0.68150002
0.051808894 0.037502702 0.68283337
0.056901336 0.036068197 0.68360007
0.022467695 0.042587109 0.68307704
0.026642192 0.043538764 0.68230009
0.050160002 0.041040003 0.68400002
0.023053525 0.047019619 0.68380004
0.027325874 0.047496825 0.68316674
0.030527622 0.048064765 0.68200004
0.02406762 0.05008667 0.68300003
0.027575105 0.050601505 0.68242866
0.031303573 0.052390959 0.68124998
0.032085717 0.05598972 0.68200004
0.078742862 -0.0065619051 0.68900001
0.082438104 -0.0065433336 0.68700004
0.085586675 -0.006533334 0.68600005
0.063838296 -0.0011803809 0.68820006
0.067703389 -0.0016739683 0.6872223
0.072023533 -0.002227905 0.6875
0.077191316 -0.0035986907 0.68687499
0.082320005 -0.0041377782 0.68600005
0.086022228 -0.0041377782 0.68600005
0.047659367 0.0041536512 0.68866676
0.052419052 0.0039304765 0.68800008
0.058125716 0.0030580959 0.68833345
0.062066667 0.0014000001 0.68600005
0.098653339 0.0045733335 0.68600005
0.10010572 0.0045800004 0.68700004
-0.0013066668 0.009800001 0.68600005
0.03344889 0.0091819055 0.68866676
0.037789356 0.0086277928 0.68736374
0.042126808 0.0077526541 0.68657148
0.046694607 0.0063269846 0.68733335
0.052303813 0.0058842865 0.68650001
0.057493336 0.0058800005 0.68600005
0.093691714 0.0088742869 0.68657148
0.097563915 0.007797143 0.6885556
0.10039715 0.0059057148 0.68900001
-0.0021123812 0.012158943 0.68800002
0.0021779365 0.013287779 0.68616676
0.028461529 0.013247049 0.68860006
0.032067217 0.011871838 0.68714297
0.037240006 0.011106668 0.68600005
0.088984005 0.012674667 0.68600005
0.09230011 0.01243725 0.68733341
0.096937224 0.012586927 0.68900013
-0.0006561905 0.016404763 0.68900001
0.0027491432 0.016898096 0.68766677
0.0062066671 0.017966669 0.68600005
0.034274604 0.015500635 0.68766677
0.036694288 0.015726667 0.68800002
0.083953343 0.017966669 0.68600005
0.087651499 0.017008038 0.68681258
0.092389211 0.017037779 0.68800014
0.097228505 0.016926795 0.68886679
0.0045933337 0.020341907 0.68900001
0.0074592382 0.02133086 0.68699998
0.078296512 0.023337146 0.68700004
0.082857966 0.022284629 0.68814296
0.087688304 0.022016328 0.68857157
0.091647945 0.020779368 0.68900001
0.09777239 0.020341907 0.68900001
0.0090361908 0.027634291 0.68760008
0.011983177 0.028542545 0.68633342
0.068600014 0.028964445 0.68600005
0.072515957 0.028646668 0.68750012
0.076524228 0.026507078 0.68842864
0.084648579 0.025591429 0.68900001
0.013284445 0.032013334 0.68600005
0.015026668 0.032666668 0.68600005
0.063511908 0.034049049 0.68750012
0.067461506 0.032094698 0.68771434
0.071524769 0.030840954 0.68900001
0.01312381 0.038059048 0.68900001
0.016989645 0.038880598 0.68612498
0.053817462 0.039437145 0.68633336
0.057588458 0.038282976 0.68712509
0.062100001 0.036997423 0.68842864
0.017698731 0.041736826 0.68833339
0.020253334 0.043773334 0.68600005
0.05281296 0.042591628 0.68800014
0.057463542 0.040965039 0.68900007
0.02091405 0.045750238 0.68625003
0.051109526 0.045211431 0.68800002
0.028872382 0.053151432 0.68900001
0.062507622 -0.0062112384 0.69380003
0.067344762 -0.0066026198 0.69324994
0.07278455 -0.0068175667 0.69266671
0.077261358 -0.0083416682 0.69141674
0.081951052 -0.009076762 0.69060004
0.038996194 -0.00066095241 0.69400001
0.042300954 -0.00066095241 0.69400001
0.047554292 -0.0013214288 0.69349992
0.05301122 -0.0015411642 0.69288903
0.057862058 -0.0022847622 0.69223082
0.061848581 -0.0032948058 0.69154549
0.066874295 -0.0041663493 0.69066668
0.0723112 -0.0046016667 0.69025004
0.075571433 -0.0046000001 0.69000006
0.029302225 0.0041860323 0.69400001
0.033049308 0.0030956049 0.69300002
0.037383523 0.0024828571 0.69238466
0.042193811 0.0026347621 0.69225001
0.047118861 0.0017099048 0.69100004
0.052571435 0.0013142859 0.69000006
0.056514293 0.0013142859 0.69000006
0.019167621 0.0072704768 0.69400001
0.022699906 0.0083130477 0.69290012
0.027681371 0.0079067275 0.6920625
0.032486003 0.0071018101 0.69050002
0.037457146 0.0059142867 0.69000006
0.042057145 0.0059142862 0.69000006
0.099228576 0.0092000011 0.69000006
0.10148164 0.0087306136 0.69000012
-0.004161905 0.013361907 0.69000006
0.023674764 0.011179524 0.69050002
0.027161907 0.011609524 0.69000006
0.099228576 0.011171429 0.69000006
0.10133144 0.011960002 0.69000006
-0.0006571429 0.017742857 0.69000006
0.0006571429 0.019057143 0.69000006
0.03614286 0.016428573 0.69000006
0.095285721 0.019057143 0.69000006
0.10054287 0.018400002 0.69000006
-0.00066095241 0.020489525 0.69400001
0.0027913556 0.022384176 0.69276929
0.0064485716 0.023297716 0.69100004
0.080828577 0.024314288 0.69000006
0.088714294 0.024314288 0.69000006
0.092953444 0.022892701 0.69111115
0.097476982 0.022538036 0.6918667
0.10187865 0.021355378 0.6914286
0.0038703405 0.027093746 0.69385725
0.0068096304 0.027904868 0.69211113
0.078238204 0.02841725 0.69033337
0.082464404 0.027591581 0.69099998
0.086742505 0.027212501 0.69262505
0.0079226997 0.032356195 0.69333339
0.011893095 0.033035479 0.69375002
0.068039291 0.03451262 0.69025004
0.072398499 0.033239767 0.69108337
0.077787466 0.03230302 0.69216669
0.082307443 0.03157562 0.6936
0.06308572 0.038771432 0.69000006
0.067176044 0.037540004 0.69149995
0.072409622 0.037129626 0.69370002
0.076670483 0.035030477 0.69400001
0.013413969 0.041782226 0.69266671
0.016253879 0.043125715 0.69057149
0.058332264 0.043215122 0.69012505
0.062602952 0.042176273 0.69191664
0.066745721 0.041486669 0.6938889
0.01740109 0.046001364 0.6914286
0.053479888 0.04689917 0.69112504
0.057617534 0.046676196 0.69220001
0.061446432 0.046250243 0.69375002
0.027657144 0.05466143 0.69150007
0.06773214 -0.011288811 0.69725001
0.07245905 -0.011300953 0.69800001
0.052490797 -0.0066447626 0.69766665
0.057004288 -0.0066290479 0.6960001
0.062592931 -0.0082394565 0.69600004
0.067587383 -0.009277381 0.69575006
0.072614834 -0.0093734693 0.69585723
0.023931429 -0.00066476193 0.69800001
0.027900003 -0.0013290476 0.69749999
0.032494925 -0.0013269843 0.69633341
0.037140362 -0.0016594048 0.69637507
0.042530477 -0.0028762964 0.69655561
0.047811192 -0.0039850003 0.69725001
0.052732117 -0.0040711565 0.69585723
0.056261908 -0.0046333335 0.69500005
0.018740764 0.0035887621 0.69780004
0.022681653 0.0027840005 0.69640011
0.027461614 0.0022916484 0.69546157
0.031771429 0.00066190481 0.69500005
0.017662097 0.0065070479 0.6972
0.022504764 0.0059571434 0.69500005
-0.0011946667 0.023480002 0.69640011
0.00066190481 0.023828574 0.69500005
-0.0013280953 0.027223019 0.69716668
0.0016921693 0.028342118 0.69566679
0.088552587 0.028809717 0.69700003
0.092932865 0.026553098 0.69700003
0.096914932 0.026774606 0.69700003
0.0030950792 0.032063022 0.6965
0.083279766 0.033510242 0.69675004
0.08615651 0.031672068 0.69766665
0.0084049217 0.035616037 0.69683337
0.011704447 0.035557147 0.69566673
0.074133337 0.03839048 0.69500005
0.077433772 0.037664071 0.6960001
0.081130072 0.036532521 0.69742858
0.011709842 0.042864449 0.69600004
0.068365313 0.043402042 0.69500011
0.072165236 0.04237254 0.69516677
0.077064946 0.042518277 0.69756258
0.013368165 0.047502048 0.69685721
0.016366668 0.048656832 0.69666672
0.054276194 0.049642861 0.69500005
0.062720001 0.047482859 0.69566673
0.067668334 0.047103733 0.69658345
0.072355881 0.047131326 0.69700003
0.076160192 0.046387244 0.69780004
0.043383386 -0.016743178 0.70322227
0.046197146 -0.015399049 0.70300001
0.054308575 -0.015420954 0.70400006
0.056990482 -0.015420954 0.70400012
0.03888762 -0.010057144 0.70400006
0.043273482 -0.011887107 0.70238471
0.047341432 -0.011636478 0.70210004
0.052435685 -0.011683006 0.70238477
0.057563514 -0.012050418 0.70281261
0.062734604 -0.012175114 0.70226687
0.066538744 -0.013131112 0.70100009
0.028830478 -0.0060342862 0.70400006
0.032125715 -0.0066935727 0.70275009
0.037439212 -0.0073558735 0.70200008
0.042696513 -0.0073388889 0.70050001
0.047355875 -0.0073374608 0.70033342
0.051382862 -0.0080082547 0.70066667
0.057333335 -0.0086666672 0.70000005
0.060666669 -0.0086666672 0.70000005
0.018075716 -0.001004762 0.70300001
0.022479145 -0.0022759049 0.70250005
0.027429685 -0.0040153973 0.70250005
0.032011431 -0.0040016673 0.70025003
0.037062317 -0.0040971437 0.70028579
0.042444449 -0.004666667 0.70000005
0.01407 0.004019524 0.70350003
0.016704937 0.0022455414 0.70163643
0.020666668 0.00066666672 0.70000005
0.015333334 0.0060000005 0.70000005
-0.014080001 0.020784764 0.70400006
0.092666671 0.028666668 0.70000005
0.097333342 0.028666668 0.70000005
0.087798893 0.033119209 0.7001667
0.092165373 0.032059047 0.70125008
0.096955769 0.031794198 0.70209098
0.0036372493 0.037801486 0.70177782
0.0071738106 0.038207382 0.70075011
0.010666667 0.038666669 0.70000005
0.083682969 0.037876401 0.70044452
0.087562703 0.037432544 0.70183343
0.091972098 0.037355538 0.70330775
0.0043535717 0.041860715 0.70325005
0.0074920962 0.042417999 0.70250005
0.010007144 0.0426981 0.70050007
0.082342058 0.042583376 0.70115393
0.087044187 0.042723447 0.70346165
0.091318861 0.041971814 0.70400006
0.077733338 0.047600001 0.70000005
0.052443814 -0.020843811 0.70600003
0.057071429 -0.020814288 0.7050001
0.047851428 -0.01662508 0.70766675
0.052576415 -0.017422566 0.70569229
0.05789781 -0.01792198 0.70500004
0.061605405 -0.015906353 0.70566672
0.032330953 -0.010777382 0.70725
0.037460279 -0.012392109 0.70599997
0.040957145 -0.012757144 0.7050001
0.048342861 -0.014100001 0.70500004
0.0513 -0.013665715 0.70566672
0.023928335 -0.0064035719 0.70775002
0.027580637 -0.0071768258 0.70633334
0.032250002 -0.0087347627 0.70550007
0.013703811 -0.0011234921 0.70766675
0.017392928 -0.0024035377 0.70628577
0.022859048 -0.0047066668 0.70599997
-0.026297145 0.0020228573 0.708
0.0047166669 0.0040423814 0.70749998
0.0060685719 0.0047200001 0.708
0.012118476 0.0020196193 0.70699996
-0.015486668 0.019526668 0.70700002
0.098700009 0.03357143 0.70500004
0.1007143 0.03357143 0.70500004
-0.00067380955 0.037733812 0.70749998
0.00067142863 0.038942859 0.70500004
0.094671443 0.038271435 0.7050001
0.097473502 0.037644606 0.70583332
0.10174572 0.037733808 0.7075001
0.0025906127 0.042701371 0.70528579
0.093060009 0.04324 0.70499998
0.049026351 -0.0187527 0.71166676
0.050714288 -0.018933335 0.71000004
0.027149286 -0.010182144 0.71275002
0.0078142863 -0.0064557148 0.71350002
0.012229169 -0.0067944047 0.71337509
0.01770455 -0.0070078308 0.71200001
0.022340957 -0.0074480004 0.71080005
0.026456829 -0.0088193659 0.71233338
-0.031193335 -0.00067809527 0.71200001
-0.00068000006 -0.00068000006 0.71400005
0.003078022 -0.0023498172 0.71253854
0.0074519049 -0.0027117459 0.71133345
0.011814946 -0.0030716492 0.71046156
0.017179621 -0.0044641909 0.71020001
-0.031492174 0.0026439156 0.71366674
-0.028640194 0.0033940957 0.71260005
0.0031592068 0.0011287302 0.71150005
0.0074380958 0.0020285717 0.71000004
0.010142858 0.00067619054 0.71000004
-0.031053334 0.0065733339 0.71400011
-0.028030954 0.0076447623 0.71350008
-0.026356932 0.012158837 0.71366674
-0.023410477 0.01323143 0.71250004
-0.025160002 0.016320001 0.71400005
-0.022399208 0.017647937 0.71266675
-0.018491566 0.018685579 0.71157146
-0.022436721 0.022436721 0.713889
-0.01764524 0.022393178 0.71250004
-0.021080002 0.025160002 0.71400005
-0.017410053 0.026147833 0.71211118
-0.012220714 0.029188812 0.71275002
-0.010876429 0.032628812 0.71375012
-0.0074765082 0.034663811 0.71366668
-0.0067985719 0.037390959 0.71383345
-0.0032197621 0.039117385 0.71125001
0.027048096 -0.016091906 0.71900004
0.032986861 -0.016836384 0.71859998
0.037563391 -0.017075557 0.71711111
0.040288575 -0.01707143 0.71700001
0.0075323819 -0.010271429 0.71900004
0.012386561 -0.011171747 0.71811116
0.017946148 -0.01148987 0.71727276
0.022676956 -0.011887049 0.71720004
0.027326984 -0.012982225 0.71733344
0.032799762 -0.013667619 0.71749997
0.00375881 -0.006494524 0.71775001
0.0072420957 -0.0083365729 0.71740007
0.012281905 -0.0088709528 0.71650004
0.017502224 -0.0088647623 0.71600002
0.021820955 -0.0088647623 0.71600002
-0.0016606806 -0.0034190482 0.71771437
0.0011368255 -0.004320953 0.71633339
-0.036943495 0.0034200004 0.71833342
-0.03388413 0.0043209526 0.71633339
-0.036292382 0.0061628576 0.71900004
-0.032882724 0.007708028 0.71714288
-0.031242225 0.011859048 0.71833342
-0.028880954 0.012735239 0.71633339
-0.030814288 0.015749525 0.71900004
-0.027625579 0.017960139 0.71742857
-0.026879845 0.021638576 0.71750009
-0.01707143 0.028680002 0.71700001
-0.016409645 0.032817502 0.717875
-0.013640597 0.032737501 0.71612507
0.029254049 -0.032695476 0.72275007
0.033248894 -0.027517781 0.72233343
0.036443815 -0.025441907 0.72200006
0.029608574 -0.021345716 0.72300005
0.032743271 -0.022517689 0.72271436
0.037131429 -0.022691429 0.72200006
0.042237811 -0.022563336 0.72230011
0.017889526 -0.015826192 0.72250009
0.023007303 -0.017352488 0.72233337
0.027605241 -0.01844381 0.72166675
0.032700002 -0.019437781 0.72033346
0.037714288 -0.019885715 0.72000003
0.042117149 -0.019456193 0.72100008
0.0028307938 -0.0115527 0.72300005
0.0079546943 -0.012867075 0.72185725
0.012268844 -0.013840817 0.72142869
0.01743543 -0.014141715 0.72080004
0.021942858 -0.014400001 0.72000003
-0.0061971433 -0.0068857148 0.72300005
-0.0025243389 -0.0071133343 0.72277784
0.0022345239 -0.0080783339 0.72175002
-0.010328572 -0.0048200004 0.72300005
-0.0075742863 -0.0048200004 0.72300005
-0.0041257143 -0.0048133335 0.72200006
-0.040990479 0.0038933335 0.72133344
-0.039085716 0.004114286 0.72000003
-0.037563339 0.0075604767 0.7215001
-0.034971431 0.0082285721 0.72000003
-0.035560004 0.010782858 0.72266674
-0.033189528 0.012818096 0.72100008
-0.032297242 0.017866002 0.7215001
-0.030942859 0.021316191 0.72200006
-0.019200001 0.028800001 0.72000003
0.024200002 -0.031114288 0.72600001
0.027211813 -0.031632382 0.7252
0.024300002 -0.029854288 0.72900003
0.027719583 -0.027719941 0.72768748
0.031632382 -0.026659811 0.7252
0.0048400005 -0.020051429 0.72600001
0.017357145 -0.020134289 0.72900003
0.022474287 -0.0210898 0.72771436
0.027487969 -0.022961905 0.72654551
0.03107143 -0.023476191 0.72500002
-0.0013828572 -0.015902858 0.72600001
0.0030403815 -0.016995622 0.72539991
0.0074036741 -0.016881227 0.72557145
0.012465875 -0.017316032 0.72716665
0.017301271 -0.017994922 0.72666669
0.020503176 -0.018199686 0.7256667
-0.010414287 -0.010414287 0.72900003
-0.0073957155 -0.011321112 0.72783339
-0.002626667 -0.012300954 0.7256
0.0026632654 -0.013513606 0.72500002
0.0062142862 -0.013809524 0.72500002
-0.05207143 -0.0069428575 0.72900003
-0.016657382 -0.0069407145 0.72874999
-0.012322668 -0.0073386678 0.72680002
-0.0080028586 -0.0078066676 0.72614294
-0.0034523811 -0.0089761913 0.72500008
-0.050648101 -0.0041633337 0.72850001
-0.017345238 -0.0041623814 0.72850001
-0.013125716 -0.0048355563 0.72533339
-0.0075952387 -0.0048333337 0.72500002
-0.051325005 0.0038135715 0.72825003
-0.047604632 0.0036601368 0.72742862
-0.043812573 0.0042841914 0.72560006
-0.051342383 0.006244286 0.72850001
-0.047000416 0.0074229948 0.72728574
-0.042664334 0.0074781827 0.72572726
-0.039357144 0.0082857152 0.72500002
-0.045460239 0.011452144 0.72875005
-0.042270243 0.012473572 0.72758335
-0.037682127 0.012809452 0.7254616
-0.04096286 0.015968572 0.72900003
-0.037225455 0.017194808 0.72745454
-0.033188574 0.020742858 0.72600001
-0.02554762 0.024166668 0.72500002
0.022278097 -0.031328574 0.73100001
0.018874288 -0.025864763 0.73400003
0.023146458 -0.02763598 0.73155552
0.0080390479 -0.020621905 0.73400003
0.012827239 -0.021334099 0.73200005
0.01743651 -0.023018096 0.73233348
0.021773454 -0.023517024 0.73162502
0.0083542857 -0.018797144 0.73100001
-0.017142544 -0.012024023 0.73300004
-0.012555811 -0.011859429 0.7324
-0.0081263501 -0.012769526 0.73133337
-0.072001919 -0.0076895244 0.73400009
-0.067108572 -0.006990477 0.73400009
-0.061896063 -0.007275647 0.73257148
-0.057994291 -0.0072620413 0.73114288
-0.053954765 -0.0066138101 0.73100001
-0.020820571 -0.0079657147 0.73360002
-0.017977145 -0.0082213348 0.73160005
-0.013227619 -0.0090504764 0.73100001
-0.071069852 -0.0044273022 0.73400009
-0.067238949 -0.0036444445 0.732889
-0.06245055 -0.002789184 0.73207152
-0.057790559 -0.0027853174 0.73108333
-0.053745907 -0.003063238 0.73100001
-0.020272382 -0.0048933337 0.73400003
-0.018822858 -0.0041828575 0.73200005
-0.066228576 0.00069714291 0.73200005
-0.062130481 0.001397143 0.73300004
-0.057243813 0.002091852 0.73200005
-0.054442097 0.0032024763 0.73100001
-0.048037145 0.0034809527 0.73100001
-0.056003816 0.0072038099 0.73200005
-0.05279072 0.0078411903 0.73175001
-0.048965402 0.0085863499 0.73100007
-0.052044287 0.010828096 0.73350006
-0.047589168 0.012375833 0.73212504
-0.04531429 0.016034286 0.73200005
-0.042516671 0.017192859 0.7318334
-0.039682861 0.018797144 0.73100001
-0.041243814 0.020272382 0.73400003
-0.037671909 0.020230953 0.73250008
-0.028822288 0.023809716 0.73100001
0.014780001 -0.031671431 0.73900002
0.018064447 -0.031202225 0.73900002
0.02035524 -0.030181907 0.73700005
0.01333211 -0.026763674 0.7367143
0.017384287 -0.027570238 0.73749995
0.02089943 -0.027632764 0.73640007
-0.0091495244 -0.020410478 0.73900002
0.0049133338 -0.022460954 0.73700005
0.0077161905 -0.023149662 0.73657149
0.012152224 -0.024071589 0.73616672
-0.012183174 -0.016634922 0.73800004
-0.008791429 -0.017232381 0.73850006
-0.00070095243 -0.018224763 0.73600006
0.0014019049 -0.018925715 0.73600006
-0.065277144 -0.010528572 0.73700005
-0.063171431 -0.010528572 0.73700005
-0.020888383 -0.01163581 0.73600006
-0.018925715 -0.013318096 0.73600006
-0.013041715 -0.01444362 0.73620003
-0.0077104769 -0.014720002 0.73600006
-0.0049066669 -0.014720001 0.73600006
-0.087272391 -0.0077419057 0.73900002
-0.082272075 -0.0070323814 0.7383334
-0.077235959 -0.0070216674 0.73725003
-0.0721981 -0.0063085719 0.73600006
-0.066620007 -0.0091165081 0.73633337
-0.063171431 -0.0091247624 0.73700005
-0.086216666 -0.0045747622 0.73900002
-0.081953913 -0.0030916191 0.73799998
-0.077314287 -0.0028095236 0.73800015
-0.07274881 -0.0024538098 0.73625004
-0.081939057 0.0010552381 0.73850006
-0.078122862 0.0012668573 0.73900002
-0.072734676 0.001548 0.73860002
-0.058780007 0.0039806357 0.73766673
-0.057416957 0.0082809525 0.73700005
-0.056620955 0.011099429 0.73760003
-0.052695479 0.012648335 0.73775005
-0.049133338 0.013336191 0.73700005
-0.045747623 0.017595239 0.73900002
-0.04345905 0.018925715 0.73600006
0.013390477 -0.030304763 0.74000001
0.013390477 -0.02889524 0.74000001
-0.011724954 -0.02104762 0.74160004
-0.0073629939 -0.021890344 0.74142861
-0.0026259865 -0.022323539 0.74242866
0.0021212702 -0.021914288 0.74222225
-0.011999048 -0.018582541 0.74100006
-0.0069066673 -0.017900955 0.74000001
-0.0037098811 -0.017840119 0.74187505
-0.10118953 -0.010614286 0.74300003
-0.097120725 -0.011498809 0.74300003
-0.0928156 -0.012542861 0.74290919
-0.088230833 -0.011493452 0.74262506
-0.096943818 -0.0091990484 0.74300003
-0.092315629 -0.0086234286 0.74220008
-0.086959057 -0.0082263499 0.74033344
-0.083866671 -0.0091619054 0.74000001
-0.086214103 -0.0018339049 0.74080008
-0.084150001 -0.0014138096 0.74250007
-0.076349221 0.0016444447 0.74000001
-0.061695624 0.0043775239 0.74120009
-0.061530095 0.0072139055 0.74260008
-0.059904765 0.0084571429 0.74000001
-0.051610481 0.014846668 0.74233341
-0.048825718 0.014860001 0.74300003
-0.097204775 -0.017028574 0.74500006
-0.09436667 -0.01631905 0.74500006
-0.10004286 -0.013480953 0.74500006
-0.097488575 -0.014332381 0.74500006
-0.13410001 -0.0078047626 0.74500006
-0.10004286 -0.0092238104 0.74500006
-0.064028576 0.0078257145 0.74700004
-0.061143339 0.010664286 0.74650002
-0.1118743 -0.020797145 0.75300002
-0.10876667 -0.021275241 0.75300002
-0.11748681 -0.015876736 0.75285727
-0.11211334 -0.016972383 0.75300008
-0.10755744 -0.016205432 0.75290006
-0.10296144 -0.01696175 0.75250006
-0.11711887 -0.012041715 0.75260001
-0.11240995 -0.012172276 0.75177777
-0.10814476 -0.012891429 0.75200003
-0.10391163 -0.013578667 0.75040007
-0.13822477 -0.0078780958 0.75200003
-0.11832859 -0.0093228575 0.75300002
-0.063571431 0.0092857145 0.75000006
-0.12200192 -0.026710479 0.75800008
-0.11767049 -0.025988575 0.75800002
-0.11478286 -0.025988573 0.75800002
-0.12107201 -0.022079239 0.75760001
-0.11741217 -0.022330903 0.75633335
-0.11295457 -0.022508847 0.75542867
-0.10617938 -0.021331748 0.75500005
-0.10282382 -0.022290479 0.75500005
-0.13066477 -0.015160001 0.75800002
-0.12745631 -0.017566349 0.75799996
-0.12266509 -0.017441336 0.75673342
-0.1169651 -0.018455558 0.75500005
-0.11325 -0.018335715 0.75500005
-0.10742573 -0.01883905 0.75500005
-0.10210477 -0.018695239 0.75500005
-0.099947624 -0.019414287 0.75500005
-0.13608001 -0.012240001 0.75600004
-0.13225715 -0.012116573 0.7572
-0.12777716 -0.012272381 0.75799996
-0.1225387 -0.01236537 0.75563639
-0.13230477 -0.0086285714 0.75500005
-0.12735508 -0.0086344462 0.75550008
-0.12226636 -0.0080760848 0.75566673
-0.11880001 -0.0072000008 0.75600004
-0.11432858 -0.0093476195 0.75500005
-0.13443334 -0.035606667 0.76300001
-0.13189001 -0.033245001 0.76300001
-0.12732479 -0.031795241 0.76220006
-0.12393429 -0.031164763 0.76100004
-0.11990001 -0.03124667 0.76300001
-0.131236 -0.026014669 0.76300001
-0.12687646 -0.027551513 0.76125014
-0.12264512 -0.027538218 0.76087505
-0.11790915 -0.028571239 0.76140004
-0.13639677 -0.022224953 0.76260006
-0.13248077 -0.022638096 0.76180011
-0.12723924 -0.02231472 0.7602728
-0.12340953 -0.022800002 0.76000005
-0.13535239 -0.017371429 0.76000005
-0.13258876 -0.017568834 0.76000017
-0.12907939 -0.01664762 0.76000011
-0.13800192 -0.035777781 0.76666677
-0.14116572 -0.03145143 0.76800001
-0.13808107 -0.032875773 0.76711118
-0.13332859 -0.031692859 0.76500005
-0.14159207 -0.027782861 0.7676667
-0.13789612 -0.027726114 0.76608336
-0.13306364 -0.028414285 0.76500005
-0.12167144 -0.02987143 0.76500005
-0.14104319 -0.022653971 0.76733339
-0.13879286 -0.022950001 0.76500005
-0.15202335 -0.03644143 0.77300006
-0.14759271 -0.036713973 0.77100009
-0.14300004 -0.036666669 0.7700001
-0.15621701 -0.032126829 0.77250004
-0.15216222 -0.032344602 0.7718333
-0.14759144 -0.032310475 0.77100009
-0.14329335 -0.032560002 0.77000004
-0.15513524 -0.028674288 0.77200001
-0.15223832 -0.027211219 0.77222222
-0.14774077 -0.027195558 0.77177775
-0.14410003 -0.026766669 0.77000004
-0.15209697 -0.023705333 0.77300006
-0.14794271 -0.023553176 0.77283335
-0.143736 -0.023050286 0.77080005
-0.14193255 -0.017649684 0.77216667
-0.13878 -0.017622858 0.77100003
-0.16163191 -0.037071906 0.77850002
-0.15730658 -0.037784867 0.77788889
-0.15298191 -0.038431428 0.77600002
-0.1612124 -0.03431651 0.77766669
-0.15735081 -0.03472032 0.77566671
-0.15060668 -0.020773334 0.77900004
-0.14772668 -0.021102859 0.77750003
-0.14678463 -0.018493742 0.77671438
-0.16650668 -0.038080003 0.78400004
-0.16332129 -0.037918098 0.78066671
-0.1597143 -0.039371431 0.78000003
-0.15352049 -0.020867145 0.78250003
-0.17128539 -0.038757145 0.78766674
-0.16885619 -0.039399527 0.78800005
-0.1600543 -0.023294287 0.78900003
-0.15789106 -0.022341335 0.78720009
-0.171 -0.032680001 0.79800004
-0.17818695 -0.032407895 0.80200011
-0.17343087 -0.031878855 0.80080003
