# .PCD v0.7 - Point Cloud Data file format
VERSION 0.7
FIELDS x y z
SIZE 4 4 4
TYPE F F F
COUNT 1 1 1
WIDTH 615
HEIGHT 1
VIEWPOINT 0 0 0 1 0 0 0
POINTS 615
DATA ascii
-0.01828381 0.035937145 0.66200006
-0.0012628572 0.047357146 0.66300005
0.0031504766 0.049152702 0.66166675
0.0056742863 0.049807623 0.66200006
0.0023984131 0.052893139 0.66273344
0.0067279367 0.05256635 0.66233343
0.010718096 0.054851431 0.66200006
0.0094642863 0.056785241 0.66250002
0.01233932 0.058184773 0.66200012
0.015785715 0.05998572 0.66300005
0.013007429 0.062385149 0.66300005
0.016245715 0.062091436 0.66120005
0.013260001 0.065037146 0.66300005
-0.016979525 0.037609767 0.66649997
-0.012552454 0.03765678 0.66669232
-0.0095214285 0.038085718 0.66650003
-0.016851667 0.041338332 0.66775
-0.012834732 0.04206153 0.66713339
-0.0077943723 0.042664856 0.6668182
-0.0044466672 0.04383143 0.66700006
-0.015928572 0.04651143 0.66900003
-0.013041431 0.04675889 0.6680001
-0.0073887627 0.046243057 0.66880012
-0.0033384527 0.047808696 0.66712505
-0.013380001 0.05033429 0.66900003
-0.001060635 0.053625718 0.66766679
-0.0010609527 0.057258099 0.6680001
0.002685348 0.05758616 0.66669232
0.007172015 0.057231363 0.66600001
0.014588572 0.057720006 0.66600001
0.015857143 0.058354288 0.66600001
0.0078822458 0.061972313 0.6659286
0.010766667 0.063333333 0.66500002
0.019006353 0.042067941 0.67266673
-0.01180881 0.048194528 0.67025006
-0.008086985 0.048732385 0.67033339
-0.010912382 0.050710481 0.67400002
-0.0073415395 0.052172169 0.67246151
-0.0029003667 0.05205144 0.67092311
-0.0064190482 0.055845719 0.67400002
-0.0034571432 0.05760115 0.67199999
-0.0016668573 0.061367054 0.67260009
0.0021285717 0.062186837 0.67083335
0.0012838097 0.066116191 0.67400002
0.014873334 0.034273334 0.67900002
0.017448982 0.033327892 0.67857146
0.021973714 0.033218481 0.67860001
0.026347026 0.033135358 0.67887497
0.0038800002 0.038800001 0.67900002
0.0077600004 0.038800001 0.67899996
0.013331257 0.038117062 0.67836362
0.017608207 0.037546523 0.67707694
0.022083428 0.037322294 0.67800015
0.026065504 0.037410691 0.67855555
0.01418381 0.040620003 0.67700005
0.017597461 0.041418418 0.67600006
0.022111284 0.042482864 0.67823076
0.025220001 0.042033337 0.67900002
-0.020046668 0.045913335 0.67900002
-0.018753335 0.045913335 0.67900002
0.021497976 0.046713218 0.67887497
0.026513334 0.045913335 0.67900002
-0.010950159 0.053465083 0.67633337
-0.0092333341 0.054322224 0.67633337
-0.010987937 0.05752572 0.67866677
-0.0077948058 0.057829615 0.67672735
-0.0068946043 0.061403498 0.67866671
-0.0032197281 0.063042596 0.67642868
-0.0019400001 0.06608934 0.67900002
0.002306395 0.068538517 0.67800003
0.0027695245 0.07211905 0.67871433
0.0058114296 0.072965726 0.67800009
0.0034906671 0.076155059 0.67880005
0.0079187872 0.076682605 0.67763638
0.01126262 0.076907389 0.67575008
0.04234286 0.01889143 0.68400002
0.048857145 0.01889143 0.68400002
0.057977147 0.016937144 0.68400002
0.02888 0.023668572 0.68400002
0.032551348 0.022785475 0.68358344
0.037731249 0.022116728 0.68306255
0.042927679 0.022113273 0.6829375
0.047507465 0.022127463 0.6833334
0.052067738 0.020827023 0.68337506
0.014548573 0.02888 0.68400002
0.017914288 0.028988574 0.68400002
0.022144167 0.0286575 0.68387502
0.027688572 0.027688134 0.68346161
0.032469288 0.027273573 0.68187511
0.037609883 0.027236309 0.68087506
0.042772699 0.027172068 0.68253338
0.047097467 0.02626159 0.68366671
-0.0022148571 0.034265142 0.68400002
0.002753187 0.032988351 0.68330777
0.0078066671 0.032528572 0.68312496
0.012866668 0.03236394 0.68240011
0.017528383 0.031028954 0.68160003
0.022098575 0.030982701 0.68250006
0.028038809 0.031605002 0.68075001
0.032399647 0.032399643 0.6803751
0.037566353 0.032366861 0.68239999
0.042342864 0.030617144 0.68400002
-0.0020990476 0.03684191 0.68400002
0.002339524 0.036800858 0.6827001
0.0077860719 0.036339171 0.68137503
0.012070667 0.036210477 0.6814
0.028600002 0.037671022 0.68028569
0.032481369 0.037677087 0.68206251
0.037131429 0.037782863 0.68400002
0.023961907 0.044685718 0.68000001
0.027418034 0.042920385 0.68213344
0.03221019 0.042629529 0.68376923
0.036480002 0.041040003 0.68400002
-0.022228831 0.047465026 0.68100005
-0.017785525 0.048167624 0.68160003
0.022234922 0.048787307 0.68000001
0.02662204 0.047209255 0.68171436
0.030617144 0.046251431 0.68400002
-0.022230141 0.051994361 0.68364292
-0.017567938 0.052050956 0.68316668
-0.01362127 0.053183179 0.68099999
0.018603621 0.05242762 0.68300009
0.022213809 0.052013494 0.68266678
0.02601905 0.05138889 0.68300003
-0.021497143 0.056153145 0.68400002
-0.017465802 0.057132822 0.68381822
-0.013657938 0.057229053 0.68283337
0.018393336 0.056695245 0.68166673
0.020135239 0.055209529 0.68200004
-0.016285716 0.060582861 0.68400002
-0.012563335 0.061935719 0.68216676
-0.0085752392 0.062901594 0.68088889
-0.011041906 0.065601908 0.68200004
-0.0071564764 0.067009822 0.6831001
-0.0028904765 0.067983121 0.68099999
-0.0058628577 0.071005717 0.68400002
-0.0026029169 0.072820544 0.68268746
0.0012952382 0.074476197 0.68000001
-0.0016280954 0.076486669 0.68350005
0.0022047621 0.077528588 0.68180007
0.005828572 0.078361914 0.68000001
0.043308575 0.013780001 0.68900001
0.047901906 0.013780001 0.68900001
0.02944286 0.018974287 0.68700004
0.033050206 0.018443404 0.68814296
0.037790045 0.017792642 0.68736374
0.042314366 0.01679389 0.68708342
0.047041591 0.016901145 0.68793339
0.053174153 0.017847078 0.68685716
0.05684942 0.017788257 0.68611115
0.01312381 0.024279049 0.68900001
0.017429335 0.023981337 0.68800008
0.022770954 0.023423573 0.68799996
0.02725786 0.022023892 0.68691671
0.032677859 0.020260714 0.68625003
0.051458098 0.023437526 0.68740004
0.05766191 0.020968098 0.68800008
0.06102572 0.020341907 0.68900001
-0.0059057148 0.029528573 0.68900001
-0.002230667 0.029248953 0.68860006
0.0026191669 0.028813455 0.68762505
0.0078564296 0.028808575 0.6875
0.012320002 0.027317753 0.6874547
0.016988859 0.02652905 0.68609995
0.022217738 0.026137978 0.68612504
0.025915559 0.025915559 0.68600005
0.047568895 0.028584767 0.68733335
0.050915241 0.026004132 0.68833339
-0.0070540486 0.032317381 0.68900007
-0.0027973161 0.031940173 0.68700004
0.00196 0.03070667 0.68600005
0.039853334 0.03462667 0.68600005
0.042564232 0.033396829 0.68755561
0.046287242 0.032651048 0.68840009
0.039853334 0.037893336 0.68600005
0.042478189 0.037829358 0.68809104
0.045933336 0.036090478 0.68900001
0.03462667 0.043773334 0.68600005
0.037990481 0.042640004 0.68644446
0.042174291 0.041737467 0.68833339
0.045277145 0.040027622 0.68900001
0.028788097 0.048418101 0.68700004
0.032568455 0.046971548 0.68737507
0.036694288 0.045211431 0.68800002
-0.02600267 0.052658673 0.68600005
-0.021560002 0.052920006 0.68600005
0.022866668 0.05422667 0.68600005
0.027753336 0.052442547 0.68833345
0.030840954 0.050526671 0.68900001
-0.022293758 0.05772974 0.6862222
-0.018946668 0.059453338 0.68600005
0.02206032 0.057443172 0.68800014
0.026575718 0.056104291 0.68900001
-0.021124449 0.06119556 0.68600005
-0.017226351 0.061723497 0.68700004
-0.013720001 0.063373335 0.68600005
0.021139525 0.06341619 0.68825006
-0.012450614 0.067489803 0.68800008
-0.0088271443 0.06864953 0.68650007
0.021613654 0.066146992 0.68766677
-0.012201905 0.072160192 0.68880004
-0.0082212463 0.072461113 0.68830776
0.03824082 0.0085923811 0.69400001
0.041871827 0.0084613506 0.69241667
0.033691749 0.013873334 0.6936667
0.037339147 0.012533048 0.69269991
0.041846957 0.012238572 0.69090003
0.046686128 0.01286898 0.69042861
0.051936191 0.013347238 0.69380003
0.012540001 0.019140001 0.69300002
0.017453877 0.018585309 0.69342864
0.022634462 0.017950827 0.69345456
0.027738683 0.017291212 0.69223076
0.032700319 0.016019896 0.69133335
0.037457149 0.015114288 0.69000006
0.040085718 0.015114287 0.69000006
0.05206519 0.016474288 0.69199997
-0.0069378573 0.024115955 0.69375002
-0.0025694179 0.023562226 0.6936667
0.0033047623 0.023699867 0.69400001
0.0080488902 0.022563556 0.69280005
0.012368001 0.021972956 0.69080007
0.01691784 0.02157983 0.6904546
0.02186548 0.021207858 0.69050002
0.025628572 0.02037143 0.69000006
0.054131117 0.023887938 0.69033337
0.057595111 0.023583405 0.69057155
0.060587145 0.02305286 0.69150007
-0.016523812 0.029742859 0.69400001
-0.012375715 0.028543811 0.69300002
-0.0080407001 0.027542796 0.69193333
-0.0028122948 0.026857492 0.69090909
0.0026304766 0.026304288 0.69050002
0.007886786 0.026290361 0.69012505
0.049285717 0.029571431 0.69000006
0.053075243 0.02803231 0.69192308
0.057338364 0.027799312 0.6934545
0.060146671 0.027099051 0.69400001
-0.017845716 0.031064764 0.69400001
-0.012219524 0.031372383 0.69350004
-0.0095285717 0.031871431 0.69000006
0.048847623 0.033076193 0.69000006
0.052624006 0.032838736 0.69240004
0.057337627 0.032386668 0.69400001
0.063451439 0.031064764 0.69400001
0.047605526 0.037741911 0.69040006
0.052826192 0.03730778 0.69333333
0.057502862 0.035030477 0.69400001
0.043027814 0.043553907 0.69080007
0.047348149 0.041348577 0.69155556
0.050893337 0.040318098 0.69400001
0.03386762 0.048335239 0.69050002
0.037485026 0.048043642 0.69272739
0.04113064 0.046410006 0.69283336
0.029275002 0.053616431 0.69075006
0.032280322 0.051160321 0.69166672
-0.025628572 0.057828575 0.69000006
0.023876194 0.059361905 0.69000006
0.027916512 0.058096409 0.69233346
-0.021421907 0.06359905 0.69200003
-0.017785715 0.063238099 0.69166672
0.023380546 0.062253747 0.69014293
0.02719 0.061898388 0.6929
-0.021534858 0.065925337 0.69360006
-0.01674105 0.066420667 0.69190001
-0.013800001 0.067028575 0.69000006
0.024314288 0.065057144 0.69000006
0.025628572 0.065057144 0.69000006
-0.015787303 0.071696833 0.69066679
-0.013800001 0.070314288 0.69000006
0.028052956 0.0038556193 0.69800001
0.032526668 0.0046466673 0.69700003
0.029154561 0.0086419061 0.69800007
0.032521829 0.0079635717 0.69691676
0.036133017 0.0074322755 0.69544452
0.017948573 0.013960002 0.69800007
0.022698572 0.012874573 0.69690001
0.027852543 0.012598731 0.69633341
0.032257013 0.012202587 0.69528586
0.035080954 0.011252382 0.69500005
-0.0073123812 0.019278098 0.69800007
-0.0026572621 0.018602978 0.69762498
0.0035868571 0.018729715 0.69740003
0.0081387023 0.018025458 0.69636369
0.012786532 0.016952518 0.69614291
0.017005609 0.016120953 0.69566673
0.022107622 0.015488571 0.69500011
0.026476193 0.01522381 0.69500005
-0.01728381 0.024596192 0.69800001
-0.012451906 0.023407146 0.69725001
-0.0082796831 0.021968257 0.69550008
-0.00274449 0.021107486 0.69571435
0.0021337564 0.02156508 0.69555569
0.0059571434 0.02051905 0.69500005
-0.021168713 0.028192658 0.69771439
-0.017387843 0.027379489 0.69600022
-0.012907144 0.02614524 0.69500005
0.058909528 0.027138097 0.69500005
0.060895242 0.028461907 0.69500005
-0.021241907 0.031199049 0.69700003
-0.016384628 0.032298647 0.69614291
-0.013276191 0.033190478 0.69700003
0.058909528 0.032433335 0.69500005
0.061954297 0.032698095 0.69500011
0.057317887 0.036864765 0.69533348
0.061070479 0.035845716 0.69700003
-0.052516192 0.043652698 0.69800007
0.047874097 0.043893527 0.69620001
0.051813811 0.041186191 0.69749999
0.043117817 0.048424479 0.69650006
0.046289846 0.046289846 0.69766665
0.03247381 0.053457305 0.69583338
0.037159767 0.052424051 0.69675004
0.041590478 0.051689148 0.69760001
0.032636195 0.05724607 0.69672734
0.036728099 0.056006189 0.69800001
-0.024490478 0.064204767 0.69500005
0.029273337 0.062917911 0.69540006
0.032376003 0.061965335 0.69660008
-0.024490478 0.065528579 0.69500005
0.027840953 0.065622866 0.69600004
0.022720953 0.0040104762 0.70175004
0.026666669 0.004666667 0.70000005
0.0033523813 0.0087161912 0.70400006
0.018987622 0.0082650799 0.70366669
0.022711188 0.0073473817 0.70141673
0.027166668 0.0071666674 0.70000005
-0.0060342862 0.014080001 0.70400006
-0.002411905 0.012993428 0.70330006
0.0028117464 0.012181398 0.70286685
0.0072439844 0.01223446 0.70309097
0.012008255 0.012184635 0.70306689
0.017224837 0.011568425 0.70192319
0.022449367 0.010446826 0.7001667
0.026000002 0.010000001 0.70000005
-0.016906429 0.018578336 0.70300007
-0.012028175 0.018038653 0.70158333
-0.0071836915 0.016870357 0.70162511
-0.0026689288 0.01601393 0.70062506
0.0022444159 0.016676798 0.70045465
0.0070078578 0.015683096 0.70075005
0.011333334 0.015333335 0.70000005
-0.026148573 0.024807621 0.70400006
-0.021924764 0.023125144 0.70180005
-0.017346669 0.022014923 0.70050001
-0.013000001 0.021000002 0.70000005
-0.026483811 0.027824763 0.70400006
-0.023812247 0.027253883 0.70285726
-0.02681905 0.03017143 0.70400006
-0.023813017 0.030487305 0.70100009
0.058026992 0.039352067 0.70033336
0.061683811 0.039558098 0.70400006
-0.055333339 0.044000003 0.70000005
-0.052666675 0.044222228 0.70000005
0.052765816 0.043415148 0.70130008
0.056990478 0.040899049 0.70400006
-0.056398258 0.047033176 0.70216674
-0.052302167 0.047566932 0.70163649
0.047824129 0.047823813 0.70066679
0.051575378 0.04698218 0.70328581
-0.052222859 0.050214291 0.70300001
0.043369535 0.053282179 0.70057148
0.047360525 0.05198165 0.70218188
0.037840359 0.058510356 0.70012498
0.042292207 0.057017922 0.70281827
0.03335762 0.064712867 0.70050001
0.037215989 0.062503889 0.70135719
0.040899049 0.061013337 0.70400006
0.0047200001 -0.00067428575 0.708
0.0074171433 -0.0010114287 0.708
0.010100001 -0.00067333336 0.70700002
0.0047177779 0.0029196828 0.70766664
0.0074126199 0.0026946829 0.70758331
0.012120001 0.0026933334 0.7069999
0.017156512 0.0032514292 0.70649993
-0.0011234921 0.0083120642 0.70766664
0.0028227621 0.0073966677 0.70609999
0.0073857149 0.0073857149 0.70499998
0.012089048 0.007387144 0.7051667
0.016939791 0.0070892069 0.70522219
-0.012128572 0.014150001 0.70749998
-0.0074044913 0.012787348 0.70671439
-0.0031390479 0.010533335 0.70600003
0.00067142863 0.010071429 0.70500004
0.0087285722 0.010071429 0.70500004
0.012757144 0.010071429 0.70500004
-0.030342858 0.019554287 0.708
-0.027645716 0.019554287 0.708
-0.021406097 0.018443048 0.70680004
-0.01789562 0.016818287 0.7064001
-0.012102857 0.015464763 0.70600003
-0.0087285722 0.015442858 0.70500004
-0.085634291 0.024948573 0.708
-0.083611436 0.024948573 0.708
-0.031548005 0.02332343 0.70780009
-0.027729616 0.022708138 0.70699996
-0.024228573 0.022207621 0.70666665
-0.085634291 0.026297145 0.708
-0.083836198 0.026746668 0.70800006
-0.032332778 0.027615953 0.70725006
-0.028334288 0.02726 0.70500004
-0.032310717 0.030289287 0.70675004
-0.02887143 0.030214287 0.70500004
-0.066484578 0.037894856 0.708
-0.064057149 0.039782859 0.708
-0.066304766 0.04203048 0.70800006
-0.06219865 0.042201091 0.70657146
-0.059421431 0.043978579 0.70500004
0.057674106 0.042349152 0.7058
0.062350668 0.042556193 0.70699996
0.065313339 0.042420004 0.70700002
-0.061844055 0.047183815 0.70775002
-0.058816195 0.048048954 0.70660001
0.0534341 0.04858724 0.70660007
0.056824923 0.046043973 0.70749998
0.062438864 0.045446862 0.708
-0.055886671 0.051173337 0.70700002
-0.053053215 0.052211553 0.70737505
0.049014289 0.054385718 0.70500004
0.051823817 0.052496195 0.70666665
0.044180002 0.058951434 0.70500004
0.047740005 0.057825714 0.70599997
0.051098097 0.057641506 0.70728576
0.0033857145 -0.00067714287 0.71100003
-0.0027200002 0.0047600004 0.71400005
0.0028766668 0.0032171432 0.71100003
-0.0073000002 0.0076383334 0.71300006
-0.0032361906 0.0071475143 0.71111119
0.00067619054 0.0060857148 0.71000004
-0.026520004 0.014280002 0.71400011
-0.022149906 0.013724382 0.71340007
-0.017449459 0.01250279 0.71249998
-0.012200001 0.011520319 0.71166676
-0.0077880961 0.010495239 0.71100003
-0.037047386 0.019373097 0.71375
-0.032568179 0.017978018 0.71241677
-0.027017284 0.017330071 0.71171433
-0.022939866 0.0169366 0.7114287
-0.01826635 0.015559684 0.71033335
-0.091586351 0.023066668 0.71233338
-0.08802858 0.023700001 0.71100003
-0.040998258 0.022876985 0.71350002
-0.037314396 0.022387197 0.71233344
-0.033684004 0.021779239 0.71020001
-0.091960087 0.027134145 0.71361554
-0.087709434 0.027383907 0.71170002
-0.045560002 0.025840003 0.71400005
-0.041796431 0.026617702 0.71358341
-0.037297145 0.027123814 0.71200013
-0.034485716 0.02501905 0.71000004
-0.09243156 0.031942979 0.71362507
-0.087271079 0.032426417 0.71336383
-0.084142707 0.032572545 0.71250004
-0.075127624 0.033165082 0.71066666
-0.072854765 0.033607781 0.7105
-0.069647625 0.034485716 0.71000004
-0.085680008 0.036040001 0.71400005
-0.08225482 0.037388153 0.71377784
-0.077322714 0.037304286 0.71216673
-0.072313339 0.037726499 0.71081817
-0.068445511 0.038242329 0.71000004
-0.064238101 0.038542859 0.71000004
-0.081736006 0.040936004 0.71400005
-0.077319555 0.041989148 0.71340019
-0.072753541 0.042485151 0.71260017
-0.068048999 0.042784445 0.71055561
-0.064238101 0.043276191 0.71000004
-0.076024011 0.046648003 0.71400005
-0.072709367 0.047567464 0.71350014
-0.067750841 0.04742584 0.71137512
-0.063697152 0.047739051 0.71000004
0.057954289 0.048483498 0.71033335
0.06188181 0.048071336 0.71090001
-0.070040002 0.051000003 0.71400005
-0.066953719 0.051472574 0.713
-0.062113907 0.051944192 0.71200007
-0.058261588 0.052166354 0.71133339
-0.052337147 0.054500956 0.71000004
-0.049361907 0.054095238 0.71000004
0.054829292 0.052799284 0.71074998
0.057648368 0.052221909 0.71211118
0.062478807 0.05229342 0.71308351
0.065867625 0.053644765 0.71300006
-0.052126069 0.057559881 0.71312499
-0.049616829 0.057773657 0.7136668
0.0013657144 -0.00068285718 0.71700001
-0.01746143 0.0044509526 0.71900004
-0.012537778 0.0037219049 0.71799999
-0.0075085722 0.0047777779 0.7166667
-0.0022784129 0.0036438098 0.71766675
0.001229143 0.0017754287 0.71700001
-0.021555239 0.0078685721 0.71850008
-0.017769288 0.0075164298 0.71758336
-0.01228635 0.0075076199 0.7166667
-0.0088647623 0.0061371434 0.71600002
-0.032628749 0.013112037 0.71781826
-0.027279226 0.012115758 0.71772736
-0.022735514 0.011220409 0.71714294
-0.019093335 0.010228572 0.71600002
-0.045879051 0.019858096 0.71900004
-0.042046037 0.01834365 0.7178334
-0.0377606 0.01691393 0.71762496
-0.033429526 0.015691113 0.71633339
-0.051813658 0.023053652 0.71900004
-0.047900483 0.022581432 0.71850002
-0.043445557 0.022063971 0.71650004
-0.096965715 0.029362859 0.71700001
-0.094784766 0.028640002 0.71600002
-0.048529215 0.0259727 0.71766675
-0.097349182 0.032618273 0.71754551
-0.092163667 0.033226512 0.71683335
-0.088647626 0.034777146 0.71600002
-0.097007945 0.036748894 0.71900004
-0.092226997 0.036891118 0.71733332
-0.087569058 0.037782766 0.7161001
-0.086012065 0.041980006 0.71866673
-0.082916878 0.043163404 0.71614295
-0.079782866 0.044323813 0.71600002
-0.081372388 0.046842381 0.71800005
-0.078240149 0.047450479 0.71614289
-0.076008573 0.051357146 0.71900004
-0.072382867 0.051555719 0.71700001
-0.068872385 0.05250667 0.71600002
-0.063417144 0.053870481 0.71600002
-0.013064763 -0.0061885719 0.72200006
-0.016695121 -0.0022377381 0.72287506
-0.012664898 -0.0025537417 0.72157156
-0.0084923822 -0.0011476192 0.72300005
-0.001377143 -0.00068857148 0.72300005
-0.021884764 0.0037160001 0.7226001
-0.017795069 0.0023088311 0.72118199
-0.012062858 0.0014712926 0.72085726
-0.0075630695 0.0020610583 0.72188896
-0.0030473475 0.0016707485 0.72257155
-0.03261143 0.0083931442 0.72240013
-0.027230477 0.0078377156 0.72200012
-0.023478096 0.0072761909 0.7208001
-0.041066036 0.013994287 0.72266674
-0.037310358 0.01306631 0.72212505
-0.032914288 0.010628572 0.72000003
-0.028800001 0.010285715 0.72000003
-0.05174138 0.018876826 0.72222233
-0.047487803 0.017658532 0.72072744
-0.043542862 0.016114287 0.72000003
-0.05577429 0.022034287 0.72300005
-0.053282227 0.022409845 0.72033346
-0.052800007 0.026057145 0.72000003
-0.097600006 0.034514289 0.72000003
-0.096137151 0.037988573 0.72000003
-0.092826679 0.039194286 0.72200006
-0.095711432 0.041314289 0.72300005
-0.092317358 0.041684132 0.72277784
-0.088081285 0.043012701 0.72066677
-0.085952386 0.046070479 0.72200006
-0.083829999 0.046727147 0.72150004
-0.078124128 0.050631434 0.72166675
-0.020597145 -0.006711429 0.72900003
-0.017333334 -0.0069333334 0.7280001
-0.021477541 -0.0027734132 0.72741663
-0.018341191 -0.0038088099 0.72675002
-0.0062142862 -0.00069047621 0.72500002
-0.0041428572 -0.00069047621 0.72500002
-0.035408575 0.0048600002 0.72900003
-0.032549687 0.004154128 0.72716665
-0.027521763 0.0032452752 0.72661537
-0.02297893 0.001899643 0.72562498
-0.0034523811 0.00069047621 0.72500002
-0.047162145 0.00901643 0.72825003
-0.042351436 0.0090257153 0.72900003
-0.036909286 0.0081435721 0.72775006
-0.032129526 0.0065638102 0.72550005
-0.029000003 0.0062142862 0.72500002
-0.052232705 0.014097779 0.7280001
-0.047200371 0.012396704 0.72638464
-0.042957142 0.012261908 0.72645456
-0.038337335 0.010932762 0.72660005
-0.057270478 0.018164953 0.72800004
-0.053208847 0.01668286 0.72557145
-0.061558537 0.02223957 0.72772729
-0.05775008 0.021223269 0.72557145
-0.091833338 0.043500002 0.72500002
-0.088807151 0.046485242 0.72850001
-0.023007145 -0.0069709527 0.73199999
-0.037645716 -0.00069714291 0.73200005
-0.027250795 -0.0027958737 0.73366678
-0.024383334 -0.0027876194 0.73150003
-0.041828573 0.0048800004 0.73200005
-0.03781594 0.0026508574 0.73260015
-0.033160001 0.0017447621 0.73300004
-0.028543813 0.00069619052 0.73100007
-0.04531429 0.007668572 0.73200005
-0.042477623 0.006963334 0.73116672
-0.038638577 0.0066138101 0.73100001
-0.065710485 0.013980953 0.73400003
-0.062182106 0.014112763 0.73360002
-0.058251906 0.014300477 0.73250002
-0.052285716 0.012548571 0.73200005
-0.065011434 0.016078096 0.73400003
-0.062522084 0.017546151 0.7316364
-0.058131907 0.016360477 0.73100001
-0.066138096 0.020885717 0.73100001
-0.064397626 0.021581907 0.73100001
-0.026414288 -0.0067793652 0.73633337
-0.024533335 -0.0077104769 0.73600006
-0.035748575 -0.00070095243 0.73600006
-0.03172905 -0.0015773812 0.73625004
-0.032243811 0.00070095243 0.73600006
-0.057593815 0.0091309529 0.73750007
-0.052433811 0.0087976195 0.73900002
-0.04926667 0.0077419053 0.73900002
-0.061787862 0.011935 0.73725003
-0.05735039 0.011800953 0.73681813
-0.05293867 0.011092572 0.73720002
-0.049835242 0.010528572 0.73700005
-0.053706668 0.0077733337 0.74200004
