# .PCD v0.7 - Point Cloud Data file format
VERSION 0.7
FIELDS x y z
SIZE 4 4 4
TYPE F F F
COUNT 1 1 1
WIDTH 724
HEIGHT 1
VIEWPOINT 0 0 0 1 0 0 0
POINTS 724
DATA ascii
-0.055680007 0.12934001 0.60900003
-0.053940002 0.12934001 0.60900003
-0.055927198 0.13225308 0.60881823
-0.053904574 0.13273278 0.60860002
-0.056028005 0.13630001 0.60900003
-0.053553335 0.13707334 0.60900009
-0.055552386 0.1198762 0.61400002
-0.053798098 0.1198762 0.61400002
-0.060230479 0.12396953 0.61400002
-0.057103243 0.12272903 0.61306661
-0.052758101 0.12268266 0.61184621
-0.061296832 0.12803349 0.61200005
-0.057342108 0.12734002 0.61142111
-0.052288681 0.12733638 0.61110532
-0.049461909 0.12801905 0.611
-0.062048815 0.13303074 0.61175001
-0.058901694 0.13286826 0.611
-0.061305817 0.13730012 0.61190003
-0.057896979 0.13777994 0.61181819
-0.054205719 0.13930286 0.61200005
-0.060554292 0.14116445 0.61333334
-0.057503439 0.14177144 0.61360002
-0.054205719 0.14046858 0.61200005
-0.057480279 0.11437226 0.61857146
-0.053363811 0.11437905 0.61800003
-0.066000238 0.11785667 0.61875004
-0.062283617 0.11784008 0.61778575
-0.057557564 0.11746268 0.61668754
-0.053290643 0.11716207 0.61716676
-0.06580741 0.12292022 0.61755556
-0.062427945 0.1225054 0.61644447
-0.058278576 0.12036429 0.61500001
-0.065475874 0.12645558 0.61566675
-0.062946863 0.12647906 0.61540002
-0.056655239 0.10954668 0.62400007
-0.054080002 0.10994286 0.62400001
-0.061541911 0.11318826 0.62333333
-0.057807822 0.11209799 0.62233341
-0.052336771 0.11261385 0.62213343
-0.048633572 0.11387405 0.62275004
-0.062295239 0.11602858 0.62
-0.050352383 0.11551429 0.62200004
-0.049167622 0.11551429 0.62200004
-0.060503814 0.10483334 0.62900001
-0.057199601 0.10422464 0.62842864
-0.052688263 0.10357969 0.62866676
-0.048125621 0.10379153 0.6285001
-0.044785716 0.1045 0.62700003
-0.060693499 0.10785319 0.62683338
-0.057398032 0.10704485 0.62592858
-0.052464403 0.10731298 0.62600005
-0.047709711 0.10734555 0.62618756
-0.044696432 0.10726977 0.62575001
-0.062537506 0.11197132 0.62537503
-0.051508337 0.11046071 0.62524998
-0.04747586 0.11171288 0.62535715
-0.044714287 0.11029524 0.62600005
-0.057874288 0.099471435 0.63300002
-0.053051434 0.099471435 0.63300002
-0.04875429 0.099314295 0.63200009
-0.061291121 0.10288762 0.63300002
-0.057886675 0.10184405 0.63161546
-0.052936073 0.10105941 0.631625
-0.048051644 0.10151619 0.63155556
-0.062840417 0.10714708 0.63357145
-0.057050485 0.097602591 0.63776928
-0.052184634 0.097345322 0.6371429
-0.047291771 0.097791106 0.63778579
-0.043595478 0.097975969 0.63800001
-0.065824769 0.10349621 0.63800001
-0.063370347 0.10279239 0.63542867
-0.066635564 0.10633334 0.63800001
-0.064735003 0.10768929 0.63525003
-0.056832027 0.09359441 0.64337504
-0.052480619 0.092762753 0.64205891
-0.047814976 0.09256991 0.64183336
-0.044294767 0.09377858 0.64150006
-0.06059429 0.096092701 0.6426667
-0.058069527 0.095473722 0.64180011
-0.052419052 0.095695242 0.64000005
-0.047339689 0.095695242 0.64000005
-0.04395429 0.095844768 0.64100003
-0.06691429 0.10230287 0.64066672
-0.060971435 0.088069215 0.64666671
-0.057613242 0.088265061 0.64630002
-0.052816067 0.087761231 0.64700001
-0.048026323 0.08837577 0.64727277
-0.043556385 0.088964395 0.64780003
-0.061381776 0.092467502 0.6454286
-0.058129717 0.091433726 0.64520001
-0.053442862 0.090300009 0.6450001
-0.046685718 0.090300009 0.64500004
-0.044842862 0.09152858 0.64500004
-0.055349529 0.083957151 0.65300006
-0.052099761 0.084351443 0.65125006
-0.049130481 0.083957151 0.65300006
-0.060170796 0.086222231 0.65133339
-0.057238098 0.085935004 0.65150005
-0.052000005 0.086047627 0.65000004
-0.047221065 0.086375132 0.65144455
-0.043333337 0.086666673 0.65000004
-0.050760005 0.07958667 0.65800005
-0.047940001 0.079273336 0.65800005
-0.060717382 0.082623579 0.65725005
-0.057490479 0.08269795 0.65669239
-0.052560166 0.081967629 0.65700006
-0.047414351 0.082442798 0.65680003
-0.043345626 0.083057441 0.6577
-0.058014289 0.085461907 0.65500003
-0.046196669 0.085527152 0.65550005
-0.043733336 0.085592389 0.65600002
-0.048620004 0.073877148 0.66300005
-0.060971431 0.0792 0.66000003
-0.057651054 0.078140453 0.66133338
-0.052988421 0.077309035 0.66110528
-0.047900196 0.077032901 0.66120005
-0.043806266 0.078885995 0.66114295
-0.059085719 0.081085719 0.66000003
-0.04274286 0.081085719 0.66000003
-0.049060002 0.069448575 0.66900003
-0.055838812 0.07360357 0.66624999
-0.051732384 0.072889224 0.66650009
-0.047324482 0.073022768 0.66790003
-0.045570478 0.076092392 0.66766679
-0.043897144 0.076341912 0.66800004
-0.045575242 0.064832382 0.67400002
-0.057082184 0.06899184 0.6734286
-0.052315682 0.068257809 0.67176926
-0.047222231 0.067695886 0.67186666
-0.044203814 0.067265406 0.67266673
-0.056684289 0.071411908 0.67250001
-0.053301197 0.071174055 0.67025
-0.046325717 0.071339063 0.67000002
-0.043603178 0.074231759 0.67000002
-0.05690667 0.064020008 0.67900002
-0.052751958 0.063514717 0.67822224
-0.047875762 0.063694641 0.67681819
-0.044444766 0.06376604 0.67633337
-0.056718338 0.065739766 0.67675
-0.053423654 0.065651596 0.6758334
-0.04488286 0.053989526 0.68300003
-0.056591433 0.059193335 0.68300003
-0.051655244 0.058816832 0.68366671
-0.047541648 0.057369705 0.68381822
-0.044926669 0.057515882 0.68366671
-0.056619409 0.06148465 0.68137503
-0.051981434 0.061077379 0.68225008
-0.047460001 0.061114293 0.68266672
-0.044948574 0.060582861 0.68400002
-0.047245719 0.042652383 0.68900001
-0.050866351 0.053922229 0.68766677
-0.047481429 0.052972861 0.68670005
-0.056893975 0.057548892 0.68666673
-0.05241704 0.056777049 0.6870001
-0.04638667 0.056840003 0.68600005
-0.048006669 0.043402381 0.69050002
-0.052801274 0.048179369 0.69300002
-0.047769237 0.047263738 0.69000012
-0.060146671 0.050893337 0.69400001
-0.057278104 0.052597232 0.69272739
-0.053008653 0.052298028 0.69107699
-0.047971427 0.050600003 0.69000006
-0.057198416 0.055884134 0.69033337
-0.054542862 0.055857148 0.69000006
-0.056215148 0.042260289 0.69769996
-0.05232745 0.042669617 0.69709092
-0.049311906 0.041369051 0.69500005
-0.057534646 0.04857941 0.69637501
-0.052952383 0.045671433 0.69500005
-0.059001915 0.043193653 0.7013334
-0.054000005 0.04066667 0.70000005
-0.058481198 0.046449766 0.70175004
-0.056440003 0.019720001 0.71400005
-0.055896003 0.022712002 0.71400005
-0.052603055 0.023242667 0.7136001
-0.056425806 0.027625285 0.71381831
-0.052377671 0.026959309 0.71254551
-0.060477626 0.032616191 0.71350002
-0.057967342 0.032309435 0.71270013
-0.054171432 0.031148575 0.71100003
-0.055922225 0.013923492 0.71900004
-0.053274479 0.013558286 0.71900004
-0.049987622 0.014380001 0.71900004
-0.060943812 0.019858096 0.71900004
-0.057071753 0.017997462 0.71766663
-0.052824169 0.017607708 0.71863633
-0.060943812 0.021912381 0.71900004
-0.058225315 0.022334151 0.71685719
-0.053411432 0.021227621 0.71900004
-0.061586197 0.028054764 0.71850008
-0.058796763 0.026328573 0.71620005
-0.062313337 0.031499051 0.71900004
-0.0611981 0.013752382 0.72200006
-0.057731014 0.012583492 0.72066677
-0.051702864 0.01152 0.72000009
-0.048685718 0.010971429 0.72000003
-0.059200004 0.016228573 0.72000003
-0.050057147 0.016457144 0.72000003
-0.062000643 0.023563813 0.72066677
-0.066102862 0.029608574 0.72300005
-0.063090287 0.027079243 0.72160006
-0.06587334 0.031444766 0.72300005
-0.063948579 0.031630479 0.72200006
-0.060402863 0.0090257153 0.72900003
-0.057762291 0.0084480001 0.72720003
-0.052476194 0.0089761913 0.72500002
-0.06069937 0.011308256 0.72700012
-0.058040477 0.010364287 0.72549999
-0.062485717 0.018745715 0.72900003
-0.076764457 0.023352701 0.72833341
-0.072167739 0.023189645 0.72687495
-0.067583278 0.023648301 0.7272858
-0.063697621 0.022152858 0.72700006
-0.076710805 0.027215132 0.72855562
-0.072684288 0.027689684 0.72683334
-0.067917958 0.027344218 0.72557139
-0.064214289 0.02554762 0.72500002
-0.075677149 0.031242859 0.72900003
-0.072443441 0.031718861 0.72720003
-0.068384632 0.032464899 0.72528571
-0.10206096 -0.00069904764 0.73400003
-0.10618334 0.0027947621 0.73350006
-0.1028216 0.0030256086 0.73333335
-0.099963814 0.0048933337 0.73400003
-0.060817149 0.0048933337 0.73400003
-0.059419051 0.0048933337 0.73400003
-0.061370242 0.0076721436 0.73225003
-0.058480002 0.0062657148 0.73100001
-0.086681902 0.013980954 0.73400003
-0.082620747 0.013730161 0.73311108
-0.077391051 0.012990286 0.73340005
-0.073400006 0.014680001 0.73400009
-0.067108572 0.014680001 0.73400003
-0.063090801 0.012806351 0.73333335
-0.086881094 0.017455785 0.73314291
-0.082262866 0.017428575 0.73200005
-0.077382863 0.017428573 0.73199999
-0.072568893 0.017443176 0.73266667
-0.067181997 0.0173181 0.73272735
-0.063126862 0.017140193 0.73159999
-0.090177149 0.02376762 0.73400003
-0.087189957 0.022416972 0.73345464
-0.082227923 0.022298988 0.73168761
-0.077562064 0.02113159 0.73150003
-0.072559871 0.020802043 0.73157144
-0.067561276 0.020894922 0.73133337
-0.064745717 0.020885717 0.73100001
-0.086448893 0.026330795 0.73400009
-0.082120888 0.027409675 0.73215389
-0.078241274 0.029485717 0.73133337
-0.082487628 0.030758096 0.73400009
-0.078134768 0.031392857 0.73250002
-0.11150382 0.0029537145 0.73820007
-0.10107048 0.0023870477 0.73800009
-0.097331978 0.0043186401 0.73828578
-0.062324386 0.0037986671 0.73860008
-0.05974286 0.0028104763 0.73800004
-0.1016712 0.0075509525 0.73750001
-0.097594179 0.0077243391 0.73722225
-0.092808142 0.0078450227 0.7367273
-0.087976202 0.0086803176 0.73900002
-0.082345724 0.0085864766 0.73900002
-0.077619061 0.0086761918 0.73866671
-0.072171628 0.0085815247 0.73860002
-0.067274727 0.0078570573 0.73790908
-0.063479528 0.0073647625 0.73650002
-0.10237724 0.012939269 0.73900008
-0.097720169 0.012654762 0.73816675
-0.092589177 0.012626073 0.73650008
-0.088043936 0.01192512 0.73662502
-0.082476191 0.011123267 0.73657149
-0.076424956 0.011358286 0.73620003
-0.072126389 0.012207716 0.73670006
-0.06735675 0.01232803 0.73671448
-0.063786671 0.011215239 0.73600006
-0.10247467 0.017876765 0.73899996
-0.097683705 0.017568359 0.73788887
-0.092599928 0.017537542 0.73658341
-0.08902096 0.01752381 0.73600006
-0.10158318 0.021348892 0.73900002
-0.097720169 0.022497304 0.73816675
-0.092880957 0.022243271 0.73642862
-0.08902096 0.021729525 0.73600006
-0.097829536 0.026040955 0.73900002
-0.09220276 0.027091853 0.73777783
-0.088086359 0.027804449 0.73600006
-0.091372386 0.030222859 0.73800004
-0.087685399 0.031566884 0.73655558
-0.083222859 0.032700192 0.73680007
-0.078613341 0.032989524 0.73700005
-0.047164291 -0.017215081 0.74283338
-0.043872382 -0.016275238 0.74300003
-0.051040009 -0.012633744 0.74285722
-0.047394287 -0.012890391 0.74072725
-0.043988258 -0.01435016 0.74100006
-0.050173335 -0.0084800003 0.74200004
-0.048288893 -0.0087155569 0.74200004
-0.10118953 -0.00070761907 0.74300003
-0.097820878 -0.0019940261 0.74281824
-0.092656836 -0.0014149207 0.74266672
-0.087273024 -0.0011793652 0.74300003
-0.082791433 -0.00070761907 0.74300003
-0.079960957 -0.00070761907 0.74300003
-0.061813146 -0.0012733334 0.74260008
-0.11180381 0.0049533336 0.74300003
-0.10641906 0.0049333335 0.74000001
-0.09724053 0.001647725 0.74166667
-0.092541665 0.0028248411 0.74175
-0.0876569 0.0028270239 0.74224997
-0.082624286 0.002823333 0.74150002
-0.077725776 0.0028255354 0.74193746
-0.072337702 0.0031308844 0.74257147
-0.067153871 0.00353291 0.74222225
-0.062643342 0.0016477781 0.74183339
-0.11628541 0.0087273028 0.74300003
-0.11251143 0.0091990484 0.74300003
-0.10707469 0.0080527626 0.7416001
-0.10360001 0.0091619054 0.74000001
-0.090914294 0.0063428576 0.74000001
-0.087155558 0.0074391537 0.74000001
-0.082457148 0.0066952389 0.74000001
-0.077322863 0.0068155564 0.74033344
-0.073017865 0.0067016673 0.74075001
-0.069771431 0.0063428576 0.74000001
-0.11581366 0.012265397 0.74300003
-0.11251144 0.012265398 0.74300003
-0.10779989 0.012629254 0.74257147
-0.10360001 0.01057143 0.74000001
-0.1110962 0.017690476 0.74300003
-0.10750489 0.017682264 0.742625
-0.10360001 0.016209524 0.74000001
-0.1110962 0.022643812 0.74300003
-0.1074868 0.022629051 0.74250001
-0.10266033 0.023726985 0.74000001
-0.1110962 0.026889525 0.74300003
-0.10735222 0.027465284 0.74290919
-0.10240509 0.027544763 0.74155551
-0.097423099 0.028238334 0.74125004
-0.093733341 0.02889524 0.74000001
-0.10189715 0.030427622 0.74300003
-0.097357154 0.031352911 0.74255556
-0.0927037 0.032491788 0.74162507
-0.086213335 0.03462667 0.74200004
-0.083386675 0.03462667 0.74200004
-0.085621908 0.036088575 0.74300003
-0.050511431 -0.020631431 0.74700004
-0.047456194 -0.021863097 0.74650007
-0.044880003 -0.020659048 0.74800003
-0.11754286 -0.016384764 0.74800003
-0.11176905 -0.017086193 0.74750012
-0.10754039 -0.016950287 0.74780005
-0.10400762 -0.016384764 0.74800003
-0.096171431 -0.016384764 0.74800003
-0.05079953 -0.017407145 0.74600005
-0.048011117 -0.018684126 0.74500006
-0.044064052 -0.018479763 0.74625003
-0.11683048 -0.014960001 0.74800003
-0.11179462 -0.012817143 0.74766678
-0.10742573 -0.012805715 0.7470001
-0.10253073 -0.012816788 0.74762511
-0.097453721 -0.012965334 0.74800009
-0.093891822 -0.012680382 0.74800009
-0.053234704 -0.012473063 0.74528581
-0.11110651 -0.0078341281 0.74783337
-0.10745726 -0.0078278305 0.7472223
-0.10235526 -0.0078196842 0.74633336
-0.097393028 -0.0078213774 0.74644452
-0.09250541 -0.0078287311 0.74716663
-0.087622859 -0.007836191 0.74800009
-0.082820356 -0.007705716 0.74790925
-0.077649526 -0.0069813342 0.74800009
-0.073090293 -0.0066963816 0.74800009
-0.068388574 -0.006411429 0.74800003
-0.062689528 -0.006411429 0.74800003
-0.053214289 -0.0092238104 0.74500006
-0.11041906 -0.0049866671 0.74800003
-0.10725544 -0.0044154287 0.74780005
-0.10265315 -0.003691429 0.74540007
-0.096850008 -0.0046119052 0.74500006
-0.092028476 -0.0040221168 0.74522227
-0.087608047 -0.0039601363 0.74614298
-0.08243271 -0.0035547621 0.74616671
-0.077467866 -0.0028454768 0.74625003
-0.072547793 -0.002846607 0.74681246
-0.067570485 -0.0028473018 0.74683332
-0.062783815 -0.0035573165 0.7468183
-0.11565239 0.0049666669 0.74500006
-0.11423334 0.0049666669 0.74500006
-0.10926667 0.0049666669 0.74500006
-0.070952386 0.00070952385 0.74500006
-0.067404769 0.00070952385 0.74500006
-0.064566672 0.00070952385 0.74500006
-0.1161254 0.0068587307 0.74500006
-0.11285262 0.0076295245 0.74525005
-0.10926667 0.0063857147 0.74500006
-0.11707143 0.014190476 0.74500006
-0.1128143 0.013244445 0.74500006
-0.11636191 0.017738096 0.74500006
-0.11330681 0.017752247 0.74557149
-0.10997619 0.017028574 0.74500006
-0.11636191 0.022704765 0.745
-0.11352382 0.022704765 0.745
-0.11596286 0.026322858 0.74700004
-0.11315943 0.027401716 0.74540013
-0.10997619 0.029090479 0.74500006
-0.11041906 0.030632382 0.74800003
-0.10688977 0.030896429 0.74575007
-0.10227524 0.032934923 0.74633342
-0.097593717 0.034236383 0.74580008
-0.09436667 0.03476667 0.74500006
-0.046255719 -0.025458572 0.75300002
-0.042293023 -0.025806036 0.75266671
-0.038930483 -0.025555875 0.7523334
-0.11262096 -0.022022858 0.75199997
-0.10736541 -0.022046667 0.75211114
-0.10290012 -0.021654882 0.751625
-0.097970724 -0.02167262 0.75225008
-0.093945719 -0.020797145 0.75300002
-0.04948286 -0.023665715 0.75300002
-0.042722605 -0.022304937 0.75109094
-0.038708575 -0.022220954 0.75266671
-0.1157143 -0.017857146 0.75000012
-0.11214286 -0.019285716 0.75000012
-0.10785715 -0.018928573 0.75000006
-0.10257143 -0.018142859 0.75000006
-0.097230837 -0.01799169 0.75018191
-0.092346996 -0.017897883 0.75166667
-0.087637492 -0.016893266 0.75250012
-0.083491437 -0.016125239 0.7525
-0.05371429 -0.016472382 0.75200003
-0.041539051 -0.018620953 0.75200003
-0.11611112 -0.012619047 0.75000006
-0.097380958 -0.013095239 0.75000012
-0.092 -0.012714286 0.75000006
-0.087180644 -0.012148572 0.75033343
-0.082264759 -0.01216254 0.75111115
-0.077478185 -0.012036278 0.75136369
-0.072335243 -0.011459049 0.75200003
-0.067411438 -0.011474287 0.75300002
-0.062391438 -0.010757144 0.75300002
-0.05730937 -0.011937621 0.75216675
-0.11500001 -0.0092857145 0.75000006
-0.11357144 -0.0085714292 0.75000006
-0.08785715 -0.0078571429 0.75000006
-0.080714293 -0.0092857145 0.75000006
-0.077285722 -0.0090000005 0.75000006
-0.072142869 -0.0085714292 0.75000012
-0.067143068 -0.0083443392 0.75088894
-0.062225722 -0.0085838102 0.75100011
-0.058369529 -0.0089523811 0.75200003
-0.0392235 -0.036335878 0.75800008
-0.047266673 -0.031612795 0.75685716
-0.042553656 -0.031014606 0.7573334
-0.039704766 -0.031041907 0.75800002
-0.11088 -0.025200002 0.75600004
-0.10737493 -0.025944129 0.75666666
-0.10237525 -0.025955241 0.75699997
-0.097693719 -0.025830859 0.75760001
-0.094569527 -0.025266668 0.75800002
-0.052501671 -0.026702143 0.75774997
-0.047700007 -0.027808402 0.75572735
-0.042460956 -0.02878762 0.75566673
-0.039652385 -0.028839048 0.75700003
-0.11073334 -0.023728574 0.75500005
-0.1085762 -0.023728574 0.75500005
-0.10224001 -0.023760002 0.75600004
-0.096839055 -0.023400478 0.75600004
-0.09250816 -0.022668362 0.75688887
-0.087970592 -0.02185397 0.75644445
-0.082741283 -0.021407302 0.75766671
-0.077243812 -0.020935241 0.75800008
-0.072912388 -0.020935239 0.75800002
-0.056669526 -0.02129619 0.75800002
-0.052827388 -0.022537859 0.75724995
-0.086285718 -0.019414287 0.75500005
-0.081974819 -0.017995559 0.75577784
-0.077662423 -0.01714813 0.75646681
-0.072296396 -0.017462097 0.75760007
-0.067331441 -0.017152967 0.75769234
-0.062764294 -0.017315716 0.75750005
-0.05781614 -0.017447367 0.75693351
-0.053280003 -0.018720001 0.75600004
-0.075500004 -0.013661906 0.75500005
-0.072623812 -0.013661906 0.75500005
-0.067680009 -0.013680001 0.75600004
-0.062598579 -0.012951906 0.75550008
-0.057971057 -0.013377905 0.75520009
-0.043600004 -0.037060004 0.76300001
-0.035949208 -0.036431752 0.76000011
-0.050866671 -0.032700002 0.76300001
-0.047233336 -0.034153335 0.76300001
-0.042873338 -0.033426668 0.76300001
-0.11254545 -0.027231703 0.7610001
-0.10722882 -0.028256431 0.76075
-0.10250896 -0.028854478 0.76120001
-0.097023062 -0.027991051 0.76139998
-0.092424087 -0.026185444 0.76071435
-0.088123627 -0.026277905 0.76220006
-0.080660008 -0.025433335 0.76300001
-0.077753335 -0.025433335 0.76300001
-0.072666675 -0.025433335 0.76300001
-0.067580014 -0.025433337 0.76300001
-0.062493335 -0.025433335 0.76300001
-0.057122268 -0.026658215 0.76162511
-0.053271431 -0.028990477 0.76100004
-0.049942862 -0.029676192 0.76000005
-0.086913809 -0.023901429 0.76050007
-0.082085878 -0.023418892 0.76050013
-0.077567153 -0.023198573 0.76116669
-0.072388567 -0.022777144 0.76160014
-0.067422546 -0.022476086 0.76122224
-0.062330164 -0.022468891 0.7610001
-0.057500958 -0.023319241 0.76040012
-0.082651436 -0.040228575 0.76800001
-0.091428578 -0.035840001 0.76800001
-0.087715089 -0.037278891 0.7675001
-0.082579054 -0.037270479 0.76733339
-0.078994289 -0.036571428 0.76800001
-0.047429681 -0.03648524 0.76616669
-0.042985719 -0.035700001 0.76500005
-0.037984766 -0.035793334 0.76700002
-0.11190858 -0.03145143 0.76800001
-0.10752001 -0.03145143 0.76800001
-0.10197198 -0.032043267 0.76714295
-0.097547248 -0.032028385 0.76780003
-0.092665449 -0.032490481 0.76785719
-0.087666914 -0.032875165 0.76708341
-0.082602963 -0.032895029 0.76755559
-0.077814199 -0.032617625 0.76790011
-0.072347939 -0.031424131 0.76733339
-0.069485717 -0.03145143 0.76800001
-0.052582383 -0.032622702 0.76683342
-0.037984766 -0.034332383 0.76700002
-0.11176477 -0.029949527 0.76700008
-0.10738191 -0.029949527 0.76700008
-0.10127144 -0.02987143 0.76500005
-0.097690962 -0.029890953 0.76550001
-0.092609845 -0.029168889 0.76566672
-0.087005809 -0.02829602 0.76536369
-0.082597658 -0.027932905 0.76627284
-0.077440962 -0.028248575 0.76653856
-0.072211966 -0.028448576 0.76588893
-0.06759686 -0.028617814 0.76650006
-0.062414289 -0.028145907 0.76559997
-0.057960004 -0.029526668 0.76550001
-0.10513905 -0.050731432 0.77200001
-0.10339933 -0.052382451 0.77157146
-0.10586419 -0.047557909 0.77300006
-0.10291944 -0.047263429 0.77300006
-0.098158747 -0.047606986 0.77300012
-0.09496858 -0.04785239 0.77300012
-0.11116477 -0.040490478 0.77300006
-0.10748382 -0.042488713 0.77300006
-0.10227548 -0.042676907 0.77258337
-0.097808264 -0.042654287 0.77216667
-0.092846602 -0.042152237 0.77230781
-0.08745084 -0.041706309 0.77162504
-0.082590804 -0.041173972 0.77200007
-0.078772388 -0.040490478 0.77300006
-0.11135167 -0.037118811 0.77175003
-0.10739128 -0.037513807 0.77233338
-0.10205144 -0.03744445 0.77088892
-0.097590066 -0.037422437 0.77044445
-0.093316674 -0.03758334 0.77000004
-0.077280417 -0.037645034 0.77071434
-0.0731581 -0.036652952 0.77280003
-0.066993341 -0.036073335 0.77300006
-0.062576197 -0.036073335 0.77300006
-0.059631433 -0.036073335 0.77300006
-0.052203178 -0.036762226 0.77200001
-0.11146668 -0.033733338 0.77000004
-0.10784604 -0.033748262 0.77033341
-0.10310668 -0.034173336 0.77000004
-0.09716668 -0.034100004 0.77000004
-0.093866676 -0.034466669 0.77000004
-0.076266676 -0.034466669 0.77000004
-0.072662227 -0.033763178 0.77066672
-0.067441218 -0.033220608 0.77200007
-0.06261839 -0.03278067 0.77170002
-0.057561059 -0.032903917 0.7715556
-0.053672384 -0.034556191 0.77200001
-0.10172744 -0.056120574 0.77739996
-0.097189531 -0.055642866 0.77900004
-0.094221912 -0.055642862 0.77900004
-0.10185716 -0.052404765 0.77500004
-0.097596198 -0.052496195 0.77633333
-0.092744052 -0.05239024 0.77750003
-0.089028582 -0.051191431 0.77900004
-0.10185715 -0.048714288 0.77500004
-0.097674608 -0.048468258 0.77500004
-0.092300966 -0.047259044 0.77533334
-0.087717555 -0.047194432 0.77771437
-0.082351439 -0.045998104 0.77900004
-0.078641906 -0.045256194 0.77900004
-0.074190482 -0.045256194 0.77900004
-0.068255246 -0.045256194 0.77900004
-0.063061908 -0.045256194 0.77900004
-0.10554763 -0.043547623 0.77500004
-0.087833337 -0.043547623 0.77500004
-0.08226534 -0.043274861 0.77540004
-0.077489533 -0.042353336 0.77675003
-0.072628736 -0.042244609 0.77816677
-0.067397781 -0.042217467 0.77766669
-0.062434029 -0.042365283 0.7779091
-0.057986099 -0.041080575 0.77860004
-0.052325148 -0.041356385 0.77820003
-0.049580004 -0.040700004 0.77700001
-0.076023817 -0.03911905 0.77500004
-0.071595244 -0.03827551 0.77500004
-0.067166671 -0.037827384 0.77500004
-0.062738098 -0.037827384 0.77500004
-0.057437152 -0.037822254 0.77590913
-0.052404769 -0.03911905 0.77500004
-0.049580004 -0.039220002 0.77700001
-0.057571433 -0.034690477 0.77500004
-0.10154667 -0.060480002 0.78400004
-0.097813338 -0.060480006 0.7840001
-0.094826676 -0.060480002 0.78400004
-0.10121208 -0.058440007 0.78333342
-0.097646996 -0.058141589 0.78266668
-0.092770621 -0.056984495 0.78285718
-0.09074381 -0.054298099 0.78100002
-0.087529264 -0.05264708 0.78171438
-0.082774296 -0.052200954 0.78299999
-0.077578343 -0.052217379 0.78325003
-0.072426677 -0.051271111 0.78400004
-0.069440007 -0.05002667 0.78400004
-0.063466668 -0.05002667 0.78400004
-0.085428581 -0.049028575 0.78000003
-0.082457148 -0.049028575 0.78000009
-0.077275768 -0.04810594 0.78076935
-0.072139688 -0.047350693 0.78088892
-0.067510486 -0.047312383 0.78142864
-0.062448144 -0.04702476 0.78145462
-0.057664223 -0.046580143 0.78342861
-0.051520005 -0.04554667 0.78400004
-0.056931436 -0.043256767 0.78040004
-0.053317148 -0.043625716 0.78299999
-0.10131429 -0.065291435 0.78800005
-0.098353341 -0.065319054 0.78833342
-0.10187 -0.062920481 0.78650004
-0.097452268 -0.062970601 0.78712511
-0.093387946 -0.061340958 0.78866673
-0.091902621 -0.058893576 0.78775007
-0.087823674 -0.057049051 0.7881667
-0.082830347 -0.05689919 0.78757155
-0.086834297 -0.054645717 0.78600001
-0.082342863 -0.054645717 0.78600001
-0.07710287 -0.054645717 0.78600001
-0.072422862 -0.054130293 0.78720009
-0.067364015 -0.052663438 0.78766674
-0.062273718 -0.052522101 0.78780001
-0.057810266 -0.051805612 0.78833342
-0.053050864 -0.050946862 0.78900003
-0.046588574 -0.053351432 0.78900003
-0.056962863 -0.048719049 0.78700006
-0.052571349 -0.04739074 0.78754556
-0.048750002 -0.04725286 0.78750002
-0.050154287 -0.044165716 0.78600001
-0.048657145 -0.044165716 0.78600001
-0.079300009 -0.070237145 0.79300004
-0.096863821 -0.066712379 0.79149997
-0.093649529 -0.065705717 0.79300004
-0.08760763 -0.065705717 0.79300004
-0.082105182 -0.066784628 0.7930001
-0.078922391 -0.066838577 0.79300004
-0.066209212 -0.0667127 0.7930001
-0.062684767 -0.065705717 0.79300004
-0.092273653 -0.063109219 0.792
-0.087533981 -0.06263335 0.79233336
-0.082183398 -0.06258022 0.79166669
-0.078444771 -0.062605724 0.79200006
-0.066460952 -0.062684774 0.7930001
-0.062873572 -0.062495958 0.7930001
-0.059663814 -0.061174288 0.79300004
-0.087386675 -0.059513338 0.79100001
-0.081736669 -0.059136674 0.79100001
-0.077636093 -0.058039684 0.79144448
-0.072456673 -0.058117624 0.79250014
-0.067160532 -0.058105297 0.79233342
-0.062613651 -0.058088999 0.79211116
-0.057398099 -0.057398099 0.79300016
-0.052715626 -0.056038674 0.79300004
-0.048335239 -0.055132385 0.79300004
-0.061020005 -0.054993335 0.79100001
-0.059513338 -0.054993335 0.79100001
-0.052410476 -0.052625723 0.79100001
-0.047675245 -0.051549532 0.79100001
-0.047130752 -0.04756286 0.79271442
-0.044559054 -0.047580004 0.7930001
-0.090440005 -0.082840003 0.79800004
-0.087400004 -0.082840011 0.79800004
-0.081320003 -0.075240009 0.79800004
-0.079040006 -0.076000005 0.79800004
-0.096079051 -0.07177572 0.79750007
-0.092284553 -0.071852386 0.79788888
-0.087290481 -0.072111435 0.79699999
-0.082706533 -0.071868986 0.79671437
-0.078403175 -0.072080642 0.79666674
-0.096914291 -0.068900004 0.79500002
-0.092338949 -0.067928992 0.79544449
-0.087071441 -0.068142861 0.79500002
-0.083285719 -0.068900004 0.79500002
-0.076525316 -0.067867361 0.79557151
-0.072376579 -0.067371055 0.79660004
-0.06793382 -0.067681432 0.79550004
-0.064357147 -0.065871432 0.79500002
-0.076471433 -0.062842861 0.79500002
-0.072685719 -0.062842868 0.79500002
-0.068900004 -0.062842861 0.79500002
-0.05224286 -0.056785718 0.79500002
-0.091542862 -0.080861911 0.801
-0.087692067 -0.080828577 0.80066675
-0.084994294 -0.081931435 0.80400002
-0.095238104 -0.076190479 0.80000001
-0.092057146 -0.076810956 0.80050004
-0.087643817 -0.076974191 0.80022228
-0.082970589 -0.077378206 0.80088896
-0.078476198 -0.078476198 0.80000001
-0.096761912 -0.07238096 0.80000001
-0.092190482 -0.073904768 0.80000001
-0.083047621 -0.073142864 0.80000001
-0.085205719 -0.080600008 0.80600005
-0.082442299 -0.081214108 0.80600005
