# .PCD v0.7 - Point Cloud Data file format
VERSION 0.7
FIELDS x y z
SIZE 4 4 4
TYPE F F F
COUNT 1 1 1
WIDTH 860
HEIGHT 1
VIEWPOINT 0 0 0 1 0 0 0
POINTS 860
DATA ascii
-0.19695377 0.073388264 0.66877782
-0.19293849 0.073226869 0.66860008
-0.18923144 0.074545719 0.66900003
-0.17202859 0.074545719 0.66900003
-0.20070001 0.079005718 0.66900003
-0.19703184 0.077829808 0.66828573
-0.19238104 0.077424303 0.66792864
-0.18758734 0.077576138 0.66768742
-0.18457715 0.078650482 0.66600001
-0.17232287 0.076304778 0.66766679
-0.19257462 0.080715567 0.66733336
-0.18767881 0.080524057 0.66575003
-0.18430001 0.080433339 0.66500002
-0.17575355 0.063805334 0.67400002
-0.1739562 0.062264767 0.67400002
-0.19093335 0.069333337 0.67200011
-0.18979715 0.068378098 0.671
-0.18204859 0.069053151 0.67259997
-0.17716573 0.068683803 0.67399997
-0.17241564 0.069710866 0.67400002
-0.16753715 0.06996762 0.67400002
-0.16261588 0.069539689 0.67400002
-0.1598343 0.06996762 0.67400002
-0.20100002 0.07465715 0.67000002
-0.19972382 0.07465715 0.67000002
-0.19168875 0.071696989 0.67016673
-0.18791974 0.072858028 0.67061543
-0.18292125 0.072911501 0.67156249
-0.17780423 0.072910309 0.67156255
-0.17246473 0.072524004 0.67153323
-0.16778377 0.073187932 0.67293328
-0.16286877 0.07265196 0.67399997
-0.15932076 0.072792009 0.67400002
-0.15469906 0.073819056 0.67400002
-0.20163812 0.077209532 0.67000002
-0.19972382 0.076571435 0.67000002
-0.18228255 0.076784134 0.67000002
-0.17740478 0.077124596 0.67027283
-0.16576001 0.076160006 0.67200005
-0.16368572 0.075873151 0.67400002
-0.15919238 0.075102866 0.67400002
-0.15469906 0.07574477 0.67400002
-0.17807144 0.064928576 0.67500001
-0.17263907 0.063603923 0.67611116
-0.16842116 0.063724004 0.67860001
-0.16296001 0.064020008 0.67900002
-0.15908001 0.064020008 0.67900002
-0.18064287 0.066214293 0.67500001
-0.17742857 0.066214293 0.67500001
-0.17203709 0.067043081 0.6753847
-0.16743675 0.066972569 0.67618752
-0.16234179 0.066720001 0.67642862
-0.15752739 0.0669562 0.67733353
-0.15292563 0.068325631 0.67809999
-0.14894891 0.068762228 0.67900008
-0.1652143 0.071357146 0.67500001
-0.15724286 0.071742877 0.67500013
-0.15283693 0.07208202 0.67777777
-0.14798738 0.071966939 0.67854548
-0.1426978 0.071564451 0.67900002
-0.162185 0.07760594 0.67515397
-0.1572755 0.077512942 0.67541671
-0.15492858 0.077785723 0.67500001
-0.14873335 0.076306671 0.67900002
-0.14343068 0.076694667 0.67900002
-0.16237773 0.080996767 0.67820001
-0.15738618 0.082194611 0.67866671
-0.15378177 0.083403014 0.67885715
-0.15688133 0.087041341 0.67900002
-0.15365319 0.086847149 0.67883337
-0.2073493 0.092694536 0.67824996
-0.15566921 0.058673657 0.68200004
-0.15198858 0.058457147 0.6820001
-0.14703441 0.058553696 0.68312508
-0.14262781 0.058614131 0.68383336
-0.13875429 0.059280004 0.68400002
-0.16514286 0.064114287 0.68000001
-0.16125715 0.062819049 0.68000001
-0.15766415 0.06220096 0.68033332
-0.15260179 0.062076934 0.68055564
-0.14735954 0.062317856 0.68162513
-0.14211683 0.062568463 0.6827777
-0.13875429 0.062537149 0.68400002
-0.15256056 0.065964632 0.68000001
-0.14730844 0.067003667 0.67999995
-0.14247811 0.06721244 0.68129414
-0.13797258 0.06709715 0.68400002
-0.15348573 0.074476197 0.68000001
-0.1462324 0.073440008 0.68000001
-0.14441906 0.072749212 0.68000001
-0.15535 0.078000478 0.6825
-0.15283076 0.077130966 0.68170005
-0.1465154 0.077568449 0.68114293
-0.14484382 0.079241917 0.68200004
-0.16587144 0.083911434 0.68300003
-0.16275255 0.083429381 0.68083334
-0.15833066 0.083636574 0.68080002
-0.15373716 0.080777153 0.68400002
-0.19131505 0.08830972 0.68280011
-0.1875947 0.087093592 0.68346673
-0.18305144 0.085662857 0.68400002
-0.17753653 0.088333666 0.68366671
-0.1661143 0.085337147 0.68400002
-0.16269219 0.087381072 0.68300009
-0.1584508 0.087428585 0.68000001
-0.13629049 0.054384768 0.68800002
-0.13202216 0.053592861 0.68625003
-0.12745827 0.053909369 0.6875
-0.10367811 0.054463815 0.68900001
-0.14125068 0.057624009 0.68600005
-0.1371192 0.057575516 0.68700004
-0.13203363 0.057519346 0.6863125
-0.12723334 0.057785843 0.6879335
-0.12205143 0.059057146 0.68900007
-0.1177862 0.05938524 0.68900001
-0.13654669 0.062720001 0.68599999
-0.13202107 0.062742621 0.68625003
-0.12719633 0.06283392 0.68773347
-0.12224843 0.062410638 0.68869239
-0.11731229 0.062483922 0.68900007
-0.11439588 0.063650489 0.68900001
-0.14090225 0.069471121 0.68600005
-0.13666546 0.068243638 0.68599999
-0.13211665 0.067822672 0.68606669
-0.12836383 0.067456834 0.68766677
-0.11614572 0.066275239 0.68900001
-0.11417715 0.066275239 0.68900001
-0.14112002 0.071213335 0.68600005
-0.1372 0.071866669 0.68599999
-0.13186128 0.071706772 0.68655568
-0.12883207 0.070649847 0.68900001
-0.16771525 0.083530486 0.68700004
-0.12144001 0.049500003 0.69300002
-0.11708402 0.049236003 0.69300002
-0.11248288 0.048934292 0.69300002
-0.10890001 0.049500003 0.69300002
-0.12613431 0.052865721 0.6910001
-0.12241685 0.052651368 0.69106257
-0.11720417 0.052675605 0.69137502
-0.11276644 0.052755322 0.69241667
-0.10836628 0.052909929 0.69200009
-0.10448572 0.053228576 0.69000006
-0.1255143 0.055857148 0.69000006
-0.12222857 0.056514289 0.69000006
-0.11668469 0.057301365 0.6902501
-0.11253446 0.057911437 0.69099998
-0.10798548 0.057944532 0.69137502
-0.10403009 0.057983268 0.6907143
-0.1158762 0.063304767 0.69000006
-0.11228563 0.062528096 0.69110006
-0.10824265 0.06236646 0.69255555
-0.12617144 0.067685723 0.69000006
-0.12260744 0.06703525 0.69140005
-0.11848588 0.066485569 0.69116676
-0.12681851 0.071837828 0.69200009
-0.12379359 0.071306437 0.69325
-0.1023305 0.058115244 0.69500011
-0.12112858 0.069500007 0.69500005
-0.11980477 0.069500007 0.69500005
-0.13039525 0.073471434 0.69500005
-0.12708572 0.072809532 0.69500005
-0.12364572 0.07245905 0.69800001
-0.13143429 0.075010478 0.69700003
-0.12887192 0.075064287 0.69749999
-0.085780323 0.038198419 0.70366669
-0.082377471 0.038174499 0.70322222
-0.077671967 0.03749685 0.70306253
-0.073309638 0.036990058 0.70333338
-0.08563824 0.042579185 0.70328581
-0.082390159 0.042870007 0.70333338
-0.077948786 0.041766774 0.70355558
-0.085029528 0.046197146 0.70300001
-0.082351431 0.04686667 0.70300001
-0.022251431 0.0047200001 0.70800006
-0.019554287 0.0047200001 0.708
-0.020902859 0.0067428574 0.708
-0.018047301 0.0075628576 0.70766664
-0.024948573 0.010114286 0.708
-0.018180002 0.010100001 0.70700002
-0.041131433 0.018205715 0.708
-0.037085719 0.01753143 0.70800006
-0.032290798 0.017306669 0.70800006
-0.028994288 0.016857143 0.708
-0.060011432 0.024274286 0.708
-0.058662862 0.024274286 0.708
-0.035737146 0.020902859 0.708
-0.067653343 0.028095242 0.70800006
-0.061360002 0.027645716 0.70800006
-0.057314292 0.027645718 0.70800006
-0.054617148 0.028320003 0.708
-0.068102859 0.032590479 0.70800006
-0.060011432 0.030342858 0.708
-0.058662862 0.030342858 0.708
-0.071735434 0.038088195 0.70660007
-0.068102859 0.035737146 0.708
-0.077438109 0.044314291 0.70500004
-0.074220642 0.041483499 0.70633334
-0.07833048 0.046460323 0.70700002
0.0080177141 -0.0014954287 0.71340007
0.012423674 -0.0024265309 0.71342868
0.017770341 -0.0012625853 0.71371442
0.021080002 -0.0013600001 0.71400005
-0.026410479 0.0047400007 0.71100008
-0.016920635 0.0033834924 0.71066666
-0.012178494 0.0033830958 0.71041673
-0.0077840481 0.0044002384 0.71074998
-0.002709524 0.0047466671 0.71200001
0.0030063947 0.0041699326 0.71271437
0.0074695237 0.0027161909 0.71300018
0.012213811 0.0027142854 0.71250015
0.017320001 0.0021509528 0.71316683
0.021050477 0.00067904766 0.71300006
-0.032129716 0.0085407635 0.71180004
-0.026928315 0.0075790486 0.71163642
-0.02270068 0.0076312935 0.7100001
-0.016010478 0.0069914293 0.71033335
-0.012191987 0.0074519841 0.71125007
-0.0074629635 0.0074633867 0.71233338
-0.0027100004 0.0074576195 0.71183336
0.0027161906 0.0074695246 0.71300018
0.0074695242 0.0074695242 0.71300012
0.011808191 0.0063796192 0.71260005
0.015640002 0.0061200005 0.71400005
-0.032492861 0.012184882 0.71075004
-0.027250288 0.012337144 0.71173346
-0.022369286 0.012204683 0.71175015
-0.017507402 0.012701102 0.71338475
-0.012395827 0.011872748 0.71392328
-0.0074759535 0.012233573 0.71358347
-0.0030037416 0.012019797 0.71235734
0.0024929103 0.011254605 0.7137779
-0.045336671 0.018947143 0.7105
-0.042609684 0.018712543 0.71016669
-0.038092066 0.017806351 0.71000004
-0.032553744 0.01787075 0.7100001
-0.026930353 0.01763702 0.7104668
-0.022698097 0.016939048 0.71149999
-0.018133335 0.016093336 0.71400011
-0.0040800003 0.015640002 0.71400005
0.0032048984 0.018740956 0.71371436
-0.046391707 0.022567214 0.7118572
-0.04269376 0.022364235 0.7115556
-0.038075414 0.022452211 0.71045458
-0.032533817 0.022368256 0.71166676
-0.027107621 0.021006193 0.71150005
-0.023666669 0.020961907 0.71000004
-0.066041276 0.028625399 0.71000004
-0.064238101 0.028400002 0.71000004
-0.052360006 0.028560001 0.71400005
-0.047197875 0.027023228 0.71346164
-0.042134229 0.027184229 0.71356249
-0.037373811 0.025822382 0.71350002
-0.034680001 0.025160002 0.71400005
-0.06656456 0.032417465 0.71077776
-0.062433209 0.032638922 0.71100008
-0.056908574 0.03273423 0.7130667
-0.052904006 0.033592001 0.71400005
-0.071000002 0.039219052 0.71000004
-0.067636579 0.038037591 0.71066678
-0.062602125 0.037540145 0.7126925
-0.057093173 0.03738302 0.7136668
-0.052904006 0.036856003 0.71400005
-0.075057149 0.043952383 0.71000004
-0.072102867 0.043023076 0.71200007
-0.068291672 0.04230072 0.71350008
-0.061064005 0.041752007 0.71400005
-0.057305455 0.041850913 0.71400017
-0.053720009 0.041480005 0.71400011
-0.07537429 0.046175241 0.71300006
-0.072760008 0.045900002 0.71400005
-0.060520004 0.045560002 0.71400005
-0.058480002 0.045560002 0.71400005
-0.10075239 0.062885717 0.71000004
0.017653758 -0.003864127 0.71600002
0.023281906 -0.00068476197 0.71900004
0.025336193 -0.00068476197 0.71900004
-0.029362859 0.0047800005 0.71700001
0.018759288 0.0044340477 0.71625006
0.02266182 0.0029174029 0.71709096
0.025283335 0.0027319051 0.71750003
0.031499051 0.0047933338 0.71900004
-0.030728573 0.0061457148 0.71700001
-0.029362859 0.0061457148 0.71700001
0.012581769 0.0082903411 0.71685719
0.017950045 0.0076407804 0.71736366
0.022569209 0.0075239157 0.7181111
0.027368953 0.0072529535 0.7184
0.032868575 0.0075323819 0.71899998
0.036925714 0.0082066674 0.71800005
-0.011601905 0.013878096 0.7166667
-0.00068190478 0.013638096 0.71600002
0.003021769 0.013546124 0.71628577
0.0075100008 0.01228889 0.71683335
0.012375846 0.011505716 0.71827275
0.01766686 0.011367048 0.71899998
0.022425955 0.011812143 0.71899998
0.026669208 0.01116889 0.71800005
-0.021912381 0.018488573 0.71900004
-0.017498763 0.018729998 0.7177
-0.01229524 0.017762382 0.71724999
-0.0075150803 0.017764447 0.71733344
-0.0025361227 0.018038981 0.71664292
0.0023502647 0.016901167 0.71622229
0.0066009532 0.016160954 0.71700001
-0.027280595 0.02318893 0.71612501
-0.023883335 0.02320143 0.71650004
-0.018488573 0.021227621 0.71900004
-0.012260866 0.02246693 0.71881819
-0.0075253979 0.022576192 0.7183333
-0.003143619 0.02240362 0.71720004
-0.051970482 0.029403811 0.71800005
-0.049097143 0.029321907 0.71600002
-0.037530005 0.02866048 0.71650004
-0.033087436 0.026799623 0.71780008
-0.027756764 0.025567813 0.71780008
-0.010271429 0.025336193 0.71900004
-0.0027390479 0.026705716 0.71900004
-0.052199733 0.03209905 0.71714294
-0.047770418 0.032757565 0.71656251
-0.04234381 0.032783929 0.717125
-0.037767015 0.032666236 0.71863633
-0.051824763 0.038186669 0.71600002
-0.047866039 0.037610799 0.71800005
-0.042729147 0.037661906 0.71899998
-0.039031431 0.037661906 0.71900004
-0.066599369 0.043869209 0.71600002
-0.063333526 0.042723626 0.71660006
-0.056902099 0.042984765 0.71640009
-0.052284408 0.042376075 0.71762502
-0.047915954 0.041071672 0.71875
-0.042531326 0.041922651 0.71899998
-0.039031431 0.043824762 0.71900004
-0.080117151 0.049987622 0.71900004
-0.077306986 0.049257781 0.71833342
-0.072037674 0.047899686 0.71733332
-0.067489885 0.046817504 0.71762502
-0.062939689 0.046520643 0.71833342
-0.057237335 0.046582483 0.71720004
-0.080117151 0.052041911 0.71900004
-0.078062862 0.051357146 0.71900004
0.022846431 -0.0036092859 0.72150004
0.025441905 -0.0034400001 0.72200006
0.027428573 0.0089142863 0.72000003
0.012685715 0.014057144 0.72000003
0.018066352 0.013949525 0.72033346
0.023026429 0.013406429 0.72175008
0.02786305 0.013040572 0.72060013
0.032141041 0.012545889 0.72081828
-0.021942858 0.019885715 0.72000003
0.0082628578 0.017214287 0.72300005
0.011705715 0.016525716 0.72300005
0.017902859 0.015837144 0.72300005
0.024100002 0.015837144 0.72300005
0.02780248 0.016929908 0.7226001
0.031674288 0.016525716 0.72300005
-0.02201397 0.022702543 0.72233337
-0.017785111 0.022777492 0.72072732
-0.013028572 0.024000002 0.72000003
-0.031971432 0.028953526 0.72040004
-0.027312992 0.028313855 0.72190922
-0.022722859 0.028231433 0.72300005
-0.017014425 0.027832931 0.72285724
-0.012508446 0.027628828 0.72160017
-0.0076794811 0.027285198 0.72109103
-0.0034366141 0.027420111 0.72177786
-0.035705715 0.034332383 0.72100008
-0.033325002 0.031781193 0.72150004
-0.027299685 0.030971434 0.72266674
-0.022707621 0.031308573 0.72250009
-0.017902859 0.030985717 0.72300005
-0.012394287 0.030985717 0.72300005
-0.0089514293 0.030985717 0.72300005
-0.0025212702 0.031401273 0.72200006
-0.041142859 0.037714288 0.72000003
-0.03625467 0.037492003 0.72100013
-0.033436954 0.037014481 0.72240013
-0.050514292 0.044114288 0.72000003
-0.047314294 0.043885719 0.72000003
-0.04241633 0.043200009 0.72000003
-0.037290163 0.041561276 0.72066671
-0.066514298 0.048685722 0.72000003
-0.063771434 0.048685718 0.72000003
-0.052184764 0.046006668 0.72100002
-0.047445714 0.046070479 0.72200006
-0.04469524 0.046070479 0.72200006
-0.077337697 0.052967623 0.72228587
-0.072449207 0.051533654 0.72144443
-0.067614287 0.050654925 0.72200012
-0.064037144 0.050265718 0.72300005
0.012497143 -0.0062485719 0.72900003
0.015968572 -0.0062485719 0.72900003
0.022192145 -0.0062421435 0.72825003
0.026330002 -0.006235715 0.72750002
-0.017070284 -0.0012493335 0.72860008
-0.013184763 -0.00069396838 0.72866672
0.027077144 -0.0048600002 0.72900003
-0.034020003 0.0041657146 0.72900003
-0.020134287 0.00069428579 0.72900003
-0.01730286 0.00069206359 0.72666669
-0.01319143 0.00069428579 0.72900003
-0.035408575 0.0069428575 0.72900003
-0.033325717 0.0069428571 0.72900003
0.010357143 0.014500001 0.72500002
0.033833336 0.010357143 0.72500002
0.036732145 0.01278135 0.72541666
-0.056237146 0.015968572 0.72900003
-0.054848574 0.016662858 0.72900003
0.0079404768 0.017952383 0.72500002
0.012566668 0.017400002 0.72499996
0.017088983 0.017681636 0.72600007
0.021958444 0.017430998 0.72672725
0.026346669 0.018720001 0.72800004
0.0330141 0.017819429 0.7252
0.036214836 0.017071975 0.72528577
0.0048600002 0.022217143 0.72900003
0.0076189688 0.022167064 0.72725004
0.012472678 0.022176014 0.72756255
0.016819764 0.021675 0.72825009
0.022624861 0.021375718 0.7287001
0.027748495 0.021506591 0.72841668
0.032438859 0.02176686 0.72780001
0.035939869 0.021882998 0.7277143
-0.021960286 0.027070573 0.72509998
-0.017952383 0.027619049 0.72500002
-0.0062142862 0.029690478 0.72500002
-0.0017288096 0.028414527 0.72775006
0.003124286 0.028118575 0.72900003
0.0076371431 0.027077144 0.72900003
0.01319143 0.026035717 0.72900003
0.031242859 0.025688574 0.72900003
-0.031531751 0.033373021 0.72500008
-0.027716829 0.03293841 0.72555554
-0.022047486 0.033320956 0.72671437
-0.017315242 0.033250161 0.72733331
-0.012461525 0.032810859 0.72680002
-0.0074304771 0.032659285 0.72574991
-0.0036830162 0.032473814 0.72550005
0.0013885716 0.031937145 0.72900003
-0.031731427 0.037465312 0.72657144
-0.027879307 0.037312064 0.72820002
-0.022383336 0.036611427 0.72875005
-0.017685002 0.03571929 0.72825003
-0.011913017 0.036349207 0.72622222
-0.0089761913 0.035904765 0.72500002
-0.035360001 0.042293336 0.72800004
-0.032853909 0.041450098 0.72780001
-0.061734289 0.049249213 0.72833341
-0.058240004 0.049226671 0.72800004
0.013281906 -0.010485715 0.73400003
0.018874288 -0.010485715 0.73400003
0.020971429 -0.010485715 0.73400003
-0.016777143 -0.006291429 0.73400003
-0.012582858 -0.006990477 0.73400009
-0.0083823809 -0.006986191 0.7335
0.003490794 -0.0067517469 0.73333335
0.0073910481 -0.0068352385 0.73220003
0.012667757 -0.0084794564 0.73314297
0.017620478 -0.0078526195 0.73275
0.022316907 -0.0083688097 0.73224998
0.026527621 -0.0083780959 0.73300004
-0.03565143 -0.00069904764 0.73400003
-0.034253336 -0.00069904764 0.73400003
-0.020601191 -0.0017469049 0.73325002
-0.017635103 -0.0038868031 0.73228574
-0.012383224 -0.0032711362 0.73176932
-0.0084537417 -0.0030831296 0.73100007
0.003091973 -0.0042908844 0.73342866
0.0073838099 -0.0043186671 0.73140001
0.011139048 -0.0048733335 0.73100001
-0.047535241 0.0048933337 0.73400003
-0.042060003 0.003314286 0.73300004
-0.03766292 0.0027881549 0.73231256
-0.032595236 0.0027093124 0.73166668
-0.028543811 0.0034809529 0.73100007
-0.021146668 0.0016266669 0.73200005
-0.055923812 0.0090876194 0.73400003
-0.052428577 0.0087380949 0.73400003
-0.047482707 0.0076801586 0.73316681
-0.042506773 0.0076646567 0.73166668
-0.038302545 0.007660212 0.73122221
-0.067018099 0.014660001 0.73300004
-0.06211783 0.013858777 0.73285717
-0.057275008 0.012661828 0.73191667
-0.052703544 0.012750614 0.73228586
-0.047641911 0.012259049 0.73257148
-0.042899188 0.011646125 0.7315715
-0.038986668 0.010442858 0.73100001
-0.071302861 0.018874288 0.73400003
-0.069205716 0.018874288 0.73400003
-0.06235848 0.016321907 0.73240012
-0.057967983 0.017581549 0.731125
-0.052506674 0.016573716 0.73119998
-0.049497146 0.016034286 0.73200005
-0.071069852 0.020738414 0.73400009
-0.069205716 0.020272382 0.73400003
-0.00069714291 0.02370286 0.73200005
0.0024881635 0.023792928 0.73171437
0.018449049 0.023322383 0.73100001
0.021581907 0.023670478 0.73100007
0.027847622 0.024366667 0.73100001
0.033417143 0.024366667 0.73100001
-0.00069714291 0.027188573 0.73200005
0.0019166667 0.027004523 0.73175001
0.012469785 0.028294375 0.7310909
0.017298013 0.027689699 0.7318182
0.021924982 0.027499489 0.73169231
0.027438257 0.026277941 0.73250008
0.033417143 0.025759049 0.73100001
0.014078286 0.032478288 0.73180008
0.017169526 0.031684574 0.73280007
0.020914286 0.03137143 0.73200005
-0.025759049 0.039682861 0.73100001
-0.022107739 0.038471311 0.731125
-0.017233694 0.038471311 0.731125
-0.014271906 0.038638577 0.73100001
-0.031328574 0.04246762 0.73100001
-0.027861072 0.041792978 0.73137498
-0.022303969 0.042516194 0.73183334
-0.017429421 0.042525932 0.73199999
-0.014067049 0.042201143 0.73120004
0.0042228573 -0.016187619 0.73900002
0.0077419057 -0.016187619 0.73900002
0.010557144 -0.016187619 0.73900002
0.024633335 -0.016187619 0.73900002
-0.020410478 -0.010557144 0.73900002
-0.017402381 -0.01177762 0.73825002
-0.012928762 -0.011665334 0.7378
-0.0080142869 -0.011108763 0.73820007
-0.0021103404 -0.011353334 0.73842865
0.0030098641 -0.012343337 0.73750013
0.007718652 -0.012631192 0.73675007
0.012587494 -0.012776574 0.73700011
0.017424503 -0.012831084 0.73718178
0.022660818 -0.012937008 0.73700017
0.027248574 -0.012221715 0.7374
-0.03589429 -0.0063342862 0.73900002
-0.030967621 -0.0063342862 0.73900002
-0.027448576 -0.0063342862 0.73900002
-0.021987144 -0.007211905 0.73874998
-0.017741362 -0.0081193205 0.73671442
-0.012624762 -0.0091185719 0.73650002
-0.0071594291 -0.0082836188 0.73700005
-0.0028061909 -0.0077166669 0.73650014
0.0025705823 -0.0080247624 0.73622227
0.0080609526 -0.0087619051 0.73600006
0.011916191 -0.0077104769 0.73600006
0.02873905 -0.0091123814 0.73600006
-0.056666102 -0.0012660952 0.73820007
-0.052690476 -0.0014057144 0.73766673
-0.048035238 -0.0016409524 0.73811108
-0.042456333 -0.0015063948 0.73771435
-0.03754802 -0.0028088093 0.73691672
-0.031654812 -0.0024946323 0.73863637
-0.027292171 -0.0022678308 0.73899996
-0.023055002 -0.0031603971 0.73725009
-0.0063085719 -0.0049066669 0.73600006
-0.0028038097 -0.0049066669 0.73600006
-0.061231434 0.0042228573 0.73900002
-0.057636198 0.0028114286 0.73800015
-0.052625008 0.0028059527 0.73675007
-0.047713574 0.0021045241 0.73675007
-0.043809529 0.0017523811 0.73600006
-0.030636191 0.001168889 0.73666668
-0.027178233 0.0017055785 0.73714292
-0.023150595 0.0024560716 0.73662502
-0.061837941 0.0077280956 0.73783338
-0.05784563 0.0074402862 0.73710001
-0.052571427 0.0068693343 0.73600006
-0.076011434 0.014780001 0.73900002
-0.072617337 0.014184954 0.73740005
-0.067931436 0.013641906 0.73840004
-0.062448811 0.011577858 0.73675001
-0.058880001 0.010514286 0.73600006
-0.080938101 0.019002859 0.73900002
-0.076914482 0.017716192 0.73819995
-0.072412111 0.017126396 0.73614293
-0.06800586 0.017126394 0.73614293
-0.081407309 0.020879684 0.73900002
-0.076895103 0.02225483 0.7368573
-0.073132701 0.022430478 0.73600006
-0.075702861 0.02593524 0.73600006
-0.073600002 0.02593524 0.73600006
0.024533335 0.02873905 0.73600006
0.02771643 0.028417384 0.73675001
0.030181907 0.028076192 0.73700005
0.018084571 0.033505529 0.73600006
0.022960953 0.031627938 0.73800009
0.027411429 0.030926671 0.73800004
0.030967621 0.032375243 0.73900002
0.016121905 0.035748575 0.73600006
-0.016746985 -0.0209927 0.74300003
-0.01320889 -0.0209927 0.74300003
-0.0091990484 -0.020520953 0.74300003
-0.0028304765 -0.020520953 0.74300003
0.0028304763 -0.020520953 0.74300003
0.0077838106 -0.020520953 0.74300003
0.012029525 -0.020520953 0.74300003
0.017690478 -0.020520953 0.74300003
0.022643812 -0.021228572 0.74300003
0.027597144 -0.021228572 0.74300003
0.030899366 -0.0209927 0.74300003
-0.01749393 -0.017493455 0.74212503
-0.01271889 -0.01766778 0.74200004
-0.0077824346 -0.017688045 0.74288893
-0.0028275398 -0.017665636 0.74191666
0.0025409525 -0.017931048 0.74120009
0.0077628582 -0.018349526 0.74100006
0.012894027 -0.017770218 0.7409091
0.017650794 -0.017652065 0.74133337
0.022398444 -0.017778875 0.74127269
0.027552169 -0.017661801 0.74177784
0.03233429 -0.01754866 0.74245465
-0.045995243 -0.010614286 0.74300003
-0.043164767 -0.010614286 0.74300003
-0.036088575 -0.010614286 0.74300003
-0.032109149 -0.01089162 0.74260008
-0.027746191 -0.011841668 0.74225003
-0.022604447 -0.011537779 0.74166673
-0.018003572 -0.014471668 0.74125004
-0.012226033 -0.014343493 0.74066675
-0.0075624497 -0.013815511 0.74114293
-0.0033712173 -0.013716615 0.74066669
0.0014095239 -0.014800001 0.74000001
0.028229525 -0.014820001 0.74100006
0.032104671 -0.01357686 0.74250007
-0.051656198 -0.0063685719 0.74300003
-0.046997286 -0.0075804093 0.74285722
-0.042457145 -0.0077838097 0.74300003
-0.037623215 -0.0079503581 0.74187505
-0.032746669 -0.0080459053 0.741
-0.027485717 -0.0084571429 0.74000001
-0.023609526 -0.0088095237 0.74000001
-0.061562862 -0.0011793652 0.74300003
-0.057675514 -0.003335102 0.7424286
-0.052577693 -0.0043395925 0.74171436
-0.047283497 -0.0042346036 0.74100006
-0.042327862 -0.0042335717 0.74075007
-0.033828571 -0.0042285714 0.74000001
-0.027955558 -0.004463492 0.74000001
-0.062282227 0.0023495241 0.74033344
-0.070054293 0.0091990484 0.74300003
-0.067223817 0.0091990484 0.74300003
-0.064350002 0.008485239 0.74250007
-0.081321433 0.014142382 0.74250007
-0.077760249 0.013430716 0.74225003
-0.071810804 0.011771112 0.74166673
-0.067549258 0.011409389 0.74214292
-0.064220004 0.011290478 0.74100006
-0.081047624 0.016914286 0.74000001
-0.079638101 0.016914286 0.74000001
0.023078574 0.034149051 0.74183339
0.027554763 0.03391286 0.74183339
0.019234287 -0.031344764 0.74800003
0.022897961 -0.031242993 0.74800009
0.026358098 -0.031344764 0.74800003
-0.017097145 -0.026358098 0.74800003
-0.012314016 -0.027172247 0.74800009
-0.0082414979 -0.02757429 0.74785727
-0.0035619051 -0.026358098 0.74800003
0.0040368261 -0.027307939 0.74800009
0.007836191 -0.027070478 0.74800009
0.012585398 -0.027307937 0.74800009
0.01798762 -0.027604762 0.74800009
0.022791272 -0.027776986 0.74783343
0.027365446 -0.027569255 0.7477144
0.032057144 -0.026358098 0.74800003
-0.020659048 -0.02208381 0.74800003
-0.018096615 -0.023313547 0.74677783
-0.012517049 -0.023753241 0.74670017
-0.0076954123 -0.022958618 0.74690926
-0.0028463495 -0.023478415 0.7470001
0.0030406064 -0.023354374 0.74718189
0.0078208474 -0.023464868 0.74655557
0.012957804 -0.023238394 0.74630779
0.017766062 -0.022936624 0.74618185
0.022720477 -0.024140477 0.74550003
0.027684448 -0.024134923 0.74533343
0.033092164 -0.023138609 0.74661541
-0.047429528 -0.017312065 0.7470001
-0.043012146 -0.017241906 0.74650002
-0.038468577 -0.016384764 0.74800003
-0.032769527 -0.016384764 0.74800003
-0.020603811 -0.017763812 0.74600005
-0.019157143 -0.019157143 0.74500006
0.03476667 -0.019157143 0.74500006
-0.050545242 -0.011390953 0.74750006
-0.047749352 -0.012988834 0.7462728
-0.042424407 -0.013268499 0.74530774
-0.037788834 -0.012985715 0.74609101
-0.032888055 -0.013634719 0.7462728
-0.027416907 -0.014598811 0.74775004
-0.022751667 -0.013686666 0.74650007
0.032725714 -0.011382857 0.74700004
-0.06192223 -0.0071177781 0.74733341
-0.057345584 -0.0074106129 0.74600005
-0.052494697 -0.0080214972 0.7462858
-0.048957147 -0.008514287 0.74500006
-0.061926674 -0.003726667 0.74524999
-0.058890481 -0.0049666669 0.74500006
-0.081211433 0.0049866671 0.74800003
-0.078124456 0.0045117466 0.74800003
-0.071190953 0.0049833339 0.74750006
-0.066696838 0.0045095244 0.74766672
-0.064624451 0.0035495241 0.74566674
-0.082636192 0.0092609534 0.74800003
-0.077458695 0.0078346441 0.74787509
-0.072725989 0.0076916884 0.74663639
-0.06753429 0.00741211 0.74642867
-0.064566672 0.0063857147 0.74500006
-0.08243186 0.011910583 0.74544454
-0.077824049 0.011015477 0.74625009
-0.073890477 0.010657144 0.74600005
0.016494287 -0.045180004 0.75300002
0.022518286 -0.046040576 0.75300002
-0.0064542862 -0.040877145 0.75300002
-0.017200954 -0.035116673 0.75250006
-0.011970886 -0.036117829 0.75200003
-0.0073106675 -0.03722496 0.75260013
-0.0021514287 -0.035140004 0.75300002
0.0014342858 -0.035140004 0.75300002
0.012550001 -0.035498578 0.75300002
0.017061906 -0.037135564 0.75273347
0.022070859 -0.036832005 0.75240004
-0.025100002 -0.032988571 0.75300002
-0.022018643 -0.031849664 0.75271434
-0.017892594 -0.03220582 0.7514444
-0.012857143 -0.032142859 0.75000012
-0.0071496828 -0.032179527 0.75083339
-0.0021479367 -0.03222942 0.75200009
0.0021459262 -0.032205824 0.75144446
0.0071509532 -0.032179527 0.75083339
0.012142857 -0.032142859 0.75000006
0.016714288 -0.032285716 0.75000006
0.022142859 -0.033214286 0.75000006
0.027684083 -0.032385312 0.75085723
0.032200005 -0.031485084 0.75133342
0.035046671 -0.031471431 0.75100005
-0.047315478 -0.025091669 0.75275004
-0.04231143 -0.025100002 0.75300002
-0.020748811 -0.027190717 0.75125009
-0.018082723 -0.028298235 0.75085717
-0.013571429 -0.028714288 0.75000006
-0.0057142861 -0.028571431 0.75000006
-0.0019387758 -0.028265309 0.75000012
0.0015306125 -0.027857145 0.75000012
0.0078571439 -0.029285718 0.75000012
0.012857143 -0.029285716 0.75000006
0.015714288 -0.029285716 0.75000006
0.029285716 -0.028571431 0.75000006
0.032142863 -0.028265309 0.75000012
0.035714291 -0.027142864 0.75000012
-0.050894611 -0.022222225 0.75266671
-0.047452994 -0.022327622 0.75181818
-0.042512294 -0.02204524 0.75150001
-0.037455242 -0.022082945 0.75236368
-0.03297738 -0.021507382 0.75275004
-0.023187621 -0.022709524 0.75300002
-0.065231122 -0.01648635 0.75266671
-0.062541597 -0.016810371 0.75288892
-0.057610482 -0.015538096 0.75300002
-0.05212941 -0.016838692 0.75237501
-0.048377149 -0.018826669 0.75066674
-0.042170003 -0.01894143 0.75050002
-0.037096299 -0.018350478 0.75066674
-0.032364763 -0.018060954 0.75100005
-0.027192263 -0.017175121 0.75137496
-0.022898097 -0.017890796 0.75133342
-0.070997149 -0.010757144 0.75300002
-0.066824555 -0.011867725 0.75266671
-0.062234927 -0.012162117 0.75111109
-0.057211991 -0.012159128 0.75091672
-0.052383453 -0.012693929 0.750875
-0.025000002 -0.015000001 0.75000006
-0.071475245 -0.0074104769 0.75300002
-0.066606835 -0.0071628573 0.75200003
-0.062199369 -0.0092939688 0.75066674
-0.057380956 -0.0092857145 0.75000012
-0.053571433 -0.0092857145 0.75000006
-0.066577256 -0.0021482541 0.75166672
-0.076188579 0.002388254 0.7523334
-0.07242994 0.0025534695 0.75085723
-0.067635246 0.0019676192 0.75150001
-0.081428573 0.0071428576 0.75000006
-0.076904774 0.0059523815 0.75000012
-0.073571436 0.0050000004 0.75000006
-0.069285721 0.0050000004 0.75000006
0.017982621 -0.045674529 0.7552501
0.020852383 -0.045300003 0.75500005
0.025680002 -0.046320003 0.75600004
-0.005512699 -0.041944452 0.75500005
-0.0025166669 -0.041345242 0.75500005
0.0014400001 -0.041040003 0.75600004
0.008224762 -0.041704383 0.75760001
0.012247938 -0.042512283 0.75655556
0.017265558 -0.042442702 0.75533342
0.022320637 -0.042480428 0.75600004
0.026278915 -0.042354021 0.75742859
-0.022290479 -0.035233341 0.75500005
-0.017259644 -0.037396789 0.75512505
-0.012955953 -0.038867384 0.75575006
-0.0050333338 -0.038109526 0.75500005
-0.0021571431 -0.03810953 0.75500005
0.0023024762 -0.037842479 0.75540006
0.007198452 -0.037434895 0.75587511
0.012049643 -0.038308695 0.75537509
0.019414287 -0.039547622 0.75500005
0.023025241 -0.039573811 0.75550008
0.027202288 -0.037277211 0.75560015
0.032428574 -0.036754079 0.75666672
0.036785401 -0.036064133 0.7573334
-0.026628893 -0.030946352 0.75566673
-0.023009526 -0.033795241 0.75500005
0.029480955 -0.033795241 0.75500005
0.032357149 -0.033795245 0.75500005
0.037103135 -0.032581773 0.75542867
-0.042446289 -0.026043622 0.75540012
-0.037269093 -0.026528314 0.75654554
-0.0324708 -0.027420957 0.75766671
-0.027103949 -0.027205443 0.75742871
-0.023017146 -0.027333098 0.75525004
-0.061598416 -0.021331748 0.75500005
-0.056993339 -0.022004286 0.75749999
-0.053339213 -0.022346191 0.75683343
-0.035233337 -0.023728574 0.75500005
-0.031832192 -0.022903431 0.75620002
-0.027358174 -0.022318337 0.75591677
-0.022769844 -0.021811113 0.75500005
-0.066871434 -0.015819049 0.75500005
-0.06111905 -0.017976191 0.75500005
-0.057418 -0.018276287 0.75550008
-0.053449214 -0.018934922 0.75500005
-0.027323812 -0.019414287 0.75500005
-0.072623812 -0.010785715 0.75500005
-0.068309531 -0.013661906 0.75500005
-0.075600006 -0.0050400002 0.75600004
-0.072864644 -0.0071967863 0.75562507
-0.069747627 -0.0071904762 0.75500005
-0.076421909 -0.0021628574 0.75700009
-0.072688363 -0.002158836 0.75566673
-0.069778427 -0.0021580954 0.75533342
-0.077760004 0.00072000007 0.75600004
-0.072000004 0.00072000007 0.75600004
-0.069747627 0.00071904768 0.75500005
0.0094219055 -0.045660004 0.76100004
0.012304763 -0.045600008 0.76000011
0.02855562 -0.046239816 0.7610001
0.032670796 -0.046466675 0.76233339
0.036238097 -0.046384767 0.76100004
0.0036190478 -0.041257147 0.76000005
0.0068038101 -0.042994287 0.76000005
0.029120574 -0.043028001 0.76060003
0.03260434 -0.042748682 0.76077789
0.037393052 -0.042465437 0.76090014
0.029676192 -0.039809525 0.76000005
0.032571431 -0.039809525 0.76000011
0.037675958 -0.039124288 0.76075006
-0.029793335 -0.03124667 0.76300001
-0.029754288 -0.029029526 0.76200002
-0.060558736 -0.023403175 0.76000011
-0.058628574 -0.023161907 0.76000005
