# .PCD v0.7 - Point Cloud Data file format
VERSION 0.7
FIELDS x y z
SIZE 4 4 4
TYPE F F F
COUNT 1 1 1
WIDTH 475
HEIGHT 1
VIEWPOINT 0 0 0 1 0 0 0
POINTS 475
DATA ascii
-0.05276572 0.0090257153 0.72900003
-0.07631921 0.022895081 0.72850007
-0.072445326 0.022298178 0.72791672
-0.067652382 0.02274143 0.72733331
-0.063771911 0.022872858 0.72783339
-0.076197557 0.02744762 0.72828585
-0.072716996 0.027703015 0.72716677
-0.067848891 0.02749816 0.72546667
-0.063841909 0.026043814 0.72600001
-0.076371431 0.031242859 0.72900003
-0.071789145 0.031520575 0.72900003
-0.067666672 0.03107143 0.72500002
-0.055723812 0.0079607619 0.73320007
-0.053680003 0.0069714291 0.73200005
-0.08218804 0.01388109 0.73400009
-0.077785239 0.014300477 0.73250008
-0.072800718 0.01379119 0.73325008
-0.066875562 0.014680001 0.73400009
-0.061738577 0.01430143 0.73250002
-0.057566993 0.012558732 0.73266673
-0.05360667 0.011835239 0.73100007
-0.081295244 0.017455785 0.73314291
-0.077359788 0.017423071 0.73177779
-0.072436839 0.017412066 0.73133337
-0.067361146 0.017292192 0.73219997
-0.062926672 0.017414713 0.73144448
-0.086262479 0.022788955 0.73400003
-0.082335129 0.022326905 0.73262513
-0.077973336 0.021581907 0.73100007
-0.072403818 0.020189526 0.73100001
-0.067530483 0.020189526 0.73100001
-0.064049527 0.020189526 0.73100001
-0.086495243 0.026968384 0.73360002
-0.082124203 0.027746668 0.73200011
-0.078391045 0.028265333 0.73100001
-0.085982859 0.030059049 0.73400003
-0.083186671 0.031656876 0.73400009
-0.078777149 0.03137143 0.73200005
-0.073100001 0.033417143 0.73100007
-0.071707621 0.035505716 0.73100001
-0.056635626 0.0043556192 0.73780006
-0.090791434 0.0091495244 0.73900002
-0.088409767 0.0084202383 0.73675001
-0.082345724 0.0091495244 0.73900002
-0.076011434 0.0091495244 0.73900002
-0.072140485 0.0087976195 0.73900002
-0.067988001 0.0088680005 0.73900002
-0.062290478 0.0085765719 0.73820007
-0.058728028 0.0075282999 0.73785716
-0.096773818 0.012316668 0.73900002
-0.091595791 0.012769117 0.73900002
-0.087719224 0.012631907 0.73683345
-0.082570627 0.011738231 0.73742861
-0.077167623 0.011644763 0.73660004
-0.072061598 0.011463493 0.73699999
-0.067401625 0.012141247 0.73661548
-0.062592268 0.011746548 0.73637503
-0.059580956 0.010514286 0.73600006
-0.090791434 0.017595239 0.73900002
-0.087779701 0.017555557 0.7373333
-0.084254481 0.01752381 0.73600006
-0.0918561 0.022787144 0.7385
-0.088488989 0.022146668 0.73657149
-0.095014289 0.026040955 0.73900002
-0.091709122 0.027221227 0.73828578
-0.088700727 0.027697382 0.73625004
-0.090422861 0.030140955 0.73600006
-0.088320002 0.030140955 0.73600006
-0.1110962 -0.00070761907 0.74300003
-0.10968096 -0.00070761907 0.74300003
-0.1110962 0.00070761907 0.74300003
-0.10968096 0.00070761907 0.74300003
-0.10260478 0.0037402725 0.74300009
-0.098131292 0.0029932603 0.74292308
-0.091282859 0.0021228574 0.74300003
-0.087720074 0.002829456 0.74278575
-0.082735404 0.0028277775 0.74250007
-0.077799179 0.0028280953 0.742625
-0.072550789 0.00299326 0.7429232
-0.06774275 0.0040679765 0.74287504
-0.062155034 0.0036928041 0.74255562
-0.058573335 0.0031742859 0.74100006
-0.10252889 0.0077771428 0.74244446
-0.097366832 0.0077598421 0.74083328
-0.092702739 0.0075915479 0.74162501
-0.086877741 0.0074144052 0.74162501
-0.082457155 0.0073496606 0.74000007
-0.077911437 0.0074798102 0.74100012
-0.072990097 0.0069169528 0.74120003
-0.067472517 0.0069579603 0.74128586
-0.063119531 0.0066995244 0.74050003
-0.10543524 0.014860001 0.74300003
-0.10249096 0.012723813 0.7421667
-0.097440802 0.012813175 0.74049997
-0.093169533 0.012544763 0.74000001
-0.085276194 0.011276191 0.74000001
-0.10543524 0.017690478 0.74300003
-0.1025745 0.017685398 0.74277782
-0.097455725 0.017654764 0.74150008
-0.092726544 0.017619049 0.74000007
-0.10543524 0.021228572 0.74300003
-0.10260478 0.021936191 0.74300003
-0.097480655 0.022603989 0.74168742
-0.093733341 0.021142859 0.74000001
-0.098315567 0.026170161 0.74266672
-0.093733341 0.028190479 0.74000001
-0.10756953 -0.016384764 0.74800003
-0.10877286 -0.013510954 0.74650002
-0.091510721 -0.011038334 0.74774998
-0.087564304 -0.011390954 0.74750006
-0.083633527 -0.011255621 0.74800009
-0.053381592 -0.010676192 0.74733341
-0.10044572 -0.006411429 0.74800003
-0.097077861 -0.006756905 0.74675
-0.092352316 -0.007815796 0.74591678
-0.087505721 -0.0078257145 0.7470001
-0.082779489 -0.0077022519 0.74754554
-0.077649534 -0.006411429 0.74800003
-0.056278098 -0.0071238102 0.74800003
-0.053279478 -0.0078140749 0.74588895
-0.11098287 -0.003557143 0.74700004
-0.10750876 -0.0021314288 0.74559999
-0.1020482 -0.0026968259 0.74513334
-0.097204775 -0.0028380954 0.745
-0.092238106 -0.0028380952 0.74499995
-0.087329373 -0.0028407937 0.74550003
-0.082373463 -0.0028420237 0.74562502
-0.077502146 -0.0028464287 0.7465834
-0.072782136 -0.0023556047 0.74753857
-0.067604199 -0.0024207621 0.74720013
-0.062605724 -0.0021355557 0.7470001
-0.059074923 -0.0021358733 0.74733341
-0.054853339 -0.0049866671 0.74800003
-0.11083335 0.0028428573 0.74600005
-0.10741217 0.0027860806 0.74538463
-0.10288095 0.0015609525 0.74500006
-0.095785722 0.0021285717 0.74500006
-0.09311118 0.0029044158 0.74527276
-0.087980956 0.0028380954 0.74500006
-0.070952386 0.00070952385 0.74500006
-0.067157909 0.0012775239 0.74540013
-0.062911123 0.0011825397 0.74500006
-0.058890481 0.00070952385 0.74500006
-0.11041906 0.0085485727 0.74800003
-0.10717786 0.0079985717 0.74650002
-0.11119104 0.013529797 0.7477144
-0.10746408 0.012600346 0.74636376
-0.11178822 0.017444883 0.74762511
-0.10794477 0.017754605 0.74566674
-0.11041906 0.02137143 0.74800003
-0.10742488 0.022810688 0.74588895
-0.10288097 0.024833335 0.74500006
-0.1067862 0.026340477 0.74750006
-0.10224781 0.02687867 0.74660009
-0.097077861 0.028092619 0.74675
-0.10814477 -0.025066668 0.75200003
-0.1074631 -0.022208098 0.75225002
-0.1028383 -0.021370858 0.75300002
-0.09968286 -0.020797145 0.75300002
-0.10701584 -0.018076548 0.75162506
-0.10256787 -0.017314684 0.75225008
-0.09797629 -0.016622858 0.75290924
-0.092450008 -0.015767146 0.75250006
-0.087232478 -0.016352469 0.75245458
-0.082622863 -0.016309764 0.75275004
-0.077744223 -0.015671838 0.75285727
-0.051634289 -0.015060001 0.75300002
-0.11100953 -0.010742858 0.75200003
-0.10790876 -0.012667879 0.75036371
-0.10311905 -0.012557416 0.75042862
-0.097381286 -0.012173175 0.75183338
-0.092527628 -0.013014478 0.75080007
-0.087199531 -0.013580477 0.75050002
-0.081776202 -0.012637145 0.75100011
-0.077339783 -0.012174368 0.75191665
-0.072415084 -0.011471907 0.75283337
-0.067366675 -0.011467144 0.75250006
-0.061970718 -0.011105001 0.75225008
-0.05741591 -0.012172095 0.75170004
-0.052525528 -0.013025335 0.75140005
-0.11153851 -0.0068511567 0.75142854
-0.1080962 -0.0071587302 0.75166667
-0.10321429 -0.0077380957 0.75000012
-0.098195814 -0.0087192385 0.75040001
-0.080714293 -0.0092857145 0.75000006
-0.076926991 -0.0083360858 0.75022227
-0.072239056 -0.0071542854 0.75100005
-0.067107558 -0.0072873654 0.75013345
-0.06215699 -0.0071449219 0.75016677
-0.058142867 -0.0071428576 0.75000006
-0.057142861 -0.0028571431 0.75000006
-0.11214286 0.0035714288 0.75000006
-0.11557144 0.0081428578 0.75000006
-0.11242857 0.0068571432 0.75000006
-0.10928572 0.0064285719 0.75000006
-0.11557144 0.011857144 0.75000006
-0.11300001 0.011857144 0.75000006
-0.11510223 0.017394288 0.75066674
-0.11357144 0.018571429 0.75000006
-0.11530668 0.020769525 0.75200003
-0.11260651 0.022187462 0.75150007
-0.11100953 0.025066668 0.75200003
-0.10745677 0.027330289 0.75120008
-0.10267167 0.028977383 0.75125003
-0.098571435 0.029285716 0.75000006
-0.10467619 -0.031041907 0.75800002
-0.10656001 -0.026640004 0.75600004
-0.10258055 -0.027088571 0.75700015
-0.097140692 -0.026269389 0.7571429
-0.092293516 -0.0265671 0.75763637
-0.08755675 -0.02629796 0.75800002
-0.084462866 -0.025266668 0.75800002
-0.10570001 -0.023009526 0.75500005
-0.1020143 -0.023453526 0.75540012
-0.097410291 -0.022302862 0.75540006
-0.092961922 -0.022340953 0.75666666
-0.087897621 -0.022335716 0.75650012
-0.082282439 -0.022227015 0.75727272
-0.077779815 -0.021790477 0.75760001
-0.062083814 -0.020935239 0.75800002
-0.057993021 -0.021416511 0.75800002
-0.052699052 -0.021416511 0.75800008
-0.048312385 -0.022766806 0.7571429
-0.096783809 -0.01855143 0.75500005
-0.092757151 -0.018695241 0.75500005
-0.088155247 -0.019126669 0.75500005
-0.082357869 -0.019061193 0.7552501
-0.077507623 -0.018477779 0.75588894
-0.072270736 -0.017456256 0.7573334
-0.0672516 -0.01673143 0.75781816
-0.062736988 -0.017308416 0.75716674
-0.057609648 -0.017284643 0.75612509
-0.052780289 -0.017739715 0.75709999
-0.049745716 -0.017304763 0.75699997
-0.072720006 -0.013680002 0.75600004
-0.067680001 -0.013680001 0.75600004
-0.062861718 -0.013090285 0.75520009
-0.058242861 -0.013661906 0.75500005
-0.11576667 0.023009526 0.75500005
-0.11432858 0.023728574 0.75500005
-0.11252268 0.026367242 0.75640005
-0.032629207 -0.03625429 0.76133341
-0.027538016 -0.036960401 0.76091671
-0.10210128 -0.031137463 0.76033342
-0.097243816 -0.031205717 0.76200008
-0.093013346 -0.03124667 0.76300001
-0.035606667 -0.033426668 0.76300001
-0.033021428 -0.03374524 0.76200002
-0.028228574 -0.034019049 0.76000011
-0.10133334 -0.029676192 0.76000005
-0.09800382 -0.029097145 0.76000005
-0.092792392 -0.029386669 0.76000005
-0.087091811 -0.028837716 0.76080006
-0.082264766 -0.026180409 0.76057154
-0.077649526 -0.025400003 0.76200002
-0.071213335 -0.025433335 0.76300001
-0.066998675 -0.026305333 0.76300001
-0.062419605 -0.026855476 0.76208341
-0.057465598 -0.026649883 0.76137501
-0.05304667 -0.025433337 0.76300001
-0.081790484 -0.023885716 0.76000005
-0.076748818 -0.023169763 0.76025003
-0.072507948 -0.022479368 0.76133335
-0.067433022 -0.022478519 0.76133341
-0.062801078 -0.022984881 0.7601251
-0.057180952 -0.023306668 0.76000005
-0.052838098 -0.022920636 0.76000011
-0.049942862 -0.020990478 0.76000005
-0.068038099 -0.019542858 0.76000005
-0.032914288 -0.046080004 0.76800001
-0.081920005 -0.043154288 0.76800001
-0.078506678 -0.04169143 0.76800007
-0.035840001 -0.040960003 0.76800001
-0.032892544 -0.042396039 0.76750004
-0.028176764 -0.040437337 0.76640004
-0.078262866 -0.038765717 0.76800001
-0.036159046 -0.037255719 0.76700002
-0.03281302 -0.038647942 0.76566672
-0.10140286 -0.03355905 0.76600003
-0.097442731 -0.03345497 0.76600009
-0.093039237 -0.033156194 0.76680005
-0.08899048 -0.031939052 0.76800001
-0.075337149 -0.03145143 0.76800001
-0.07241144 -0.03145143 0.76800001
-0.067110859 -0.031727623 0.76760006
-0.062110718 -0.031786431 0.76725
-0.05775715 -0.031437781 0.7676667
-0.054125719 -0.03145143 0.76800001
-0.086252868 -0.02996905 0.76750004
-0.082651436 -0.029257145 0.76800007
-0.077317074 -0.028128177 0.76708335
-0.072454199 -0.028194193 0.76690012
-0.068224639 -0.028644763 0.76557148
-0.062657148 -0.02987143 0.76500005
-0.057229526 -0.02952667 0.76550007
-0.052361831 -0.028230993 0.76607698
-0.047635764 -0.027573423 0.76736373
-0.044617146 -0.028525716 0.76800001
-0.092023812 -0.05521429 0.77300006
-0.091287628 -0.052269526 0.77300006
-0.086134292 -0.050797146 0.77300006
-0.090551436 -0.048588574 0.77300006
-0.087569326 -0.04783196 0.77266675
-0.082631029 -0.047143135 0.77171433
-0.079125404 -0.046790801 0.77166671
-0.09714596 -0.041213572 0.77275002
-0.092207864 -0.041594762 0.77300012
-0.087512396 -0.042653494 0.77216673
-0.083057158 -0.042408761 0.77039999
-0.077225715 -0.043019436 0.77080005
-0.073303699 -0.042073451 0.77162504
-0.069938101 -0.040490478 0.77300006
-0.03748643 -0.041525956 0.77175003
-0.10077112 -0.037513971 0.77233338
-0.097619653 -0.03731988 0.77212501
-0.09257026 -0.037470244 0.77141678
-0.087416932 -0.03746561 0.77133334
-0.082939692 -0.037432384 0.77066666
-0.077666678 -0.037266672 0.77000004
-0.07264106 -0.037422013 0.77044445
-0.067656673 -0.037506189 0.77216667
-0.062522225 -0.037513968 0.77233338
-0.057404049 -0.037533887 0.77275008
-0.05226953 -0.036073335 0.77300012
-0.047484286 -0.03644143 0.77300006
-0.042454373 -0.03737247 0.77218187
-0.038300198 -0.037420195 0.77040005
-0.090933338 -0.033733338 0.77000004
-0.086976066 -0.033259597 0.77114284
-0.082963601 -0.033038098 0.77088886
-0.077855565 -0.03287778 0.7700001
-0.072600007 -0.033733338 0.7700001
-0.067571439 -0.033838101 0.7700001
-0.062398102 -0.033915814 0.77080005
-0.057274289 -0.033778097 0.77099997
-0.051967382 -0.033238336 0.77125001
-0.047600478 -0.032763716 0.77130002
-0.042449463 -0.032463051 0.77113354
-0.038133338 -0.033000004 0.7700001
-0.042533338 -0.028600002 0.77000004
-0.091137148 -0.056313336 0.778
-0.089028582 -0.055642862 0.77900004
-0.096200958 -0.052323621 0.77820003
-0.092576474 -0.052462723 0.77585721
-0.087818734 -0.052660637 0.77633339
-0.083617464 -0.051060002 0.77700007
-0.096942611 -0.047223639 0.77809101
-0.092605531 -0.046966478 0.7754001
-0.082718581 -0.04948429 0.7755
-0.077444769 -0.047831051 0.77740008
-0.072519049 -0.046674602 0.77788895
-0.067654997 -0.046525475 0.77850008
-0.062320009 -0.045998096 0.77900004
-0.056632068 -0.045750797 0.77900004
-0.037047621 -0.045940004 0.778
-0.031845037 -0.048346806 0.77757144
-0.10015715 -0.043030478 0.77900004
-0.097186103 -0.042456575 0.77660006
-0.09300001 -0.043547623 0.77500004
-0.071040004 -0.042920001 0.77700001
-0.06728223 -0.042145081 0.77633339
-0.062863603 -0.042156722 0.7765556
-0.057693973 -0.042162862 0.77666664
-0.052600529 -0.042229533 0.77788889
-0.047700852 -0.041770268 0.77855557
-0.042192493 -0.04219418 0.77722222
-0.038660638 -0.043093022 0.77566671
-0.099642865 -0.03911905 0.77500004
-0.052404769 -0.038380958 0.77500004
-0.047769528 -0.038660638 0.77566671
-0.090346672 -0.057493336 0.78400004
-0.087138414 -0.056354925 0.78200006
-0.083626673 -0.056000005 0.78400004
-0.076906674 -0.056000005 0.78400004
-0.085428581 -0.054228574 0.78000003
-0.082425043 -0.053285994 0.78171438
-0.077472538 -0.052890323 0.78216666
-0.072364666 -0.052969102 0.78333336
-0.06850858 -0.052389719 0.78360003
-0.063230209 -0.052354559 0.78371435
-0.057866674 -0.051146671 0.78400004
-0.052515563 -0.05002667 0.7840001
-0.048533335 -0.05002667 0.78400004
-0.032106668 -0.051520005 0.7840001
-0.076514296 -0.049771436 0.78000009
-0.07205715 -0.048880003 0.78000003
-0.067314297 -0.049463816 0.78100002
-0.062480003 -0.049092382 0.78100002
-0.057255004 -0.047961667 0.78075004
-0.052662291 -0.047158666 0.78100008
-0.048256088 -0.04660318 0.78222227
-0.04228463 -0.046546947 0.78285718
-0.037967306 -0.047893655 0.78166676
-0.033514287 -0.049899049 0.78200006
-0.04680001 -0.043828573 0.78000009
-0.090922862 -0.060865719 0.78900003
-0.087917149 -0.060865723 0.78900003
-0.082657143 -0.060865719 0.78900003
-0.078148574 -0.060865719 0.78900003
-0.090807624 -0.059287623 0.78800005
-0.087484002 -0.058672953 0.78780007
-0.082210481 -0.058058675 0.78760004
-0.077224523 -0.057920482 0.78725004
-0.072764985 -0.057763923 0.78766674
-0.06748464 -0.056970615 0.78857154
-0.062341593 -0.056333333 0.78866673
-0.058611434 -0.056357145 0.78900003
-0.05234953 -0.0568581 0.78900003
-0.047333546 -0.057851858 0.78888893
-0.044221908 -0.056962863 0.78700006
-0.066922292 -0.054046858 0.78600001
-0.06138286 -0.053897142 0.78600001
-0.057700165 -0.053955089 0.78683341
-0.052461028 -0.0532123 0.78691673
-0.047165025 -0.05276347 0.78836375
-0.04275921 -0.052512389 0.78766674
-0.037675846 -0.051847968 0.78690922
-0.046161912 -0.048158102 0.78600001
-0.043417145 -0.048657145 0.78600001
-0.086366199 -0.066000476 0.79200006
-0.082431436 -0.066964768 0.79225004
-0.078091629 -0.066309907 0.79300004
-0.072502866 -0.065705717 0.79300004
-0.087063819 -0.063172385 0.79100001
-0.082113348 -0.063280001 0.79100001
-0.077378109 -0.062957153 0.79100001
-0.072410792 -0.062606998 0.79200006
-0.067362145 -0.06245739 0.79250002
-0.062380955 -0.062129848 0.79233336
-0.057398103 -0.061677784 0.7930001
-0.052045718 -0.061852388 0.792
-0.048966669 -0.061020005 0.79100001
-0.070060007 -0.059513338 0.79100001
-0.067423336 -0.059136674 0.79100001
-0.062526673 -0.058760002 0.79100001
-0.057811841 -0.058458645 0.79128575
-0.052817035 -0.058341485 0.79099995
-0.076760001 -0.076760009 0.79800004
-0.072960004 -0.075240009 0.79800004
-0.081873342 -0.070502862 0.796
-0.077277415 -0.072029613 0.79763639
-0.072169848 -0.072170481 0.79766667
-0.067605719 -0.071252577 0.79760009
-0.063046671 -0.071727492 0.79757148
-0.059964765 -0.071350485 0.79700005
-0.08101429 -0.068900004 0.79500002
-0.077607147 -0.068521433 0.79500002
-0.072685719 -0.068142861 0.79500002
-0.067385711 -0.067385711 0.79500002
-0.062842861 -0.067385718 0.79500002
-0.05767604 -0.067541435 0.7968334
-0.053824767 -0.066713333 0.796
-0.065871432 -0.064357147 0.79500002
-0.063347623 -0.063852385 0.79500002
-0.057591122 -0.063906357 0.79566669
-0.053133339 -0.064519055 0.79700005
-0.077111438 -0.08093112 0.80166668
-0.073641919 -0.080777153 0.80266666
-0.08060953 -0.076647632 0.80000001
-0.076952383 -0.076952383 0.80000001
-0.072213881 -0.077443816 0.80057156
-0.067978419 -0.076382227 0.80200005
-0.064080954 -0.075522862 0.801
-0.082285725 -0.073142871 0.80000007
-0.06780953 -0.073523819 0.80000001
-0.064761907 -0.073904768 0.80000001
-0.070796192 -0.085417151 0.80800003
-0.067718104 -0.085417151 0.80800003
-0.071514562 -0.082721099 0.80742866
-0.067998916 -0.082062051 0.80742866
-0.063870482 -0.082339048 0.80800003
-0.067122295 -0.07879696 0.8064
-0.063712388 -0.078297146 0.80600005
-0.065571435 -0.085628577 0.81000006
-0.065571442 -0.082542866 0.81000012
