# .PCD v0.7 - Point Cloud Data file format
VERSION 0.7
FIELDS x y z
SIZE 4 4 4
TYPE F F F
COUNT 1 1 1
WIDTH 915
HEIGHT 1
VIEWPOINT 0 0 0 1 0 0 0
POINTS 915
DATA ascii
-0.1060362 0.10485143 0.62200004
-0.10451429 0.10451429 0.62
-0.10739462 0.10620668 0.62300003
-0.10451429 0.10569525 0.62
-0.13014857 0.11410287 0.62400001
-0.12896001 0.11469715 0.62400001
-0.12169906 0.11398096 0.62333339
-0.13094096 0.1170743 0.62400001
-0.12755726 0.11779625 0.62185705
-0.12290383 0.1173162 0.62214297
-0.13063556 0.12235874 0.62066668
-0.12800212 0.12196615 0.61999995
-0.11771286 0.10453381 0.62900001
-0.11322001 0.10423429 0.62900001
-0.13077429 0.10868001 0.62700003
-0.12760708 0.10828279 0.62758332
-0.12220937 0.10861213 0.62818193
-0.11721483 0.10764506 0.6279375
-0.11229804 0.10751875 0.62718755
-0.10858985 0.10620826 0.62533337
-0.13203868 0.11256453 0.62591666
-0.12744772 0.11251479 0.62578952
-0.12281518 0.11176835 0.62580001
-0.11776274 0.11171661 0.62585717
-0.11345962 0.11130305 0.62900001
-0.13154763 0.11607143 0.625
-0.12929145 0.13407953 0.62849998
-0.12684077 0.10342705 0.6336
-0.12257767 0.10327153 0.6334545
-0.11765768 0.10287396 0.63236362
-0.11231288 0.10257714 0.63233334
-0.10937453 0.10244311 0.63275003
-0.12760344 0.10629562 0.63200003
-0.12281249 0.10621172 0.63150001
-0.11598381 0.10516667 0.63100004
-0.11177716 0.10516667 0.63100004
-0.10997429 0.10516667 0.63100004
-0.11806287 0.094328575 0.63900006
-0.12185299 0.09859585 0.63654554
-0.11780027 0.097613506 0.63794452
-0.11259206 0.098461047 0.63707149
-0.10744519 0.098411992 0.63842863
-0.10406573 0.097980008 0.63900006
-0.12579048 0.10160001 0.63500005
-0.12252478 0.10123716 0.63500005
-0.11757016 0.10080224 0.63633341
-0.11309049 0.10099524 0.63500011
-0.10672772 0.10153844 0.63772732
-0.10351372 0.101324 0.63860005
-0.12684369 0.12371388 0.63900006
-0.1225974 0.12380859 0.63725007
-0.11696744 0.12451372 0.63900006
-0.11616124 0.093258925 0.64242864
-0.11269232 0.093432471 0.64191675
-0.10734514 0.093319796 0.64238471
-0.10308436 0.09410128 0.64300007
-0.099973343 0.093840003 0.64400005
-0.11560636 0.096507952 0.64000005
-0.11154287 0.096304767 0.6400001
-0.10764191 0.095939055 0.64000005
-0.10205159 0.09745305 0.64046156
-0.09954644 0.096489772 0.64125007
-0.10133906 0.10072858 0.64100003
-0.11580001 0.11824953 0.64333338
-0.11428446 0.11919113 0.64400005
-0.1200762 0.12434287 0.64000005
-0.1162227 0.12273699 0.64116675
-0.10758858 0.084137142 0.648
-0.11186266 0.088161699 0.64733338
-0.10800852 0.087821119 0.64692307
-0.10275175 0.088982224 0.64733338
-0.097508579 0.08948572 0.648
-0.11208505 0.091337569 0.64614284
-0.10781929 0.091207862 0.64599997
-0.10210271 0.091645561 0.64583337
-0.097272448 0.092348278 0.64643747
-0.093499608 0.092795931 0.64771438
-0.08948572 0.094422862 0.648
-0.097383685 0.095804088 0.6454286
-0.092794292 0.096143685 0.64771432
-0.08948572 0.095657147 0.648
-0.11244344 0.11392459 0.648
-0.10553144 0.11293715 0.648
-0.10306286 0.11293715 0.648
-0.11522762 0.11584286 0.64700001
-0.11230392 0.11743205 0.6463334
-0.10672025 0.08329691 0.65149999
-0.10237258 0.083495632 0.65200001
-0.098452382 0.084546871 0.6518001
-0.11452382 0.089761913 0.65000004
-0.10684762 0.086542867 0.65000004
-0.10253 0.087051347 0.65010005
-0.097400345 0.087318927 0.65086669
-0.093265146 0.089291818 0.65200007
-0.11452382 0.091000006 0.65000004
-0.091731161 0.092084363 0.65142858
-0.1075913 0.10900736 0.65085721
-0.104 0.10895239 0.65000004
-0.11142857 0.11266667 0.65000004
-0.10773824 0.11277962 0.65014297
-0.10353573 0.11266668 0.65000004
-0.11080953 0.11576191 0.65000004
-0.09782964 0.077080011 0.65800005
-0.10550429 0.081156671 0.65550005
-0.10233128 0.080907784 0.65516669
-0.09733694 0.082244009 0.65635723
-0.092498556 0.082659692 0.65653348
-0.088278867 0.082769334 0.65740007
-0.095515721 0.086150959 0.65550005
-0.09223415 0.086951956 0.65538466
-0.087884851 0.087403528 0.65661544
-0.089204766 0.090452388 0.65500003
-0.096344009 0.073675439 0.66120005
-0.092820011 0.072794706 0.66300005
-0.10120001 0.078571431 0.66000003
-0.097278394 0.077770956 0.66070002
-0.092455804 0.077512622 0.66122735
-0.088192575 0.078224577 0.66240007
-0.093657151 0.081085719 0.66000003
-0.086803488 0.081905507 0.66100001
-0.087362289 0.069049142 0.66760004
-0.083465718 0.069130003 0.66900003
-0.073908575 0.069448575 0.66900003
-0.090883337 0.072833329 0.66500002
-0.087547392 0.072319776 0.66612506
-0.082839057 0.072659761 0.66806662
-0.078368582 0.072179198 0.66900009
-0.074545726 0.071997151 0.66900003
-0.086640477 0.076503575 0.66525
-0.082694709 0.077607684 0.66793746
-0.085714296 0.083177149 0.66666669
-0.083630763 0.082908854 0.66742861
-0.086014293 0.086014293 0.66900003
-0.083465718 0.086014293 0.66900003
-0.083233662 0.06440445 0.67400002
-0.086271435 0.067100003 0.671
-0.082507238 0.067369141 0.67158335
-0.078269809 0.06913729 0.67128575
-0.073177144 0.067400001 0.67400002
-0.081038103 0.070828579 0.67000002
-0.077376723 0.073122114 0.67022222
-0.078464344 0.077420183 0.67081821
-0.081772074 0.08283969 0.67166674
-0.078196198 0.082043812 0.67299998
-0.081000008 0.064285718 0.67500001
-0.078012705 0.062940955 0.67822218
-0.073466673 0.063797474 0.67666668
-0.080357149 0.066214293 0.67500001
-0.077454373 0.06648358 0.67774999
-0.073285721 0.066214293 0.67500001
-0.076203182 0.061955556 0.68000001
-0.072122149 0.062703095 0.68225008
-0.076419055 0.069295242 0.68000001
-0.073828578 0.069295242 0.68000001
-0.073332861 0.053690955 0.68750006
-0.075460769 0.057935812 0.68660009
-0.072481431 0.057656825 0.68666673
-0.068642318 0.058182452 0.68642867
-0.075786673 0.060760003 0.68600005
-0.072520003 0.060760003 0.68600005
-0.06925334 0.062066671 0.68600005
-0.071124293 0.05466143 0.69150007
-0.067980006 0.054780003 0.69300002
-0.070971429 0.055857148 0.69000006
-0.067880005 0.056019053 0.69200009
-0.075453915 0.04336286 0.69620007
-0.073240325 0.044032704 0.69700003
-0.068151116 0.044032704 0.69700003
-0.064481907 0.044539049 0.69800001
-0.07611905 0.045671433 0.69500005
-0.073200323 0.046715666 0.69522232
-0.067326002 0.04753565 0.69600016
-0.06241091 0.048635673 0.69781816
-0.059079051 0.049121909 0.69700003
-0.067599915 0.052490771 0.69590008
-0.062581219 0.052319918 0.69700003
-0.058909528 0.051628575 0.69500005
-0.065811433 0.055840004 0.69800001
-0.063440003 0.055468101 0.69749999
-0.071957156 0.0376966 0.70142871
-0.067238361 0.037664678 0.70281827
-0.063782319 0.038538236 0.7028572
-0.072014555 0.042043291 0.7007274
-0.067250364 0.041885599 0.70087504
-0.063400783 0.042611349 0.70209104
-0.063535005 0.046481669 0.70225006
-0.066000007 0.052666672 0.70000005
-0.057988577 0.024948573 0.708
-0.06066405 0.027298812 0.70774996
-0.057551235 0.027629906 0.70760006
-0.053257562 0.027832795 0.70785725
-0.067621909 0.033762857 0.70700008
-0.064057149 0.034388572 0.708
-0.057314288 0.030342858 0.70800006
-0.068583816 0.035636194 0.70600003
-0.061977983 0.036716077 0.70737505
-0.059253335 0.037706666 0.70700002
-0.060520004 0.019720001 0.71400005
-0.052088004 0.019176003 0.71400005
-0.049640004 0.019040002 0.71400005
-0.060350478 0.022373335 0.71200001
-0.057389628 0.022248477 0.71230006
-0.052758966 0.022522947 0.71272737
-0.049265243 0.022423811 0.71350002
-0.065867625 0.028520001 0.71300006
-0.062845193 0.027319895 0.71122223
-0.056123812 0.02501905 0.71000004
-0.052504901 0.025623811 0.7107144
-0.049570478 0.025124764 0.71300006
-0.066299245 0.031589147 0.71180004
-0.06210997 0.032339688 0.71040004
-0.057380568 0.03296515 0.71220011
-0.053720005 0.030600002 0.71400005
-0.061533336 0.035838097 0.71000004
-0.058828574 0.035838097 0.71000004
-0.052041911 0.014380001 0.71900004
-0.047192253 0.013580273 0.71814287
-0.042891115 0.012547302 0.71866673
-0.039031431 0.011640953 0.71900004
-0.05741477 0.018453335 0.71766663
-0.052701499 0.016657962 0.71600002
-0.047975436 0.016949907 0.71760005
-0.044509526 0.015749525 0.71900004
-0.04841524 0.02113905 0.71600002
-0.055285722 0.033445083 0.7166667
-0.053298578 0.031431906 0.71750003
-0.056526199 0.03756905 0.71724999
-0.061500002 0.042366195 0.71750003
-0.057409648 0.042374648 0.71762496
-0.053147145 0.042211432 0.71775001
-0.049987622 0.040400956 0.71900004
-0.061354484 0.046871047 0.71740001
-0.058538578 0.046695083 0.71750009
-0.042363409 0.004226259 0.72242868
-0.03919429 0.0041257143 0.72200006
-0.047271278 0.0080312705 0.7228334
-0.04259818 0.0075569055 0.72141683
-0.038524449 0.0075673023 0.72233343
-0.050848573 0.012367144 0.72150004
-0.047892541 0.011226825 0.72183341
-0.042490374 0.012126985 0.72088891
-0.038479526 0.011679525 0.7215001
-0.05577429 0.015837144 0.72300005
-0.046628576 0.019200001 0.72000003
-0.042642385 0.016507462 0.72216672
-0.039085716 0.01577143 0.72000003
-0.047815245 0.022648256 0.72066677
-0.068627626 0.027313337 0.72300005
-0.051137861 0.029173572 0.72075003
-0.048888575 0.025477145 0.72300005
-0.05193115 0.032835718 0.72130007
-0.058971431 0.038400002 0.72000003
-0.052114993 0.037264708 0.72193342
-0.048100002 0.038478576 0.72150004
-0.051155239 0.042230479 0.72100002
-0.048685718 0.040457144 0.72000003
-0.05671981 0.047656193 0.72100008
-0.053485718 0.045942862 0.72000003
-0.046743494 0.0043746037 0.72533339
-0.044880956 0.0034523811 0.72500002
-0.051130958 0.0076014297 0.72549999
-0.04810318 0.006674604 0.72500008
-0.035376195 0.0076295245 0.72833335
-0.056597143 0.014091112 0.72766674
-0.052905526 0.012294478 0.7252
-0.040738098 0.013119048 0.72500002
-0.039357144 0.013119048 0.72500002
-0.057546671 0.015946668 0.72800004
-0.043134607 0.018222859 0.72666669
-0.039574288 0.017357145 0.72900003
-0.076105401 0.023826033 0.72866672
-0.072205961 0.023028811 0.72725004
-0.068543814 0.022846397 0.72700006
-0.063874289 0.022217143 0.72900003
-0.045983411 0.02304218 0.72685724
-0.044100322 0.020551113 0.72733343
-0.076212928 0.027452113 0.72842866
-0.072592311 0.027653096 0.72591662
-0.06939286 0.027273811 0.72500002
-0.050404765 0.026928574 0.72500002
-0.047120884 0.027719799 0.72764289
-0.075677149 0.031242859 0.72900003
-0.073018484 0.031728953 0.72740012
-0.069738097 0.03107143 0.72500002
-0.047345977 0.032720346 0.72818184
-0.043045718 0.034020003 0.72900003
-0.047740482 0.035979845 0.72650003
-0.044251431 0.03526286 0.72600001
-0.051785719 0.043500002 0.72500002
-0.056005716 0.049091432 0.72600001
-0.03560286 0.0041876193 0.73300004
-0.034253336 0.0041942857 0.73400003
-0.053680003 0.0090628574 0.73200005
-0.033251908 0.0081398413 0.73250002
-0.073356837 0.013428361 0.73355561
-0.066808991 0.014080818 0.73400009
-0.061956197 0.013437144 0.7330001
-0.057932489 0.012174181 0.73288894
-0.053826671 0.01188381 0.73400003
-0.03565143 0.013980953 0.73400003
-0.034253336 0.013980953 0.73400003
-0.076196194 0.018175241 0.73400003
-0.072553977 0.017439527 0.73250008
-0.067623071 0.017427726 0.73200005
-0.063152865 0.017286954 0.73189998
-0.059176195 0.016012382 0.73100001
-0.041800477 0.01881 0.73150003
-0.037681669 0.018842144 0.73275
-0.080390483 0.02376762 0.73400003
-0.077627353 0.022220818 0.73242873
-0.072918572 0.02066778 0.73150009
-0.067251198 0.02055881 0.73175007
-0.064137146 0.020217145 0.73200005
-0.042206194 0.02256581 0.7313
-0.039361592 0.021894287 0.73366666
-0.080390483 0.026563812 0.73400003
-0.078477152 0.028295813 0.73180002
-0.045252383 0.029936193 0.73100001
-0.042524606 0.02788556 0.73199999
-0.039040003 0.029977145 0.73200005
-0.077277146 0.031328574 0.73100001
-0.045252383 0.031328574 0.73100001
-0.042486675 0.03203905 0.73133337
-0.039737146 0.03137143 0.73200005
-0.017111428 -0.021564446 0.7383334
-0.013341906 -0.021567484 0.73728579
-0.026040955 -0.016187619 0.73900002
-0.020410478 -0.016891429 0.73900002
-0.017353334 -0.017586669 0.73866671
-0.014285399 -0.018499367 0.73766673
-0.026824631 -0.012559865 0.73842865
-0.022503693 -0.012658215 0.73837513
-0.017935239 -0.014418096 0.7385
-0.026708892 -0.0077307946 0.73800004
-0.022501588 -0.0077346042 0.7383334
-0.019002859 -0.0077419053 0.73900002
-0.030161431 -0.001402381 0.73650002
-0.027130289 -0.0025285718 0.73799998
-0.022751588 -0.0032833335 0.73883337
-0.071084768 0.0049266671 0.73900002
-0.068973333 0.0049266671 0.73900002
-0.061935242 0.0049266671 0.73900002
-0.056488574 0.0039838101 0.7383334
-0.052574098 0.0032316193 0.73800004
-0.049318913 0.0025099323 0.73828578
-0.031457756 0.002999394 0.73700005
-0.028386988 0.0028152382 0.73900002
-0.075307623 0.0084457146 0.73900002
-0.0722913 0.0081440825 0.73900002
-0.067505091 0.0077339686 0.7383334
-0.06258212 0.0077340752 0.73833334
-0.057636198 0.0077314293 0.73800004
-0.054046672 0.0070190481 0.73700005
-0.031584285 0.0066676196 0.73700005
-0.085864767 0.014780001 0.73900002
-0.082064204 0.014216954 0.73900002
-0.077561907 0.013336669 0.73700005
-0.072039872 0.01152177 0.73642862
-0.067586042 0.011458836 0.73666668
-0.062799767 0.010875952 0.73675001
-0.056777146 0.010514286 0.73600006
-0.053973336 0.010514286 0.73600006
-0.035748575 0.011215239 0.73600006
-0.03278048 0.011744524 0.73625004
-0.087712392 0.017753335 0.73824996
-0.082861595 0.017554924 0.73733342
-0.078267217 0.0173366 0.73657149
-0.090791434 0.024633335 0.73900002
-0.087719403 0.022423638 0.73790908
-0.083094023 0.022251705 0.73671442
-0.078506671 0.02032762 0.73600006
-0.037385993 0.022551704 0.73671442
-0.03448667 0.020410478 0.73900002
-0.090791434 0.026040955 0.73900002
-0.087438509 0.026603404 0.73785722
-0.082724772 0.02737483 0.73700011
-0.040008575 0.028076192 0.73700005
-0.038624573 0.026828384 0.73740005
-0.021904355 -0.021296464 0.74185717
-0.018558731 -0.022317462 0.74000001
-0.012878668 -0.023917526 0.74300003
-0.030304763 -0.016209524 0.74000001
-0.027495787 -0.017626397 0.74028575
-0.023000004 -0.017780192 0.74080002
-0.01808889 -0.017619049 0.74000001
-0.014860001 -0.016275238 0.74300003
-0.030304763 -0.014095239 0.74000001
-0.028190477 -0.013390477 0.74000001
-0.017465238 -0.011820477 0.74100006
-0.014860002 -0.013444763 0.74300003
-0.047410481 -0.0063685719 0.74300003
-0.017248709 -0.0077673476 0.74142867
-0.014846668 -0.0077774613 0.74233341
-0.089867622 -0.00070761907 0.74300003
-0.070054293 -0.00070761907 0.74300003
-0.061562862 -0.00070761907 0.74300003
-0.057034101 -0.0012737144 0.74300003
-0.052073654 -0.0016499474 0.74222225
-0.047378577 -0.0028295238 0.74250001
-0.044580001 -0.0042457143 0.74300003
-0.021847621 -0.001409524 0.74000001
-0.017797317 -0.0030175757 0.74209094
-0.091282867 0.0021228574 0.74300003
-0.088897467 0.0025939681 0.74277782
-0.075715244 0.0049533336 0.74300003
-0.072326675 0.0029044442 0.74211115
-0.067331865 0.0030153249 0.74136364
-0.062282942 0.0024708731 0.74175
-0.057936333 0.0021153744 0.74057156
-0.053561907 0.00070476194 0.74000001
-0.026546035 0.0028190478 0.74000001
-0.022603035 0.0028267261 0.74168742
-0.075715244 0.0063685719 0.74300003
-0.073395237 0.006351429 0.74100006
-0.030427622 0.0084914295 0.74300003
-0.027864954 0.0074973339 0.74260008
-0.021228572 0.0063685719 0.74300003
-0.091241919 0.013438096 0.74266672
-0.087577544 0.012710875 0.74158335
-0.082864903 0.01160585 0.74185723
-0.079067864 0.011295001 0.74125004
-0.090914294 0.017619049 0.74000001
-0.089504771 0.016209524 0.74000001
-0.091483101 0.02225405 0.74175006
-0.089504771 0.023257144 0.74000001
-0.03594286 0.023257144 0.74000001
-0.034533337 0.023257144 0.74000001
-0.086213335 0.028973335 0.74200004
-0.08409334 0.028973335 0.74200004
-0.036614288 0.027850097 0.74220008
-0.034319527 0.027950954 0.74300003
-0.085621908 0.030427622 0.74300003
-0.082791433 0.030427624 0.74300003
-0.037503812 0.030427622 0.74300003
-0.012082223 -0.026299369 0.74633336
-0.0085371435 -0.026322858 0.74700004
-0.011366667 -0.024866669 0.74600005
-0.0085371435 -0.024900002 0.74700004
-0.012795715 -0.016351907 0.74650002
-0.07337524 -0.010685715 0.74800003
-0.068388574 -0.010685715 0.74800003
-0.052716196 -0.010685715 0.74800003
-0.049154289 -0.010685715 0.74800003
-0.04274286 -0.010685715 0.74800003
-0.012791906 -0.012367524 0.7463001
-0.086910486 -0.006411429 0.74800003
-0.08237461 -0.0073593664 0.74777782
-0.077814408 -0.0076570245 0.74787503
-0.072857149 -0.0077066673 0.74800009
-0.068151116 -0.0075987312 0.74800009
-0.062689528 -0.006411429 0.74800003
-0.057477556 -0.007426667 0.7477144
-0.052610479 -0.0078220638 0.74650002
-0.047657743 -0.0080039287 0.74687511
-0.0442621 -0.0081139058 0.74720001
-0.012061907 -0.008514287 0.74500006
-0.091897152 -0.0011873017 0.74800003
-0.086554289 -0.0021371429 0.74800003
-0.082539886 -0.0028464287 0.74712497
-0.077424929 -0.0028430163 0.74583334
-0.07262966 -0.0029869839 0.74620003
-0.067510322 -0.0028449211 0.74616665
-0.062730774 -0.0033383884 0.74653858
-0.057718784 -0.0039568711 0.74557149
-0.052808855 -0.0043585035 0.74500006
-0.098071121 0.0021371429 0.74800003
-0.093276471 0.0027382316 0.74600011
-0.08650995 0.0031425853 0.74542862
-0.082752191 0.0025415649 0.74721438
-0.07758157 0.0026504763 0.74609101
-0.074026987 0.0011825397 0.74500006
-0.068114296 0.00070952385 0.74500006
-0.063147627 0.00070952385 0.74500006
-0.091639057 0.0078142863 0.74588895
-0.087297894 0.0078070909 0.74522227
-0.082863621 0.0079584774 0.74620003
-0.078204766 0.0078176195 0.74650002
-0.027316669 0.0081595248 0.74500006
-0.023607381 0.0079878578 0.74550003
-0.093157463 0.01256381 0.74666673
-0.088690482 0.010642858 0.74500006
-0.030550478 0.011368573 0.74600005
-0.027726194 0.011376033 0.74650002
-0.024436828 0.011151113 0.74733341
-0.093741596 0.017753335 0.74566674
-0.096042864 0.020631431 0.74700004
-0.093846202 0.021329049 0.74650002
-0.08406096 0.032057144 0.74800003
-0.0057142861 -0.030714288 0.75000006
-0.0058210893 -0.027271159 0.75071436
-0.0031076195 -0.027729526 0.75300002
0.0016733336 -0.028924763 0.75300002
-0.011459049 -0.020769525 0.75200003
-0.0071534137 -0.022178654 0.75125003
-0.0028669843 -0.022221588 0.75266671
-0.072431438 -0.015060002 0.75300002
-0.067098007 -0.016201431 0.75269997
-0.062343415 -0.01719881 0.75241679
-0.057501331 -0.016705276 0.75253856
-0.053283811 -0.015531431 0.75266671
-0.037052386 -0.015060002 0.75300002
-0.032706037 -0.015517461 0.75200003
-0.011551565 -0.017686531 0.75142866
-0.0077615879 -0.017434923 0.75233334
-0.091794297 -0.01219143 0.75300002
-0.087364674 -0.011888287 0.75190002
-0.082252383 -0.011444762 0.75100011
-0.077175669 -0.012003387 0.75111109
-0.072021231 -0.012566533 0.75085717
-0.066928767 -0.01244305 0.75080007
-0.062180109 -0.0121509 0.75044447
-0.057406757 -0.012288832 0.75090915
-0.052212384 -0.012875239 0.75100005
-0.047500636 -0.012334076 0.75188893
-0.042262703 -0.011940159 0.75216675
-0.037271034 -0.012185318 0.75258338
-0.033035811 -0.012440762 0.75080007
-0.010728572 -0.012875238 0.75100005
-0.008955 -0.012537858 0.75225008
-0.095316678 -0.0057338099 0.75250006
-0.092270225 -0.007098096 0.75209093
-0.087904766 -0.0077188574 0.75040001
-0.082857147 -0.0092857145 0.75000006
-0.076428577 -0.0092857145 0.75000006
-0.070714287 -0.0092857145 0.75000006
-0.066142865 -0.0084285727 0.75000006
-0.06214286 -0.0085714292 0.75000012
-0.058571436 -0.0092857145 0.75000006
-0.041539051 -0.0085942857 0.75200003
-0.037857145 -0.0085714292 0.75000012
-0.0093104765 -0.0093104765 0.75200003
-0.095168903 -0.0021479367 0.75133342
-0.092625916 -0.0030068574 0.75160009
-0.088412702 -0.0026209529 0.75066674
-0.10542002 0.002151429 0.75300002
-0.10267906 0.0025590479 0.75242865
-0.097516008 0.0030074287 0.7518
-0.10528 0.0050133336 0.75200003
-0.10243811 0.0071636508 0.75216669
-0.097314596 0.0071547031 0.75131249
-0.081071429 0.0060714288 0.75000006
-0.078571439 0.0078571429 0.75000006
-0.10195086 0.011614478 0.75280005
-0.097729154 0.012019429 0.75120002
-0.030714288 0.013571429 0.75000006
-0.027195716 0.013598572 0.75150001
-0.097035252 0.01668762 0.75100005
-0.029363811 0.015040001 0.75200003
-0.0050533335 -0.038260955 0.75800002
-0.0023070478 -0.037047621 0.7568
0.0017512926 -0.036776602 0.7571429
-0.0050400002 -0.032400001 0.75600004
-0.0021594709 -0.03238593 0.75566673
0.0021600001 -0.032400001 0.75600004
0.0070083132 -0.03229351 0.75654554
-0.092240006 -0.025943493 0.75666666
-0.087651908 -0.025610955 0.75750005
-0.082537785 -0.026229208 0.75799996
-0.077532582 -0.025844192 0.75800002
-0.072912388 -0.025266668 0.75800008
-0.06424953 -0.025266668 0.75800002
-0.04735883 -0.0274822 0.75784618
-0.042833023 -0.027191749 0.75800002
-0.0050333338 -0.026604764 0.75500005
-0.0011984129 -0.026844447 0.75500005
0.0023191536 -0.026783917 0.75555563
0.0072000003 -0.029520001 0.75600004
-0.09582334 -0.021615716 0.75650001
-0.092615813 -0.022325909 0.75620002
-0.087880388 -0.022367239 0.75760001
-0.082494035 -0.022510305 0.75799996
-0.077389143 -0.022194859 0.75660002
-0.072273858 -0.022476625 0.75681829
-0.067447357 -0.021522451 0.75685716
-0.063162707 -0.021856351 0.75650012
-0.057600006 -0.020880001 0.75600004
-0.051255241 -0.020935239 0.75800002
-0.047645718 -0.022379048 0.75800002
-0.042518735 -0.022339685 0.75666666
-0.037506036 -0.022360636 0.7573334
-0.032966986 -0.021897778 0.75800002
-0.027388951 -0.022344764 0.7568
-0.023320636 -0.023321908 0.7573334
-0.00071904773 -0.022290479 0.75500005
0.0014380955 -0.022290481 0.75500005
-0.095633343 -0.019414287 0.75500005
-0.092797473 -0.017264765 0.75533342
-0.0879118 -0.017295595 0.75662518
-0.082891598 -0.017300796 0.75683343
-0.077741131 -0.017276132 0.75581264
-0.072623812 -0.017976193 0.75500005
-0.068069845 -0.018934924 0.75500005
-0.056804769 -0.019414287 0.75500005
-0.052247308 -0.017844129 0.75611115
-0.047519766 -0.017280715 0.7560001
-0.04245691 -0.017271191 0.75558347
-0.037461031 -0.01776286 0.75530779
-0.032612111 -0.018415648 0.75614291
-0.029520001 -0.019440001 0.75600004
-0.005394524 -0.016543096 0.75525004
-0.0024487621 -0.017570287 0.75620002
0.0014380954 -0.019414287 0.75500005
-0.094195247 -0.01222381 0.75500005
-0.087780483 -0.013670953 0.75550008
-0.082764141 -0.013673969 0.75566673
-0.079095244 -0.013661906 0.75500005
-0.045300003 -0.013661906 0.75500005
-0.043142859 -0.013661906 0.75500005
-0.0067179371 -0.012236668 0.75583339
-0.096352383 -0.0071904766 0.75500005
-0.094195247 -0.0079095243 0.75500005
-0.10064954 -0.001200635 0.75666666
-0.097898588 -0.0021592067 0.75583339
-0.012240001 -0.0021600001 0.75600004
-0.10210477 0.00071904768 0.75500005
-0.097920008 0.00072000007 0.75600004
-0.013328096 0.0018004762 0.75650001
-0.10605954 0.0079095243 0.75500005
-0.020880001 0.0086400006 0.75600004
-0.01787067 0.0069190483 0.75660002
-0.013716191 0.0050533335 0.75800002
-0.10570001 0.011504762 0.75500005
-0.10354286 0.012942858 0.75500005
-0.022153812 0.012428571 0.75650001
-0.01949143 0.011550477 0.75800002
-0.10145906 0.01707048 0.7573334
-0.099228576 0.017257143 0.75500005
-0.030919049 0.015819049 0.75500005
-0.027369663 0.017287757 0.75628579
-0.023232764 0.016595811 0.75760001
-0.10008001 0.020880001 0.75600004
-0.09864001 0.020880001 0.75600004
-0.027900636 0.021888575 0.75766671
-0.077753335 -0.039240003 0.76300001
-0.048686668 -0.035606667 0.76300001
0.0036190478 -0.035466667 0.76000005
0.0061523812 -0.035828572 0.76000005
-0.082069531 -0.031811621 0.76260006
-0.077753343 -0.032700002 0.76300001
-0.071940005 -0.03124667 0.76300001
-0.051328849 -0.032249119 0.7621429
-0.047150161 -0.032644555 0.76166672
-0.042873334 -0.03124667 0.76300001
0.0094095245 -0.034019049 0.76000005
-0.088063501 -0.026298415 0.76000011
-0.082372934 -0.029116603 0.76157153
-0.077415518 -0.028708303 0.76171434
-0.07239759 -0.02807832 0.76192307
-0.067931592 -0.026352225 0.76150006
-0.062431194 -0.025771668 0.76225001
-0.057406675 -0.025433337 0.76300001
-0.052853081 -0.02764615 0.76209098
-0.048977785 -0.027263496 0.76000011
-0.042463496 -0.027746033 0.76000011
-0.03769334 -0.027547143 0.76112509
-0.032776713 -0.027371343 0.76172727
-0.027811008 -0.026361486 0.76177782
-0.022023177 -0.026380002 0.76233339
-0.019028382 -0.026582671 0.76260006
0.0066674468 -0.027394202 0.76245457
-0.087580957 -0.022438096 0.76000005
-0.06731429 -0.023885718 0.76000011
-0.061250485 -0.023312954 0.76020008
-0.057193175 -0.023166826 0.76016676
-0.053063452 -0.022638453 0.76062506
-0.031606354 -0.023403175 0.76000011
-0.029676192 -0.023885716 0.76000005
0.0036190478 -0.023161907 0.76000005
0.0061657149 -0.023570478 0.7615
-0.00072476198 -0.015944764 0.76100004
0.0013049525 -0.016967431 0.76140004
-0.0050700004 -0.011588096 0.76050007
-0.0023569048 -0.012513334 0.76175004
-0.0065233344 -0.0086992076 0.76116675
-0.0029066668 -0.0094466675 0.76300001
-0.011374922 -0.0012092065 0.76233339
-0.0087200012 -0.0014533334 0.76300001
-0.011599286 0.002175 0.76125002
-0.0094219055 0.00072476198 0.76100004
-0.015791431 0.0082584769 0.76060003
-0.013443334 0.0072666672 0.76300001
-0.016956097 0.012464668 0.76090014
-0.10604345 0.016974477 0.76160002
-0.10361334 0.017826287 0.76080006
-0.025333336 0.019542858 0.76000005
-0.02182558 0.017895512 0.76028579
-0.018314287 0.016702225 0.7624445
-0.10237112 0.022265401 0.76233339
-0.077083819 -0.040123813 0.76600003
-0.056320004 -0.040228575 0.76800001
-0.052662861 -0.040228575 0.76800001
-0.049005717 -0.040960003 0.76800001
-0.081707627 -0.036476191 0.76600003
-0.077180184 -0.037033856 0.76518184
-0.072867304 -0.036799684 0.7676667
-0.061196201 -0.036327623 0.76800001
-0.057562862 -0.037096195 0.76750004
-0.052514769 -0.037198894 0.76583338
-0.047228932 -0.037383456 0.76587498
-0.042942859 -0.036913335 0.7675001
-0.037302859 -0.035840001 0.76800001
-0.032914288 -0.036571432 0.76800007
-0.028525716 -0.036571436 0.76800007
-0.015360001 -0.035840001 0.76800001
-0.012434287 -0.035840001 0.76800001
-0.0069485717 -0.036754288 0.76800007
-0.08232858 -0.033878576 0.76500005
-0.075042859 -0.032785717 0.76500005
-0.072151676 -0.032979053 0.76525003
-0.067676008 -0.031719431 0.76740009
-0.061887145 -0.032406196 0.76750004
-0.057649739 -0.032839581 0.7662223
-0.053768575 -0.033368576 0.76500005
-0.042043813 -0.033296298 0.76555556
-0.037200529 -0.032825503 0.76588887
-0.032823388 -0.032825079 0.76588893
-0.027946668 -0.032728311 0.76672739
-0.02244531 -0.032466806 0.7672857
-0.017257717 -0.032613333 0.76780003
-0.012613096 -0.032721192 0.76775002
-0.0078785187 -0.033220746 0.76755565
-0.06697347 -0.029061088 0.76557148
-0.062252384 -0.028429905 0.76540005
-0.057557147 -0.028414287 0.76499999
-0.05464286 -0.026957145 0.76500005
-0.031328574 -0.02987143 0.76500005
-0.027382994 -0.029258098 0.76528579
-0.023091748 -0.028926035 0.76566666
-0.016817717 -0.029395623 0.76780003
-0.012710287 -0.029365143 0.76700002
-0.0094961915 -0.029949525 0.76700002
0.0036571431 -0.02121143 0.76800001
0.0068640001 -0.021761147 0.76680011
0.0031669843 -0.016809527 0.76733339
0.0057038101 -0.018281715 0.76780003
-0.0007285715 -0.010928572 0.76500005
0.0021932276 -0.01241926 0.76711112
0.006217143 -0.012800001 0.76800001
-0.0075517464 -0.0056031751 0.76733339
-0.0021911114 -0.0077911112 0.76700008
0.00073095242 -0.0087709529 0.76750004
-0.0065742866 -0.0021914288 0.76700002
-0.010928572 0.0036428573 0.76500005
-0.0070082857 0.0021909527 0.7665
-0.0030660955 0.0024832385 0.76660007
-0.011573469 0.0076121096 0.76642865
-0.0082546948 0.006373879 0.76800007
-0.012402012 0.012403069 0.7661112
-0.0095085725 0.013165715 0.76800001
-0.061024766 -0.050731432 0.77200001
-0.057528034 -0.051638506 0.77300012
-0.053005718 -0.050797146 0.77300006
-0.062045567 -0.047331274 0.77250004
-0.057367068 -0.047806434 0.77225006
-0.052224446 -0.047811747 0.77233344
-0.048146859 -0.046968956 0.77300006
-0.043435242 -0.046380002 0.77300006
-0.036073335 -0.046380002 0.77300006
-0.033128574 -0.046380002 0.77300006
-0.07275524 -0.040420637 0.77166671
-0.066788092 -0.041765481 0.77275008
-0.0624827 -0.042635556 0.77183342
-0.057409532 -0.042847622 0.77000016
-0.052111745 -0.043305393 0.77066666
-0.047440857 -0.042889811 0.77109998
-0.04277188 -0.042480197 0.77166682
-0.037509285 -0.042658336 0.77225006
-0.032360949 -0.04265834 0.77225006
-0.027717674 -0.042435981 0.77266675
-0.022567302 -0.041454293 0.77266681
-0.017657304 -0.041936349 0.77250004
-0.012372556 -0.042469177 0.77245456
-0.0085023139 -0.041668575 0.77142853
-0.071683817 -0.038411435 0.77066672
-0.067664206 -0.037509445 0.77225006
-0.062905088 -0.037937466 0.77100009
-0.059400003 -0.038866669 0.77000004
-0.041433334 -0.038133334 0.77000004
-0.037400004 -0.038133338 0.7700001
-0.032266669 -0.038866669 0.77000004
-0.026574099 -0.038027052 0.77080005
-0.022759581 -0.037444446 0.77088886
-0.017821994 -0.037578531 0.77090913
-0.012472699 -0.038150162 0.77033341
-0.0090444451 -0.038377784 0.7700001
-0.067202456 -0.033863679 0.77057147
-0.062877469 -0.034007624 0.77066672
-0.025666669 -0.034466669 0.77000004
-0.023466669 -0.034466669 0.77000004
-0.018822223 -0.033000004 0.7700001
-0.011000001 -0.034466669 0.77000004
-0.018333334 -0.028600002 0.77000004
0.0095333336 -0.021266667 0.77000004
0.011000001 -0.021266667 0.77000004
0.008956573 -0.018644953 0.77080005
0.011019049 -0.018363811 0.7713334
0.0066000004 -0.012466667 0.77000004
-0.005622223 -0.0061111115 0.7700001
-0.0018338097 -0.0055033341 0.77050006
0.0024973336 -0.0070487629 0.77120006
0.0060667861 -0.0071701198 0.77212501
-0.00514 -0.0029380955 0.77100003
-0.0026257145 -0.0024153744 0.77214295
0.0014723811 -0.0036809526 0.77300006
-0.0080666672 0.0036666668 0.77000004
-0.0069089527 0.0072026672 0.77160001
-0.0029333336 0.0058666673 0.77000004
-0.0095333336 0.011000001 0.77000004
-0.065860003 -0.055500004 0.77700001
-0.062508382 -0.056005526 0.77580005
-0.058604766 -0.05594762 0.77500004
-0.070480958 -0.053417146 0.77900004
-0.06738022 -0.052569635 0.77744448
-0.062984765 -0.052640002 0.77575004
-0.057480957 -0.053346097 0.77580005
-0.052068576 -0.052069526 0.77550006
-0.047450479 -0.05190048 0.77850008
-0.042288579 -0.051933341 0.77900004
-0.038208097 -0.051562384 0.77900004
-0.03264381 -0.051191431 0.77900004
-0.027450478 -0.051191431 0.77900004
-0.022009842 -0.051191431 0.77900004
-0.070975564 -0.046987306 0.77900004
-0.067412563 -0.047518533 0.77627277
-0.063722223 -0.048960321 0.77500004
-0.046533749 -0.048645314 0.77557147
-0.041803289 -0.047882225 0.77611113
-0.037900243 -0.048255 0.77650005
-0.03237848 -0.048347242 0.7762
-0.027245337 -0.047830667 0.77740002
-0.022721101 -0.047552466 0.77730775
-0.017593717 -0.047166031 0.77620012
-0.013560636 -0.047589846 0.77666676
-0.072566673 -0.042948574 0.77750003
-0.068209849 -0.043093022 0.77566671
-0.025833335 -0.042809527 0.77500004
-0.023373019 -0.04305556 0.77500004
0.008857144 -0.01107143 0.77500004
0.0081190486 -0.008857144 0.77500004
-0.00073809526 -0.0014761905 0.77500004
0.0024281635 -0.0017938777 0.77585721
0.0051711118 -0.0022149207 0.77566671
-0.0014800001 0.00074000005 0.77700001
0.0017266668 0.0012333335 0.77700007
-0.056000005 -0.060480002 0.78400004
-0.053013336 -0.062720001 0.78400004
-0.056450166 -0.056947943 0.78333342
-0.054506671 -0.056000005 0.78400004
-0.047001272 -0.057444446 0.78333336
-0.042677864 -0.057215959 0.78275001
-0.037612196 -0.057166096 0.78360003
-0.032106668 -0.056746669 0.78400004
-0.027626669 -0.056746669 0.78400004
-0.022400003 -0.056746665 0.78399998
-0.017173335 -0.056746673 0.78400004
-0.07057143 -0.051257145 0.78000003
-0.052130479 -0.054367624 0.78200006
-0.04688127 -0.054321274 0.78133339
-0.042377781 -0.054274928 0.78066671
-0.037189528 -0.053802863 0.78100008
-0.032438099 -0.053497694 0.78171438
-0.027532067 -0.053577788 0.78133339
-0.022419894 -0.053360429 0.78177786
-0.017114922 -0.052834295 0.78133333
-0.013751905 -0.052406192 0.78049999
-0.075028576 -0.04531429 0.78000003
-0.07280001 -0.047542863 0.78000003
-0.046932574 -0.065825529 0.78720009
-0.043109529 -0.066242486 0.78860009
-0.038322859 -0.065374292 0.78900003
-0.032297783 -0.065346673 0.78866673
-0.028554287 -0.065374292 0.78900003
-0.02179143 -0.065374292 0.78900003
-0.051651433 -0.061757144 0.78600001
-0.047173336 -0.06214942 0.78622228
-0.042758629 -0.062264875 0.7876668
-0.037523337 -0.062291127 0.78800011
-0.032238413 -0.062229529 0.78722233
-0.027950358 -0.062093455 0.78787506
-0.022222383 -0.062013429 0.7883001
-0.018369764 -0.061857387 0.78725004
-0.056142859 -0.059137147 0.78600001
-0.052195847 -0.057776105 0.78600007
-0.041171432 -0.059137147 0.78600001
-0.035931431 -0.059137147 0.78600001
-0.032188576 -0.059137147 0.78600001
-0.027697146 -0.059137147 0.78600001
-0.022457145 -0.059137147 0.78600001
-0.017217144 -0.059137147 0.78600001
-0.040730476 -0.070148572 0.79200006
-0.037761904 -0.070237145 0.79300004
-0.029454287 -0.070237145 0.79300004
-0.021901906 -0.07099238 0.79300004
-0.041935559 -0.067548893 0.79100007
-0.037614811 -0.067215152 0.79136366
-0.032448575 -0.067914926 0.79233336
-0.02789746 -0.067355566 0.79166669
-0.022621667 -0.066733576 0.79175007
-0.018833335 -0.065540001 0.79100001
-0.026366668 -0.064033337 0.79100001
-0.024106668 -0.064033337 0.79100001
-0.035720002 -0.076760001 0.79800004
-0.032680001 -0.076000005 0.79800004
-0.027680412 -0.076312259 0.79785717
-0.040128574 -0.071928576 0.79500002
-0.036949527 -0.072492659 0.79642862
-0.03261238 -0.072050907 0.79633331
-0.027117666 -0.072248399 0.79700005
-0.023520637 -0.072081275 0.79666674
-0.026500002 -0.068900004 0.79500002
-0.022966668 -0.068900004 0.79500002
-0.018988095 -0.06835667 0.79750001
-0.035809524 -0.075428575 0.80000001
-0.026361907 -0.077866666 0.80000001
-0.023619048 -0.077714294 0.80000001
