# .PCD v0.7 - Point Cloud Data file format
VERSION 0.7
FIELDS x y z
SIZE 4 4 4
TYPE F F F
COUNT 1 1 1
WIDTH 526
HEIGHT 1
VIEWPOINT 0 0 0 1 0 0 0
POINTS 526
DATA ascii
-0.05758572 0.078339718 0.60792303
-0.052423272 0.07876014 0.60871434
-0.055680007 0.080620006 0.60900003
-0.052750479 0.080575883 0.60866666
-0.055862859 0.077393338 0.611
-0.060132384 0.081734292 0.61300004
-0.057265647 0.083137587 0.61307693
-0.054205719 0.082182862 0.61200005
-0.05730667 0.085960008 0.61400002
-0.068274289 0.074748576 0.61800003
-0.05649155 0.072966553 0.61787504
-0.052453138 0.072838493 0.61810541
-0.049399525 0.074688099 0.61750007
-0.066945955 0.077548027 0.61841667
-0.062609926 0.077820241 0.61825001
-0.05716699 0.076545402 0.61666673
-0.052778333 0.076821357 0.61575001
-0.048777815 0.077932112 0.61710006
-0.04421429 0.079585716 0.61900002
-0.065437146 0.080764771 0.61900002
-0.062259346 0.082107715 0.61669999
-0.059157148 0.083757147 0.61500001
-0.051882125 0.083042137 0.61638469
-0.047801904 0.081779532 0.61775005
-0.043601338 0.08144401 0.61700004
-0.061013337 0.087413982 0.61600012
-0.057460349 0.088201173 0.61564291
-0.052258592 0.087493047 0.61656529
-0.048930481 0.087446034 0.61900008
-0.060622863 0.091228589 0.61800003
-0.05732191 0.0926558 0.61685723
-0.052785397 0.09196128 0.6170001
-0.055823814 0.095781907 0.61700004
-0.054648574 0.095781907 0.61700004
-0.061161432 0.069475718 0.62349999
-0.056666948 0.068863682 0.62257147
-0.052110005 0.068687864 0.62175
-0.048851114 0.0686289 0.62300003
-0.067183733 0.072903208 0.62327284
-0.06271261 0.072471157 0.62223536
-0.058737051 0.071881242 0.62170005
-0.052788574 0.07050287 0.62
-0.048313446 0.072835349 0.62288892
-0.043977149 0.074285716 0.62400001
-0.070682228 0.077018738 0.6236667
-0.067422539 0.077475883 0.62099999
-0.063303247 0.075608008 0.62120003
-0.059190005 0.075763337 0.62150002
-0.046963386 0.077787519 0.62244445
-0.043593608 0.0776162 0.62214291
-0.067680389 0.083089277 0.62226671
-0.06347619 0.084142864 0.62
-0.046910059 0.082994714 0.61999995
-0.041923814 0.080895245 0.62
-0.067495182 0.087589063 0.62321436
-0.063802332 0.087508149 0.62222224
-0.046997003 0.087659433 0.62223083
-0.066454291 0.090780005 0.62300003
-0.063092381 0.092755251 0.62300009
-0.059830479 0.094188578 0.62200004
-0.051108576 0.093897149 0.62400001
-0.047533911 0.092343576 0.62233335
-0.062067937 0.095168903 0.62066674
-0.059638098 0.095066674 0.62
-0.052329969 0.097225361 0.62276936
-0.048344385 0.096094094 0.62360001
-0.056138936 0.10265179 0.62212503
-0.052538618 0.10192851 0.62307703
-0.054080002 0.10518858 0.62400001
-0.055711433 0.064098097 0.62900001
-0.052162774 0.063667715 0.62690914
-0.049510162 0.063826352 0.62633336
-0.067258917 0.069308989 0.62814295
-0.062238451 0.068304762 0.6256364
-0.057295404 0.066543654 0.62666678
-0.052646566 0.066549852 0.62577778
-0.047476813 0.067591779 0.62650001
-0.043924287 0.069622383 0.62750006
-0.07196001 0.073156767 0.62860006
-0.06903962 0.071661338 0.62600005
-0.04651361 0.072023809 0.625
-0.043117151 0.072080962 0.62645459
-0.076079056 0.077876195 0.62900001
-0.07303749 0.077704333 0.62718189
-0.046726193 0.076488107 0.625
-0.044642862 0.076785721 0.625
-0.072875895 0.082429715 0.62718755
-0.076079056 0.085663818 0.62900001
-0.072718672 0.087045528 0.6268667
-0.068452388 0.089880958 0.625
-0.07142096 0.090518102 0.62666672
-0.067989677 0.091984227 0.62542862
-0.06488096 0.093452387 0.625
-0.065784 0.098021343 0.62680006
-0.062415794 0.098093614 0.62585717
-0.058333337 0.098214291 0.625
-0.050635718 0.098889053 0.62550002
-0.048829291 0.098849297 0.62524998
-0.066233911 0.10120686 0.62880003
-0.062056784 0.10244638 0.62792313
-0.058803625 0.10221887 0.62620002
-0.051230956 0.10246143 0.62550002
-0.049483813 0.10135239 0.62600005
-0.060608771 0.10723048 0.62760007
-0.057257742 0.1073594 0.62625003
-0.052825 0.10754421 0.62675005
-0.060503814 0.11082382 0.62900001
-0.057328921 0.11188096 0.62881827
-0.054192144 0.11167834 0.62874997
-0.052117147 0.12040858 0.62900001
-0.056579053 0.059588574 0.63200003
-0.057316452 0.062460355 0.63227272
-0.052963067 0.061670158 0.63277781
-0.047549631 0.063645937 0.6337778
-0.080910482 0.0694381 0.634
-0.077287622 0.0694381 0.634
-0.071899377 0.068414077 0.63322222
-0.06720411 0.067082576 0.63230002
-0.063520387 0.066653334 0.63280004
-0.059777148 0.06581524 0.634
-0.045893718 0.066371053 0.63240004
-0.042735241 0.068013974 0.63200003
-0.085137151 0.07366477 0.634
-0.08187785 0.072470494 0.63306665
-0.077081844 0.072262563 0.63231254
-0.073174134 0.071168736 0.63150001
-0.081799611 0.07677453 0.63308334
-0.077359937 0.076844707 0.63107151
-0.080744661 0.082351848 0.63322216
-0.077621274 0.082433976 0.63180006
-0.081372283 0.086593874 0.63288891
-0.077515483 0.088145331 0.63175005
-0.075960957 0.091031432 0.63300002
-0.072556205 0.093192607 0.63311112
-0.067306675 0.094349533 0.63100004
-0.070820384 0.097845905 0.63340002
-0.068549648 0.097412266 0.63137501
-0.066946104 0.10276287 0.63100004
-0.06581524 0.10627048 0.634
-0.063200958 0.10744064 0.63200003
-0.051161908 0.10894477 0.63200003
-0.049356192 0.10894477 0.63200003
-0.06215772 0.11274687 0.63239998
-0.058052003 0.11454153 0.63100004
-0.052246302 0.11305658 0.63169235
-0.049281232 0.11172205 0.6321429
-0.061290801 0.11775874 0.63300002
-0.057754941 0.11791506 0.63168752
-0.052631319 0.11750393 0.63200009
-0.049394764 0.11686143 0.63250005
-0.053666789 0.12221679 0.63137501
-0.10779584 0.059348457 0.63587511
-0.10438477 0.059561908 0.63600004
-0.061782859 0.059965719 0.63600004
-0.057540573 0.059238482 0.6360001
-0.05218441 0.059463695 0.63712507
-0.047032576 0.059031624 0.63640016
-0.043005716 0.059360009 0.6360001
-0.11198819 0.062717155 0.63757151
-0.1079024 0.06243857 0.63650012
-0.10418286 0.062994286 0.6360001
-0.072491586 0.064187147 0.63783336
-0.067712709 0.063107371 0.63593346
-0.062847503 0.063088514 0.63573343
-0.058973145 0.062365908 0.63580006
-0.050195243 0.061080955 0.63500005
-0.046566673 0.061772116 0.63500005
-0.042349525 0.062920474 0.63525009
-0.11502001 0.067551434 0.63900006
-0.11218002 0.06714572 0.63900006
-0.10729715 0.066638105 0.6385715
-0.10229532 0.067883387 0.639
-0.099197149 0.068768576 0.63900006
-0.08662077 0.069367819 0.63780004
-0.082375668 0.068341173 0.63755566
-0.077560447 0.067191221 0.63738471
-0.073465936 0.066324979 0.63633335
-0.06894286 0.065919049 0.63500005
-0.06192001 0.06635683 0.63533342
-0.04234929 0.065944999 0.63525003
-0.10224001 0.073028579 0.63900006
-0.093111433 0.072420008 0.63900006
-0.087011918 0.072569057 0.6371001
-0.084061913 0.070757151 0.63500005
-0.1032543 0.076477155 0.63900006
-0.085728191 0.077244386 0.63660002
-0.083702862 0.078862227 0.63533342
-0.085808575 0.080940008 0.63900006
-0.083616056 0.082228035 0.63685721
-0.080940008 0.09128572 0.63900006
-0.077412203 0.093037717 0.6360001
-0.073780954 0.094947629 0.63500005
-0.076852389 0.096278682 0.63740009
-0.073339052 0.097986676 0.63545465
-0.072158098 0.10126033 0.63666672
-0.069547623 0.10099524 0.63500005
-0.067827247 0.10737963 0.63700008
-0.067234822 0.11196604 0.63855559
-0.064760476 0.11257525 0.63550007
-0.065674767 0.11614619 0.63850003
-0.063229844 0.11757207 0.63633335
-0.048453335 0.054586671 0.64400005
-0.075936198 0.058788575 0.64300001
-0.073460639 0.058809213 0.64100003
-0.052175563 0.057677463 0.64200008
-0.047927905 0.056607533 0.6419
-0.044362381 0.057211909 0.64250004
-0.081447624 0.063993342 0.64300001
-0.077193417 0.062506914 0.64241672
-0.072855033 0.061875131 0.64044452
-0.065626673 0.061946671 0.64400005
-0.064100005 0.060437147 0.64100003
-0.11580953 0.068876192 0.64000005
-0.11276191 0.068876192 0.64000005
-0.10788572 0.068876192 0.64000005
-0.10179048 0.06765715 0.64000005
-0.096939206 0.068284616 0.64016676
-0.092191279 0.068736359 0.64250004
-0.087460577 0.067276195 0.64219999
-0.083379887 0.066427737 0.64137501
-0.078628585 0.06521906 0.64000005
-0.11617525 0.071680009 0.64000005
-0.11218103 0.072144829 0.6408667
-0.10768493 0.07220114 0.64243752
-0.10256483 0.072645612 0.64035302
-0.097532123 0.072539434 0.64005566
-0.092549406 0.072117738 0.64037496
-0.089600004 0.071923815 0.64000005
-0.11586838 0.076065339 0.64100003
-0.11328857 0.076547623 0.64300007
-0.10118096 0.076800004 0.64000005
-0.097027816 0.076476201 0.64240009
-0.092852384 0.076937459 0.64283341
-0.08858069 0.077818796 0.64063644
-0.090977788 0.081573337 0.64400005
-0.087728582 0.082639687 0.64116669
-0.084723815 0.084723815 0.64000005
-0.087706678 0.086888894 0.64400005
-0.082960479 0.089670002 0.64050007
-0.085253336 0.090160005 0.64400005
-0.082551219 0.09286043 0.64100009
-0.079847626 0.094476193 0.64000005
-0.081717722 0.098257713 0.64320004
-0.078430846 0.098115832 0.64087498
-0.076659337 0.10261933 0.64290011
-0.071967028 0.10367988 0.64037502
-0.075848892 0.10651557 0.64400005
-0.072190925 0.10752921 0.6412667
-0.071701609 0.112322 0.64176929
-0.068469845 0.11357461 0.64000005
-0.051222861 0.049371433 0.648
-0.047233533 0.048384767 0.64746672
-0.042312335 0.047572788 0.64784199
-0.03764572 0.049988579 0.648
-0.062742859 0.054925721 0.648
-0.051406484 0.053377908 0.64720005
-0.04796223 0.052802358 0.6462
-0.042508952 0.05298372 0.64690012
-0.038218569 0.053012144 0.64725006
-0.078628577 0.058971431 0.64500004
-0.071478099 0.05977048 0.64700001
-0.067455076 0.058595151 0.64763635
-0.062724292 0.057965785 0.64749998
-0.057921913 0.057920575 0.64700001
-0.053279527 0.056352861 0.64550006
-0.04155238 0.057569671 0.64676917
-0.038262859 0.058011428 0.648
-0.092536435 0.064775005 0.64775002
-0.087532625 0.064725004 0.64725
-0.081911705 0.062596604 0.64528579
-0.078628577 0.060814291 0.64500004
-0.071478099 0.061619051 0.64700001
-0.067728579 0.060955718 0.64649999
-0.040668577 0.061002862 0.64700001
-0.095214292 0.068185717 0.64500004
-0.09250325 0.066793151 0.64579999
-0.088457152 0.065728575 0.64500004
-0.11097636 0.077951908 0.64616668
-0.10792245 0.077276751 0.6454286
-0.095978104 0.079365715 0.64600003
-0.093985721 0.079242863 0.64500004
-0.11091429 0.080720961 0.64700001
-0.10828191 0.080596194 0.64600003
-0.10113334 0.082632393 0.64749998
-0.096725382 0.082819931 0.64763635
-0.092928313 0.082857676 0.64618182
-0.096274287 0.085782863 0.648
-0.091244496 0.086846128 0.64671433
-0.08737687 0.087993629 0.64610004
-0.086933702 0.092019409 0.64737499
-0.085617386 0.097323097 0.64674997
-0.084189765 0.097095475 0.64525008
-0.085782863 0.10182858 0.648
-0.082496122 0.10250422 0.64641666
-0.078833342 0.10340476 0.6450001
-0.08076255 0.10665651 0.64733338
-0.077911444 0.10763936 0.64583337
-0.05659334 0.049130481 0.65300006
-0.053483814 0.049130481 0.65300006
-0.040238097 0.048285715 0.65000004
-0.038587302 0.048492067 0.65000004
-0.066589914 0.053692002 0.65100002
-0.0620239 0.052718338 0.65125
-0.057015374 0.052293461 0.65213335
-0.053320717 0.052078817 0.65100002
-0.035923179 0.0526454 0.6503334
-0.034047622 0.053857148 0.65000004
-0.095566034 0.058666356 0.65300006
-0.09307842 0.057007939 0.65300006
-0.085822865 0.059080955 0.65300006
-0.082629532 0.059020638 0.65233338
-0.071694136 0.057850316 0.65083337
-0.068243816 0.056205176 0.65057153
-0.061904766 0.055714291 0.65000004
-0.057379842 0.055522066 0.65016675
-0.05402286 0.055264767 0.65200001
-0.035904765 0.05509524 0.65000004
-0.034047622 0.05509524 0.65000004
-0.095078573 0.063385248 0.65250003
-0.091956891 0.062262688 0.65200001
-0.087528393 0.062075187 0.65181249
-0.083273068 0.061325859 0.65042859
-0.072428577 0.061285719 0.65000004
-0.065000005 0.060047623 0.65000004
-0.097452253 0.087717287 0.65057153
-0.093714707 0.088051848 0.65042865
-0.096146487 0.090673715 0.65300006
-0.092703633 0.092330672 0.65240002
-0.088776194 0.093523823 0.6503334
-0.090176195 0.097017147 0.65300006
-0.087990627 0.09773729 0.65128577
-0.090798095 0.10012668 0.65300006
-0.087421916 0.10105811 0.65100002
-0.082333349 0.1077143 0.6500001
-0.06231783 0.048905309 0.65714294
-0.057836514 0.048057787 0.6553334
-0.054271434 0.048033338 0.65500003
-0.077080011 0.054520003 0.65800011
-0.072735652 0.053947359 0.65757149
-0.067382045 0.052348301 0.65771431
-0.06247858 0.050605718 0.65600002
-0.059261907 0.050528575 0.65500003
-0.091919772 0.057605948 0.65508342
-0.088007741 0.058046781 0.65537506
-0.082497865 0.057498336 0.65625
-0.07738702 0.05680104 0.65672731
-0.073083453 0.056529641 0.65587509
-0.096066669 0.06113334 0.65500003
-0.093363509 0.060925405 0.65500009
-0.096690476 0.093155563 0.65500003
-0.096213341 0.096838415 0.65600008
-0.092959613 0.097326443 0.65508342
-0.076402865 0.049882859 0.66300005
-0.072193339 0.049461909 0.66300005
-0.068015479 0.049121194 0.66125005
-0.064742863 0.048400003 0.66000003
-0.090925723 0.053671431 0.66300005
-0.08524286 0.054934289 0.66300005
-0.081836745 0.053566262 0.66171438
-0.077791363 0.052424774 0.66076928
-0.072695829 0.051924888 0.66087508
-0.068855003 0.051247858 0.66025007
-0.090158097 0.056112386 0.66200006
-0.086940169 0.056489058 0.6615001
-0.082702056 0.057020415 0.66000009
-0.078368574 0.043962859 0.66900003
-0.085757151 0.048913337 0.66700006
-0.082200013 0.048513658 0.66733336
-0.07722681 0.047185991 0.66700006
-0.072744697 0.047011033 0.66708338
-0.067616761 0.047316574 0.66600001
-0.06208929 0.047517862 0.66525006
-0.086896978 0.052414209 0.66600007
-0.083029248 0.051338006 0.66549999
-0.079166673 0.050033338 0.66500002
-0.072833337 0.050033338 0.66500002
-0.091200009 0.055100005 0.66500002
-0.088033341 0.055100005 0.66500008
-0.030169526 0.030169526 0.67400002
-0.041646909 0.03812167 0.67275
-0.037843335 0.038807146 0.6735
-0.034020953 0.039156195 0.67400002
-0.08235468 0.043674674 0.67240006
-0.077532597 0.042915665 0.67033333
-0.073042288 0.043032765 0.67040008
-0.067850798 0.044028573 0.67000002
-0.062811434 0.044225719 0.67299998
-0.059697147 0.044291433 0.67400002
-0.05199429 0.044291433 0.67400002
-0.047180004 0.043328576 0.67400002
-0.042335238 0.042334527 0.67349988
-0.037120599 0.042238336 0.67199999
-0.032983176 0.041815985 0.67322224
-0.08657144 0.04745334 0.67333335
-0.08302512 0.04655036 0.671875
-0.079821438 0.045976669 0.67050004
-0.072104767 0.045304764 0.67000002
-0.06743633 0.045900006 0.67071432
-0.06261418 0.046002507 0.67087501
-0.058169842 0.047263816 0.67366666
-0.052507814 0.04660229 0.67400002
-0.047714926 0.045575242 0.67400002
-0.041980576 0.045832004 0.67400002
-0.03687302 0.046246991 0.67133331
-0.03381905 0.046580955 0.67000002
-0.035514288 0.029057145 0.67800003
-0.036828004 0.032951053 0.67839998
-0.032343943 0.032342035 0.67646676
-0.028607145 0.032785717 0.67500001
-0.052329212 0.039407942 0.6783334
-0.047757499 0.038720116 0.677625
-0.041386671 0.035566669 0.67900002
-0.037182547 0.036856987 0.67700005
-0.032082036 0.037233151 0.67640001
-0.02897143 0.036697146 0.67600006
-0.071728095 0.042648099 0.67850006
-0.067263052 0.043507244 0.67780006
-0.062696517 0.043305397 0.67866671
-0.057349145 0.043042101 0.67660004
-0.052862413 0.042381018 0.67633349
-0.0477027 0.04212746 0.67533344
-0.088071436 0.046928573 0.67500001
-0.056957152 0.046157148 0.67500001
-0.052995145 0.047850575 0.67530012
-0.048214287 0.046928573 0.67500001
-0.040800001 0.034323812 0.68000001
-0.039504763 0.033028573 0.68000001
-0.076217145 0.039737146 0.68400002
-0.074804768 0.03967905 0.68300003
-0.060538575 0.03905667 0.68350005
-0.056952074 0.03875969 0.68211114
-0.052184902 0.037539184 0.6812858
-0.047415238 0.037022859 0.68200004
-0.076757148 0.040980004 0.68300003
-0.072640955 0.041507624 0.68100005
-0.067418419 0.0417035 0.68066669
-0.062367506 0.041576076 0.68212497
-0.058559369 0.041271754 0.68066669
-0.092024051 0.033507381 0.68650001
-0.088034816 0.03385831 0.68811119
-0.084525719 0.034071431 0.68800002
-0.091466673 0.035933334 0.68600005
-0.087746099 0.03659448 0.68860006
-0.080711432 0.03871524 0.68900001
-0.078120582 0.039125528 0.6870001
-0.071971431 0.03991143 0.68700004
-0.067187816 0.039421335 0.68760008
-0.06277182 0.038919624 0.68800002
-0.057640243 0.037006907 0.68774998
-0.054463815 0.036090478 0.68900001
-0.080711432 0.040683813 0.68900001
-0.079053335 0.041160002 0.68600005
-0.071866669 0.041160002 0.68600005
-0.067946672 0.041160002 0.68600005
-0.064962864 0.040027622 0.68900001
-0.091784768 0.024431748 0.69333339
-0.096058898 0.028290955 0.69083345
-0.09223333 0.027667388 0.69175005
-0.087493598 0.028364418 0.69263631
-0.095895052 0.03196438 0.69060004
-0.092394292 0.031148573 0.69000006
-0.087462708 0.031565554 0.69050002
-0.084894292 0.031588573 0.69100004
-0.062875718 0.034074448 0.69250005
-0.05803667 0.034954764 0.69250005
-0.050636671 0.034195714 0.69050002
-0.048681192 0.034208335 0.69075
-0.087425724 0.037994098 0.69020003
-0.08302287 0.037356712 0.69036371
-0.077027902 0.037337285 0.69128579
-0.072460324 0.037545085 0.69166678
-0.067232102 0.036910385 0.69209999
-0.062882066 0.037027784 0.69016671
-0.058485717 0.036142863 0.69000006
-0.05210381 0.035943337 0.69250005
-0.049357146 0.036195241 0.69100004
-0.086826675 0.04144064 0.69066668
-0.083266675 0.041568197 0.6906001
-0.046184529 0.028906431 0.69775003
-0.043360002 0.028407859 0.69775003
-0.07603167 0.03353405 0.69725001
-0.072193146 0.03337105 0.69800001
-0.067782149 0.033890717 0.69775003
-0.060820322 0.033394925 0.69666672
-0.056504767 0.033238102 0.69800007
-0.052597504 0.032354169 0.69687504
-0.047304884 0.032366313 0.69712502
-0.043811433 0.031862859 0.69700003
-0.076190799 0.035114609 0.69566673
-0.072287306 0.035148259 0.69633341
-0.068242863 0.035114609 0.69566673
-0.055096194 0.035181906 0.69700003
-0.053614289 0.035080954 0.69500005
-0.050883815 0.024772383 0.70300001
-0.048875242 0.024772383 0.70300001
-0.060926672 0.028120002 0.70300001
-0.057457622 0.028060004 0.70150006
-0.051866677 0.027669907 0.70180011
-0.048230674 0.027653906 0.70140004
-0.076777622 0.032046191 0.70100003
-0.072526313 0.031415597 0.70187497
-0.067197286 0.032020684 0.70257151
-0.062400009 0.031644128 0.70200008
-0.057775527 0.031221623 0.70050001
-0.052000005 0.030000001 0.70000005
-0.048666671 0.030666668 0.70000005
-0.068102859 0.028994288 0.708
-0.06315811 0.028544765 0.70800006
-0.071424291 0.03032143 0.70749998
-0.06735643 0.030310716 0.70725
-0.063293338 0.030300003 0.70700002
-0.072642393 0.028512541 0.7128334
-0.067351438 0.027542947 0.71172732
-0.063512623 0.02683167 0.71325004
-0.067604773 0.023900002 0.71700001
-0.062756911 0.023875002 0.71625006
-0.071666032 0.026619051 0.7166667
-0.068334773 0.025283337 0.71750003
-0.062395819 0.02553143 0.71680009
-0.059574291 0.026705716 0.71900004
-0.057840005 0.024100002 0.72300005
-0.071414292 0.02540667 0.72100008
-0.058960006 0.025924448 0.72266674
-0.054321907 0.026817145 0.72200006
-0.056619052 0.026238097 0.72500002
-0.054547623 0.02554762 0.72500002
