# .PCD v0.7 - Point Cloud Data file format
VERSION 0.7
FIELDS x y z
SIZE 4 4 4
TYPE F F F
COUNT 1 1 1
WIDTH 734
HEIGHT 1
VIEWPOINT 0 0 0 1 0 0 0
POINTS 734
DATA ascii
0.032592621 0.10381406 0.63374996
0.032789525 0.10802446 0.63366669
0.032999527 0.11167572 0.63383341
0.029211432 0.099197149 0.63900006
0.031037144 0.099197149 0.63900006
0.024342861 0.10284858 0.63900006
0.028020447 0.10230756 0.63866669
0.031590357 0.10251322 0.63787508
0.023920875 0.10713978 0.63858336
0.027912337 0.1074034 0.63715011
0.031811006 0.1075399 0.63555562
0.028500481 0.1121822 0.63670009
0.031931549 0.11335346 0.63562506
0.028805716 0.11623715 0.63900006
0.032773335 0.11748829 0.63728583
0.023870479 0.088747941 0.6426667
0.025094606 0.088747941 0.6426667
0.022947384 0.092918187 0.64258337
0.025732793 0.092724904 0.64114285
0.018637551 0.097739056 0.64314294
0.022024063 0.097521804 0.64147365
0.026545001 0.097535789 0.64074993
0.018162753 0.10279366 0.6428889
0.021784833 0.10221817 0.64050001
0.027428573 0.10057144 0.64000005
0.021333335 0.10605715 0.64000005
0.029257145 0.11885715 0.64000005
0.029348575 0.12045144 0.64200002
0.031085717 0.1200762 0.64000005
0.022199525 0.08448334 0.64750004
0.017422859 0.088239305 0.64709091
0.021543652 0.087407313 0.64633334
0.012960001 0.093188576 0.64799994
0.017236726 0.092347816 0.64643753
0.020901751 0.091598898 0.64550006
0.012460445 0.097345017 0.64773327
0.016500693 0.097165458 0.64609092
0.013412144 0.10190453 0.64749998
0.015900683 0.10199701 0.64571428
0.014194286 0.10553144 0.648
0.016020954 0.10598477 0.64700001
0.024068573 0.11664001 0.648
0.026228573 0.11725716 0.648
0.0093285721 0.083957151 0.65300006
0.012438096 0.083335243 0.65300006
0.017642954 0.083617628 0.65230006
0.020460002 0.084319055 0.65100002
0.0087048821 0.087049648 0.65287501
0.012408762 0.08748468 0.65150005
0.016735513 0.085983135 0.65085721
-0.0012431747 0.092615873 0.65266675
0.002482937 0.093130082 0.65191662
0.0075789848 0.092154615 0.65233344
0.011351906 0.091848731 0.65016675
-0.0012419048 0.095005721 0.65200001
0.0023575239 0.095910296 0.65140003
0.0086168265 0.096716739 0.65144444
0.01052381 0.09966667 0.65000004
0.0093142865 0.10121524 0.65200001
0.011306191 0.10330644 0.65050006
0.012399049 0.10602 0.65100002
0.012909335 0.074072003 0.65800005
0.0043866672 0.07958667 0.65800005
0.0075165881 0.078303263 0.65775001
0.012479268 0.078103304 0.65769237
0.016287383 0.078929767 0.65775001
0.0035483602 0.082872376 0.65755558
0.0073726987 0.082359619 0.65613335
0.012485715 0.081156678 0.65550005
0.016864605 0.081197634 0.65583342
-0.0006266667 0.088360012 0.65800005
0.0026260957 0.087706991 0.65686673
0.0062413104 0.087382987 0.65537506
-0.0006266667 0.09086667 0.65800005
0.0024961908 0.090960644 0.65566671
0.0056142863 0.092323817 0.65500003
0.0031285714 0.097611435 0.65700001
0.0062476196 0.097462863 0.65600002
0.0090409527 0.073382549 0.66233337
0.011008096 0.07328476 0.66050005
-0.00063142867 0.077665716 0.66300005
0.002519184 0.077857152 0.6615715
0.0075566676 0.075570241 0.66125
0.012780953 0.076057151 0.66000003
0.016133334 0.076895244 0.66000003
-0.00063047622 0.081961907 0.66200006
0.0011007143 0.082435958 0.66075003
-0.00062952389 0.086662553 0.66100007
0.00062857149 0.086114295 0.66000003
-0.0014866668 0.06859906 0.66900009
0.0023347095 0.068575993 0.66877788
0.0061590485 0.069023818 0.66900003
-0.0057342863 0.074545719 0.66900003
-0.0022719733 0.072478652 0.66757143
0.0025404163 0.072409593 0.66693747
0.0070942072 0.072212793 0.66708338
-0.0072991215 0.077841841 0.66869241
-0.0029793412 0.077288806 0.66646159
0.0025342857 0.075423338 0.66549999
-0.0059695244 0.08217448 0.66680002
-0.0031729368 0.082467228 0.66608334
-0.005708572 0.085628577 0.66600001
-0.0028528573 0.085880958 0.66550004
-0.0057771434 0.064832382 0.67400002
-0.0019229437 0.063194118 0.67272729
0.0013704763 0.063344628 0.67185718
-0.0069183819 0.068274006 0.67250007
-0.0031940953 0.067059427 0.67060006
0.0028269391 0.066298783 0.67028582
0.0057428577 0.066361904 0.67000002
-0.0075288657 0.072556414 0.67146152
-0.0044666668 0.072742864 0.67000002
-0.01084762 0.075933337 0.67000002
-0.0089333337 0.075933337 0.67000002
-0.0038800002 0.058846671 0.67900002
-0.0075358734 0.062472776 0.67813343
-0.0037034531 0.061354645 0.67637503
-0.01141635 0.067203343 0.67850006
-0.0089239469 0.066509798 0.67614293
-0.011419049 0.072821587 0.67866671
-0.0096714292 0.072210483 0.67700005
-0.011622857 0.075548574 0.67800003
-0.0096571436 0.07532572 0.67600006
-0.0078150006 0.054048814 0.68375003
-0.0045533339 0.053989526 0.68300003
-0.012671283 0.057643447 0.68361545
-0.0077985129 0.057182685 0.68231243
-0.0045444453 0.056479052 0.68166673
-0.017212927 0.063361235 0.6838572
-0.012987442 0.062325183 0.68168753
-0.0090666674 0.060228575 0.68000001
-0.020194286 0.065794289 0.68400002
-0.017137991 0.067465611 0.68333334
-0.013907335 0.067580484 0.68230003
-0.016611431 0.071982861 0.68400002
-0.013915715 0.072562963 0.68270004
-0.015092382 0.054463815 0.68900001
-0.012452926 0.053458646 0.68814296
-0.020341907 0.059713338 0.68900001
-0.017014526 0.057583094 0.68708336
-0.013720001 0.055533338 0.68600005
-0.021698494 0.062911518 0.68691671
-0.018168194 0.061561715 0.68620008
-0.021560002 0.065986671 0.68600005
-0.018946668 0.069906674 0.68600005
-0.01568 0.075786673 0.68600005
-0.013720001 0.076440006 0.68600005
-0.01650778 0.047542226 0.69333333
-0.013870001 0.048874766 0.69350004
-0.016810954 0.052734606 0.69216675
-0.013840001 0.051404767 0.69200003
-0.025777144 0.056180958 0.69400001
-0.022369746 0.058178253 0.6923846
-0.019112382 0.056677148 0.69200003
-0.023657145 0.061114289 0.69000006
-0.022237621 0.044143338 0.69700003
-0.019250477 0.044475242 0.69700003
-0.022076413 0.047872014 0.69592315
-0.01920905 0.04769 0.69550002
-0.022504764 0.052952386 0.69499999
-0.01919524 0.052290481 0.69500005
-0.025888573 0.057751432 0.69700003
-0.023828574 0.056261908 0.69500005
-0.028343176 0.039055564 0.70300001
-0.027078571 0.042119049 0.70200008
-0.024701906 0.043395244 0.70100009
-0.031588256 0.041667938 0.70566672
-0.053708576 0.024100002 0.72300005
-0.11086001 0.026854288 0.72300005
-0.10948286 0.025477145 0.72300005
-0.05577429 0.025477145 0.72300005
-0.052184448 0.027400192 0.72286671
-0.048279054 0.027827352 0.72271436
-0.051627412 0.032352701 0.72277784
-0.048510481 0.031995717 0.72250009
-0.052667025 0.036316074 0.72287506
-0.048820954 0.035068575 0.72200006
-0.11594572 0.014580001 0.72900003
-0.11455715 0.01319143 0.72900003
-0.061097145 0.014580001 0.72900003
-0.057331819 0.012771048 0.72880006
-0.054211024 0.012783811 0.72842866
-0.11656049 0.017345238 0.72850007
-0.11257933 0.017217407 0.72845459
-0.10777607 0.018111024 0.72742867
-0.10414286 0.018745715 0.72900003
-0.060402863 0.015968572 0.72900003
-0.057598736 0.015961271 0.72866672
-0.11658037 0.022206074 0.72862506
-0.11279454 0.022142304 0.72658324
-0.10781638 0.022115421 0.7256875
-0.10246232 0.022152323 0.72693747
-0.097568236 0.022640955 0.72845459
-0.092700288 0.023695376 0.72871435
-0.087195255 0.023359472 0.72855562
-0.083545715 0.023837145 0.72900003
-0.077065721 0.024300002 0.72900003
-0.072073653 0.023355978 0.72844452
-0.068039998 0.024300002 0.72900003
-0.060402863 0.024300002 0.72900003
-0.059014291 0.024300002 0.72900003
-0.12011144 0.029854288 0.72900003
-0.11676916 0.027980004 0.72720009
-0.11300794 0.027849207 0.72499996
-0.10759563 0.02776248 0.72513342
-0.10226084 0.027638927 0.72549999
-0.097468898 0.027651109 0.7258333
-0.092651427 0.02765714 0.72599989
-0.08715 0.02766595 0.72624993
-0.082430005 0.027706351 0.72733331
-0.077666916 0.027737742 0.72812498
-0.072237797 0.027778225 0.72793335
-0.067672469 0.027309356 0.72845453
-0.061918098 0.027373334 0.72866672
-0.057500608 0.027839657 0.72581816
-0.054547623 0.029690478 0.72500002
-0.12011144 0.031242859 0.72900003
-0.11650714 0.032595083 0.72816676
-0.11273842 0.032507937 0.72622222
-0.10781303 0.032482699 0.72566664
-0.10233143 0.032497142 0.72599995
-0.097461797 0.032487195 0.72577775
-0.092651442 0.032497142 0.72599995
-0.087120011 0.032497142 0.72599995
-0.082366675 0.03253217 0.72677779
-0.078144103 0.032479525 0.7287001
-0.072205722 0.031590004 0.72900003
-0.068734288 0.031937145 0.72900003
-0.060347628 0.032600954 0.72833341
-0.057380848 0.032491747 0.72588885
-0.054547623 0.032452382 0.72500008
-0.11660025 0.036090717 0.72875005
-0.11272048 0.036743335 0.72789997
-0.10764048 0.037265509 0.72649997
-0.10233971 0.03734066 0.72606242
-0.097453117 0.037352599 0.72730774
-0.092493765 0.036428578 0.72777784
-0.08724001 0.036004767 0.72700006
-0.083468899 0.035838418 0.72833335
-0.057362862 0.035937782 0.7256667
-0.054547623 0.035214286 0.72500002
-0.10751652 0.040925398 0.72833341
-0.10271882 0.040948812 0.72875005
-0.12717745 -0.0027956469 0.7337144
-0.12290597 -0.0017469052 0.73325002
-0.1188381 -0.00069904764 0.73400003
-0.13072191 0.0034952383 0.73400009
-0.12778178 0.0027931752 0.73316669
-0.12269714 0.0027885716 0.73200011
-0.11745029 0.0029324447 0.73320013
-0.11254668 0.0041942857 0.73400009
-0.10928445 0.0044273017 0.73400009
-0.13072191 0.0069904765 0.73400003
-0.12757716 0.007668572 0.73199999
-0.12269716 0.0076685715 0.73200005
-0.11714619 0.0076699997 0.73216671
-0.11234224 0.0076742866 0.73266679
-0.1075789 0.0076836511 0.73350012
-0.10373763 0.0076842858 0.7335
-0.12660594 0.012032805 0.73355561
-0.12226637 0.012393554 0.73230785
-0.11785612 0.012348399 0.73145455
-0.11266407 0.012486922 0.7311334
-0.10743214 0.012557382 0.73250014
-0.1032843 0.012932382 0.73400009
-0.098166265 0.014080818 0.73400009
-0.092274301 0.013980954 0.73400009
-0.087643281 0.01405796 0.73285729
-0.082335249 0.013734605 0.73333341
-0.077594295 0.013980954 0.73400009
-0.12103763 0.017090954 0.73250002
-0.11915716 0.017421272 0.73166674
-0.10685354 0.01629962 0.73140001
-0.10234001 0.017259289 0.73225003
-0.097588174 0.017425798 0.73191679
-0.092677787 0.017420003 0.73166668
-0.087760001 0.017412066 0.73133337
-0.082243666 0.017424447 0.7318334
-0.07740593 0.017433442 0.73222226
-0.072919808 0.017740766 0.73340005
-0.06731429 0.017316192 0.73320001
-0.062992662 0.017613608 0.73142856
-0.12168381 0.022568043 0.73288894
-0.11917073 0.022301193 0.73175001
-0.09677048 0.02053762 0.73100001
-0.092593342 0.020885717 0.73100007
-0.08801838 0.020786261 0.73100007
-0.081792615 0.021907477 0.73115391
-0.077300422 0.021588042 0.73122227
-0.072531573 0.020794151 0.73128575
-0.06740991 0.021865906 0.73119998
-0.062980823 0.022286806 0.73128575
-0.059176195 0.022974288 0.73100001
-0.12225167 0.027747065 0.7314167
-0.11904858 0.026455238 0.73100001
-0.066834286 0.029936193 0.73100001
-0.06336572 0.028350752 0.73114288
-0.12285732 0.032884158 0.7318182
-0.11904858 0.032720953 0.73100007
-0.075884767 0.033417143 0.73100001
-0.072403818 0.033243097 0.73100001
-0.067158513 0.03293293 0.73128575
-0.063430585 0.032760955 0.73188889
-0.1224682 0.03747962 0.73146671
-0.11802465 0.038297266 0.731125
-0.11278287 0.039682861 0.73100001
-0.095378101 0.038986668 0.73100001
-0.092656203 0.039361909 0.73150003
-0.088496201 0.038325399 0.73166674
-0.081220008 0.036361337 0.73140001
-0.077704385 0.036132954 0.73240006
-0.072502866 0.03555429 0.73200005
-0.12093525 0.041243814 0.73400003
-0.11695875 0.042087197 0.73244447
-0.11224057 0.042128168 0.73200011
-0.10732357 0.043208811 0.73175001
-0.10245603 0.043213814 0.7318334
-0.098539293 0.042381905 0.73250008
-0.094371438 0.041243814 0.73400003
-0.10345906 0.0454381 0.73400003
-0.13090858 -0.011260953 0.73900002
-0.12788211 -0.010832953 0.73860008
-0.12363588 -0.011026351 0.73900002
-0.071788579 -0.011964763 0.73900002
-0.067706488 -0.01168324 0.73900002
-0.064046673 -0.011964763 0.73900002
-0.13294086 -0.0077376729 0.73855555
-0.12771733 -0.0077201594 0.73683333
-0.12271811 -0.0075918096 0.73799998
-0.11894382 -0.0063342862 0.73900002
-0.06668596 -0.0079178577 0.73899996
-0.063342862 -0.007038096 0.73900002
-0.13245241 -0.0030912382 0.7374
-0.12967619 -0.0049066669 0.73600006
-0.12153512 -0.0041081635 0.73642862
-0.1173081 -0.0029257145 0.73683345
-0.11257365 -0.0022274605 0.73800004
-0.10774953 -0.001934762 0.73825002
-0.10289697 -0.00098533335 0.73900002
-0.066158101 -0.0042228573 0.73900002
-0.064046673 -0.0042228573 0.73900002
-0.13107811 0.00070095243 0.73600006
-0.11565715 0.00070095243 0.73600006
-0.11215239 0.0014019049 0.73600006
-0.10718435 0.0026134201 0.73645467
-0.10251215 0.0028072619 0.73725015
-0.097160593 0.002951429 0.73820019
-0.092400149 0.0039212247 0.73900002
-0.10153119 0.0077159521 0.73650002
-0.097622752 0.0077260318 0.73744446
-0.09273462 0.0077269855 0.73766673
-0.087646298 0.0088630486 0.73860008
-0.082345724 0.0091495244 0.73900002
-0.077419057 0.0091495244 0.73900002
-0.068269528 0.0091495244 0.73900002
-0.13125619 0.012634287 0.73700005
-0.12874161 0.013785399 0.73600006
-0.10142715 0.011684921 0.73616672
-0.097420141 0.011537416 0.73742861
-0.092871115 0.011462434 0.73688895
-0.087678574 0.011222383 0.73650002
-0.082876734 0.011123266 0.73657149
-0.076746866 0.011784953 0.73660004
-0.072377786 0.012646191 0.73783344
-0.067847192 0.012791797 0.73676932
-0.063873336 0.014740001 0.73700005
-0.12774733 0.017548097 0.73700011
-0.12350781 0.017804191 0.73600006
-0.071497142 0.016121905 0.73600006
-0.066590481 0.01752381 0.73600006
-0.12676555 0.02217943 0.73699999
-0.12406858 0.021729525 0.73600006
-0.12547049 0.02593524 0.73600006
-0.090422861 0.03995429 0.73600006
-0.086334288 0.038604766 0.73700005
-0.082195878 0.038639687 0.73766673
-0.075702861 0.03715048 0.73600006
-0.12225579 0.043025587 0.73714292
-0.11776 0.044160005 0.73600006
-0.11285334 0.044160005 0.73600006
-0.096446194 0.043138098 0.73650002
-0.088440008 0.040008575 0.73700005
-0.13267432 -0.012704382 0.741
-0.12732391 -0.013708859 0.74189997
-0.12226192 -0.012708 0.74120003
-0.11805852 -0.011614423 0.74228585
-0.076388896 -0.012024445 0.74266672
-0.072271869 -0.012914981 0.7420001
-0.068431191 -0.013053097 0.74075001
-0.1205143 -0.0084571429 0.74000001
-0.1174362 -0.0077671953 0.74133337
-0.11251144 -0.0063685719 0.74300003
-0.10744882 -0.006362143 0.74225008
-0.10260477 -0.0063685719 0.74300003
-0.075715244 -0.0077838106 0.74300003
-0.07271143 -0.0077641276 0.7412222
-0.069419056 -0.0074000005 0.74000001
-0.1124862 -0.0045842859 0.74050003
-0.1064596 -0.0041297963 0.74028575
-0.10216894 -0.0037070243 0.74112505
-0.097702183 -0.0025251703 0.74185723
-0.09267699 -0.0014150795 0.74283338
-0.075715244 -0.0035380959 0.74300003
-0.073138766 -0.0031117145 0.74270004
-0.069427311 -0.0044711116 0.74133337
-0.095142864 0.00070476194 0.74000001
-0.09204191 0.0012685716 0.74000001
-0.088033348 0.0030986813 0.74223083
-0.08344239 0.00495 0.74250007
-0.076397389 0.0042440477 0.74275005
-0.073434696 0.0031304762 0.74242866
-0.087222323 0.0069572795 0.74114293
-0.082530797 0.0070533343 0.74066675
-0.077746794 0.0070672617 0.74212503
-0.072732382 0.0077660326 0.74144447
-0.069960006 0.0077733337 0.74200004
-0.08550667 0.038866669 0.74200004
-0.071941279 0.037975561 0.74300003
-0.068639055 0.037503816 0.74300003
-0.073682383 -0.02171286 0.74750006
-0.13237071 -0.016368335 0.74725002
-0.12740192 -0.016370161 0.74733341
-0.12466668 -0.016384764 0.74800003
-0.076190799 -0.017802224 0.74766672
-0.072566681 -0.017785558 0.7470001
-0.068402484 -0.017490858 0.74660009
-0.14584288 -0.013517144 0.7470001
-0.14033906 -0.013535239 0.74800003
-0.13736941 -0.013151785 0.74637502
-0.13410001 -0.014900001 0.74500006
-0.12132858 -0.014900001 0.74500006
-0.11779103 -0.013493607 0.74571431
-0.11248001 -0.010678573 0.74750006
-0.10400762 -0.010685715 0.74800003
-0.080391437 -0.010671429 0.74700004
-0.077443816 -0.012785715 0.74600005
-0.074500002 -0.014900001 0.74500006
-0.067585722 -0.014940001 0.74700004
-0.11565239 -0.008514287 0.74500006
-0.11258084 -0.008629798 0.74614298
-0.10776899 -0.0084318379 0.7465716
-0.102147 -0.0082961908 0.74655563
-0.097422227 -0.0078241276 0.74666673
-0.092279494 -0.0076966239 0.74690914
-0.089047626 -0.006411429 0.74800003
-0.082061552 -0.0072979769 0.74762511
-0.07808286 -0.0078088897 0.74533337
-0.096495241 -0.0049666669 0.74500006
-0.091885336 -0.0036931434 0.74560004
-0.087677322 -0.0027838096 0.74736375
-0.082457721 -0.0028009526 0.74766678
-0.07795123 -0.0026062434 0.74633342
-0.086325407 0.0016555557 0.74500006
-0.082234763 0.0025377551 0.74621427
-0.077798106 0.0021309524 0.74600005
-0.074500002 0.00070952385 0.74500006
-0.12894095 0.034194291 0.74800003
-0.13745239 -0.031793337 0.75300002
-0.13761176 -0.026056195 0.75300008
-0.13338858 -0.025817145 0.75300002
-0.08175429 -0.025100002 0.75300002
-0.077700555 -0.025695104 0.75242859
-0.073571436 -0.025000002 0.75000006
-0.14271145 -0.020797145 0.75300002
-0.13808516 -0.022082476 0.75280011
-0.13362764 -0.021275241 0.75300002
-0.081395715 -0.02259 0.75300002
-0.077471174 -0.022310477 0.75127274
-0.14608395 -0.017505717 0.75242865
-0.14248021 -0.017899895 0.75177777
-0.13757057 -0.018018702 0.75127274
-0.1325243 -0.018625241 0.75216669
-0.12753634 -0.018512381 0.75171435
-0.12214736 -0.017480411 0.75128579
-0.11745525 -0.015756192 0.75200003
-0.11283787 -0.015403572 0.75225002
-0.10819207 -0.015046667 0.75233334
-0.081893213 -0.017382503 0.75262511
-0.078677148 -0.017880954 0.75100005
-0.14538668 -0.012891429 0.75200003
-0.14298478 -0.013582858 0.75066674
-0.13785715 -0.015000001 0.75000006
-0.11557843 -0.013107303 0.75066674
-0.11229239 -0.012875239 0.75100011
-0.10757109 -0.012300953 0.75163645
-0.10239634 -0.012174559 0.75185716
-0.09684822 -0.011637262 0.75187504
-0.092347629 -0.012171747 0.75166672
-0.087374054 -0.011459525 0.75199997
-0.082526788 -0.012353929 0.75187504
-0.079087146 -0.013954286 0.75150001
-0.095000006 -0.0092857145 0.75000006
-0.087165907 -0.0081453342 0.75020003
-0.082857147 -0.0092857145 0.75000006
-0.085714296 -0.0035714288 0.75000006
-0.13123715 0.02940286 0.75300002
-0.12980287 0.02940286 0.75300002
-0.12880954 0.031190481 0.75000012
-0.14154764 -0.036288574 0.75700009
-0.13806033 -0.036256827 0.75633335
-0.13499621 -0.035373334 0.75800002
-0.15170668 -0.031494606 0.7573334
-0.14683543 -0.032196958 0.75800002
-0.14227889 -0.032249786 0.75554556
-0.13712841 -0.032604285 0.75516677
-0.13343409 -0.032457992 0.75733328
-0.1516 -0.025988573 0.75800002
-0.14775343 -0.027216624 0.75745457
-0.14273416 -0.027539866 0.75528586
-0.1373381 -0.028905718 0.75500005
-0.1318543 -0.027809685 0.75516677
-0.12758537 -0.027167879 0.75609094
-0.12373449 -0.025844192 0.75800002
-0.11767048 -0.028154289 0.75800008
-0.11045144 -0.025266668 0.75800002
-0.10756382 -0.025266668 0.75800008
-0.10395429 -0.025266668 0.75800002
-0.1508781 -0.023100954 0.75800002
-0.14747003 -0.022508336 0.75625002
-0.14309049 -0.023009527 0.75500005
-0.13590001 -0.023009526 0.75500005
-0.13176467 -0.02261355 0.75511116
-0.12738359 -0.022310585 0.75566673
-0.12250794 -0.022340953 0.75666678
-0.11749758 -0.022347515 0.75688887
-0.11241905 -0.022340953 0.75666678
-0.1073746 -0.022340953 0.75666666
-0.10271678 -0.022072954 0.75739998
-0.098179057 -0.020935239 0.75800002
-0.086210951 -0.022724288 0.75750005
-0.083575621 -0.022008382 0.75520009
-0.14904001 -0.018720001 0.75600004
-0.12727144 -0.019414287 0.75500005
-0.12187858 -0.019054763 0.75500005
-0.11710238 -0.018168572 0.75550008
-0.11204295 -0.018118443 0.7554546
-0.10709343 -0.017705623 0.75570005
-0.10228954 -0.017289883 0.75637519
-0.097448148 -0.017105976 0.75690913
-0.093027048 -0.016731812 0.75719994
-0.087298259 -0.016931906 0.75650012
-0.083769053 -0.016897619 0.75500005
-0.10138572 -0.013661906 0.75500005
-0.098869048 -0.013302382 0.75500005
-0.087723814 -0.013661906 0.75500005
-0.15121315 -0.036750671 0.76260006
-0.14719458 -0.037308287 0.76210004
-0.14332414 -0.038913973 0.76133341
-0.1371996 -0.038752172 0.76133335
-0.13335572 -0.03623905 0.76100004
-0.15092573 -0.033566352 0.76066673
-0.14879167 -0.032944527 0.76025003
-0.13092732 -0.032188259 0.76233339
-0.1279705 -0.031520959 0.76260006
-0.12280668 -0.03124667 0.76300001
-0.11756572 -0.031205716 0.76200002
-0.15215024 -0.028981192 0.76075006
-0.14982858 -0.029676192 0.76000005
-0.12575653 -0.029206669 0.76033342
-0.12209133 -0.028088996 0.76055562
-0.11710221 -0.027340736 0.76007706
-0.11241569 -0.027727017 0.76063645
-0.10774636 -0.027541906 0.76100004
-0.10233811 -0.026808333 0.76075011
-0.097529002 -0.026379578 0.76233339
-0.092286676 -0.025433335 0.76300001
-0.088304766 -0.025333336 0.76000005
-0.10133334 -0.023885716 0.76000005
-0.097297624 -0.023012144 0.76100004
-0.092836 -0.022181803 0.76222229
-0.088519432 -0.022165526 0.76060009
-0.096266672 -0.019542858 0.76000005
-0.091682293 -0.018974096 0.76040006
-0.089028575 -0.019542858 0.76000005
-0.15565906 -0.041655876 0.76733339
-0.15280309 -0.041442383 0.76674998
-0.14781323 -0.041414287 0.76671433
-0.14238223 -0.041619051 0.76666677
-0.13668907 -0.04093381 0.76750004
-0.13385144 -0.040228575 0.76800001
-0.082651436 -0.043154288 0.76800001
-0.15081429 -0.038614288 0.76500005
-0.1323743 -0.037449386 0.76671433
-0.12832358 -0.036194049 0.76775002
-0.12214857 -0.035840001 0.76800001
-0.11849144 -0.035840001 0.76800001
-0.13131334 -0.034287624 0.76600003
-0.12696335 -0.033809371 0.76616669
-0.12224682 -0.03345497 0.76600003
-0.11752906 -0.033580795 0.76650012
-0.11354478 -0.032003809 0.76720011
-0.11030191 -0.029949525 0.76700002
-0.10710001 -0.028414287 0.76500005
-0.10153429 -0.029463813 0.76700008
-0.097194612 -0.029232383 0.76733339
-0.092684098 -0.027421225 0.76628572
-0.089790009 -0.02774143 0.7665
-0.092528574 -0.023314286 0.76500005
-0.1553362 -0.050797146 0.77300006
-0.092760004 -0.050797146 0.77300006
-0.087606676 -0.050797146 0.77300006
-0.16101715 -0.046320003 0.77200001
-0.15759785 -0.047941908 0.77227283
-0.15240876 -0.04762077 0.77160007
-0.14828478 -0.047607765 0.77242869
-0.14277406 -0.046365 0.77275002
-0.08834286 -0.047852382 0.77300006
-0.083189532 -0.046380002 0.77300006
-0.16101715 -0.044849526 0.77200001
-0.15797476 -0.044452861 0.77150005
-0.15204448 -0.04424445 0.7700001
-0.14740001 -0.044146676 0.77000004
-0.14214392 -0.043793865 0.77066666
-0.13723822 -0.043542497 0.77162498
-0.13246544 -0.042496778 0.77238476
-0.12736097 -0.040490478 0.77300012
-0.1244162 -0.040490478 0.77300006
-0.11926287 -0.040490478 0.77300006
-0.11337334 -0.040490478 0.77300006
-0.090799056 -0.042530477 0.77260005
-0.087493345 -0.042643808 0.77200001
-0.083766811 -0.042461772 0.77057153
-0.13126667 -0.038866669 0.77000004
-0.12721476 -0.038000003 0.77099997
-0.12278382 -0.038233019 0.77200007
-0.11720677 -0.037748478 0.77109998
-0.11244223 -0.037482012 0.77166665
-0.10822001 -0.036914695 0.77300012
-0.096440956 -0.036809526 0.77300006
-0.092641667 -0.036946427 0.77200007
-0.087493345 -0.038967621 0.77200001
-0.0836 -0.038866669 0.77000004
-0.11513334 -0.034466669 0.77000004
-0.11180699 -0.033518098 0.77066672
-0.10746344 -0.032490857 0.7718001
-0.10258608 -0.032549005 0.77190912
-0.097730584 -0.033068363 0.77155566
-0.092611447 -0.032241397 0.7705335
-0.15171564 -0.056207813 0.77860004
-0.14791429 -0.055978097 0.77850002
-0.16016668 -0.050928574 0.77500004
-0.15694574 -0.052564442 0.77733344
-0.15251186 -0.052481163 0.77611113
-0.1476924 -0.052370302 0.77645463
-0.14269409 -0.05245154 0.77811122
-0.13726072 -0.052053094 0.778
-0.13391382 -0.05230429 0.77900004
-0.091176197 -0.052631434 0.77833337
-0.08903867 -0.052892383 0.77780002
-0.16206001 -0.048100002 0.77700001
-0.14614287 -0.048714288 0.77500004
-0.14251302 -0.048735559 0.7753334
-0.13755032 -0.048069682 0.77650011
-0.13235681 -0.047575504 0.7771818
-0.12780464 -0.047009457 0.77776933
-0.12241429 -0.045998096 0.77900004
-0.095460013 -0.046620004 0.77700007
-0.092461742 -0.04747178 0.77554548
-0.087833337 -0.047730163 0.77500004
-0.084880956 -0.046500005 0.77500004
-0.12769049 -0.042809527 0.77500004
-0.12264953 -0.042411242 0.77580005
-0.11739929 -0.042339288 0.77649999
-0.11275607 -0.042377554 0.77671438
-0.10776069 -0.041350346 0.77728575
-0.10234928 -0.041533578 0.77875006
-0.096818335 -0.0420231 0.77750003
-0.093243629 -0.042113338 0.77579999
-0.10672858 -0.038528573 0.77500004
-0.10277133 -0.037708465 0.77633339
-0.098294288 -0.038061429 0.77600002
-0.09300001 -0.03911905 0.77500004
-0.15605335 -0.060480002 0.78400004
-0.15306668 -0.060480006 0.7840001
-0.14776193 -0.0606861 0.78280002
-0.14336 -0.060480002 0.78400004
-0.15704791 -0.056964085 0.78257155
-0.15275572 -0.058351908 0.78050005
-0.14721017 -0.058240645 0.78066671
-0.14272363 -0.057187017 0.78163642
-0.13799375 -0.05692327 0.78200001
-0.13405526 -0.055857148 0.78200006
-0.091264129 -0.056947943 0.78333342
-0.088400006 -0.055714291 0.78000009
-0.14188573 -0.054228574 0.78000003
-0.13817143 -0.054228574 0.78000003
-0.13170984 -0.052586034 0.78133339
-0.12757017 -0.051476195 0.78333342
-0.12270223 -0.051022228 0.7840001
-0.086914293 -0.054228574 0.78000003
-0.12614542 -0.049318731 0.78066671
-0.12236926 -0.049012523 0.78142864
-0.11788721 -0.046477251 0.78288895
-0.11274668 -0.045546673 0.7840001
-0.10528 -0.04554667 0.78400004
-0.10194325 -0.046120763 0.78360003
-0.097959243 -0.04652686 0.78039998
-0.11142857 -0.043828573 0.78000003
-0.10745287 -0.044025239 0.78350008
-0.10194667 -0.043903492 0.78133339
-0.098800004 -0.043828573 0.78000003
-0.16606572 -0.066125721 0.78900003
-0.16280931 -0.066773549 0.78777778
-0.1577494 -0.066078097 0.78714293
-0.1530145 -0.06549219 0.78680009
-0.16266668 -0.062476911 0.78800011
-0.1583381 -0.062397148 0.78700006
-0.15270859 -0.062880002 0.78600001
-0.14821716 -0.062880002 0.78600001
-0.14090954 -0.060711432 0.78700006
-0.1388381 -0.060788576 0.78800005
-0.16169144 -0.058388576 0.78600001
-0.15869716 -0.059137147 0.78600001
-0.13674358 -0.05881929 0.78675002
-0.1327305 -0.058011193 0.78850007
-0.12795798 -0.057342965 0.78877783
-0.12245668 -0.057096671 0.78883338
-0.11932572 -0.056285717 0.78800005
-0.13174859 -0.054645717 0.78600001
-0.12746 -0.053984053 0.78725004
-0.12202358 -0.053421672 0.78725004
-0.11774874 -0.052500959 0.78750008
-0.11259898 -0.052546605 0.7881875
-0.10722731 -0.050988581 0.78733343
-0.10343429 -0.050968572 0.78700006
-0.11677715 -0.048657145 0.78600001
-0.11206732 -0.047672808 0.78622234
-0.10730143 -0.047378097 0.7865001
-0.10292858 -0.048282862 0.78600001
-0.099560007 -0.048657145 0.78600001
-0.1662143 -0.062188573 0.79150003
-0.13727906 -0.061097145 0.79200006
-0.16539715 -0.059663814 0.79300004
-0.12430001 -0.059513338 0.79100001
