# .PCD v0.7 - Point Cloud Data file format
VERSION 0.7
FIELDS x y z
SIZE 4 4 4
TYPE F F F
COUNT 1 1 1
WIDTH 629
HEIGHT 1
VIEWPOINT 0 0 0 1 0 0 0
POINTS 629
DATA ascii
0.0045600003 0.016937144 0.68400002
0.0066369525 0.017307431 0.68320006
0.01889143 0.017588573 0.68400002
0.022148572 0.018240001 0.68400002
0.026898732 0.018439051 0.6833334
0.031268574 0.01889143 0.68400002
0.01889143 0.021497145 0.68400002
0.022930287 0.021757718 0.68400002
0.027216194 0.022007685 0.68366671
0.031884842 0.022125637 0.68325007
0.024102859 0.026708573 0.68400002
0.026440194 0.025919432 0.68380004
0.033222858 0.026057145 0.68400002
-0.0019685715 0.019029524 0.68900001
0.002452381 0.017508335 0.68725002
0.0058800005 0.018946668 0.68600005
0.017656511 0.01896508 0.68666673
0.0039257146 0.020282859 0.68700004
0.0058800005 0.020253334 0.68600005
0.01657729 0.022423007 0.68784618
0.020911589 0.022872543 0.6861667
0.029400002 0.024173334 0.68600005
0.034677144 0.023554288 0.68700004
0.035985716 0.023554288 0.68700004
0.018744955 0.027134288 0.6882
0.022482619 0.027178017 0.68758345
0.027929179 0.02816987 0.68781823
0.030706668 0.026133336 0.68600005
0.035985716 0.025517145 0.68700004
-0.0017085717 0.017742857 0.69000006
0.0013142858 0.019057143 0.69000006
-0.0068066674 0.023495559 0.69166672
-0.0026323216 0.022373389 0.69093752
0.0024434694 0.022656394 0.69092864
0.0059400005 0.024420002 0.69300002
0.013155557 0.02302286 0.69066668
-0.0069998102 0.026283622 0.69340003
-0.002794286 0.027284984 0.69353849
0.0027733971 0.027605146 0.69340008
0.0077690124 0.028183375 0.6931538
0.0128675 0.028374882 0.69287503
0.016342686 0.027839482 0.69145459
0.020809526 0.029133335 0.69000006
0.0039657149 0.032386668 0.69400001
0.0079269055 0.032367859 0.69358337
0.012552065 0.032371748 0.6936667
0.017172096 0.032099716 0.69350004
0.022671429 0.031214289 0.69000006
0.02694286 0.03154286 0.69000006
0.0079314299 0.035030477 0.69400001
0.012558095 0.035030477 0.69400001
-0.0074771433 0.028864086 0.69557154
-0.0019857143 0.029785719 0.69500005
0.00066190481 0.029785717 0.69500005
-0.007028 0.031693526 0.69620007
-0.0028344588 0.0323865 0.69654554
0.0013241272 0.032449525 0.69533342
0.01522381 0.033757146 0.69500005
-0.0046466668 0.035181906 0.69700003
0.0039809523 0.036935877 0.69666672
0.0079564285 0.037797861 0.69625008
0.01260635 0.037820954 0.69666672
0.016590858 0.036633525 0.69680005
0.0039828573 0.040492382 0.69700003
0.0059742862 0.040492382 0.69700003
0.013409525 0.018773334 0.70400006
0.028830478 0.017432382 0.70400006
0.030841906 0.018102858 0.70400006
-0.050285719 0.024807621 0.70400006
-0.048274286 0.024807621 0.70400006
-0.050285719 0.027489526 0.70400012
-0.048274286 0.02681905 0.70400006
-0.00066666672 0.034000002 0.70000005
-0.0017339049 0.037099812 0.70059997
0.0018674288 0.037488766 0.70040005
0.018266669 0.038800005 0.70000005
-0.00067047623 0.044251435 0.70400006
0.0013409525 0.044251435 0.70400006
0.0086790482 0.040724766 0.70100003
0.012222339 0.042022169 0.70236379
0.017185379 0.042491231 0.70178586
0.022419618 0.042303246 0.70060009
0.028060243 0.042760484 0.70150006
0.030075002 0.042775955 0.70175004
0.028383493 0.047156833 0.70400012
0.032214113 0.047682863 0.70336372
0.035729766 0.047750242 0.70125002
0.027907241 0.0082238102 0.70780003
0.031343572 0.008425477 0.70774996
0.013254287 0.013254604 0.70766664
0.015828811 0.013134049 0.70725
0.023070775 0.012598389 0.70769238
0.027566668 0.012101906 0.70599997
0.032181017 0.012162223 0.70686668
0.0087574609 0.016840637 0.70733333
0.011842097 0.016554477 0.70660001
0.017354477 0.01681505 0.70620006
0.022892144 0.016159525 0.70700002
0.02727486 0.015988763 0.70540005
0.03160318 0.016136825 0.70600003
-0.055926196 0.028299525 0.70749998
-0.053094286 0.027554603 0.70566666
-0.047804765 0.028953334 0.70700002
-0.076194294 0.034388572 0.708
-0.074845716 0.034388572 0.708
-0.060685717 0.033040002 0.708
-0.057537738 0.032471944 0.70692301
-0.05251107 0.03231607 0.70687491
-0.047441091 0.032525986 0.70728576
-0.044985719 0.031557146 0.70500004
-0.080914289 0.037085719 0.708
-0.060011432 0.035737146 0.708
-0.057314292 0.036411431 0.70800006
-0.05245943 0.036816005 0.70800012
-0.04787429 0.036748573 0.708
-0.041805718 0.037085716 0.708
0.0028200003 0.044180002 0.70500004
0.0076095248 0.042747624 0.70500004
0.011682859 0.044717148 0.70500004
-0.016182858 0.04922286 0.708
-0.0071411431 0.048642479 0.70740002
-0.0026213757 0.048009314 0.7077778
0.0027543725 0.047452558 0.70718187
0.0075336811 0.047103208 0.7074545
0.012101272 0.047739685 0.70599997
0.015442858 0.047671434 0.7050001
0.027976193 0.04811905 0.7050001
-0.017868573 0.051751431 0.70800006
-0.010100001 0.050500002 0.70700002
-0.0074171438 0.050571434 0.70800006
-0.0047200001 0.05057143 0.708
0.0020228573 0.05057143 0.708
0.007147429 0.05111086 0.708
0.012802573 0.051883906 0.70749998
0.017083034 0.05320736 0.70718187
0.022591295 0.052393202 0.70657146
0.027887335 0.052542578 0.70730001
0.031631432 0.052496195 0.70666659
0.015508573 0.055965718 0.708
0.028994288 0.055965718 0.708
0.031241909 0.056415241 0.70800006
0.019720001 0.0047600004 0.71400005
0.022440001 0.0040800003 0.71400011
0.027200002 0.0047600004 0.71400005
0.037672002 0.0042160004 0.71400005
0.041460853 0.0033979896 0.71366674
-0.0034000005 0.0088400003 0.71400011
0.0031268576 0.0076135248 0.71380013
0.0074751326 0.0074747088 0.71355563
0.012492287 0.007738953 0.7129001
0.017634129 0.007459525 0.71216679
0.022366667 0.0074542868 0.7116667
0.026430072 0.006872246 0.71157151
0.033032861 0.0069438107 0.71150005
0.037759311 0.0075752386 0.71145457
0.04227167 0.0069600004 0.71300006
-0.011106668 0.013146667 0.71400011
-0.0074763093 0.013082977 0.71362513
-0.0031882052 0.012386886 0.7134617
0.0027117857 0.012211073 0.7123751
0.0074456362 0.012183095 0.71075004
0.011498286 0.011498096 0.71020001
0.018150873 0.011836905 0.71025008
0.022314288 0.010142858 0.71000004
0.034485716 0.011495239 0.71000004
0.037240081 0.01218754 0.7109167
0.040982332 0.01215143 0.71322232
-0.0072003813 0.016165717 0.71320003
-0.0027080956 0.016014129 0.71050012
0.0027069049 0.015568811 0.71075004
0.0067619053 0.015552382 0.71000004
0.017919049 0.015890477 0.71000004
0.034273144 0.017748574 0.7112
0.036973529 0.016115619 0.71100003
0.040554609 0.016086034 0.71366668
-0.081343099 0.03389167 0.71175003
-0.078438103 0.034485716 0.71000004
-0.067477681 0.033476613 0.71088898
-0.062570237 0.034159765 0.71025002
-0.08120048 0.037215717 0.7105
-0.077203259 0.037248179 0.71108335
-0.072172128 0.037477061 0.71309108
-0.067488484 0.037207149 0.7129001
-0.062253188 0.037768066 0.71107703
-0.057516672 0.039247151 0.71050012
-0.052981116 0.039453812 0.71016669
-0.047107942 0.038204767 0.71000004
-0.0429531 0.038556907 0.71025002
-0.037971433 0.039328575 0.71200007
-0.082135953 0.042085961 0.71275014
-0.077363759 0.042075299 0.71256268
-0.072161533 0.041993149 0.71346688
-0.067301333 0.041740764 0.71380013
-0.062723197 0.042430822 0.71364295
-0.057046913 0.042785168 0.71308351
-0.052132066 0.042653121 0.71088892
-0.047355242 0.042620152 0.71033335
-0.04266106 0.042660642 0.71100008
-0.03797143 0.042040955 0.71200007
-0.081995003 0.046684526 0.71300006
-0.077356197 0.046142623 0.71250004
-0.072734535 0.046563573 0.71375006
-0.061871525 0.047185432 0.71390015
-0.057392001 0.046648003 0.71400017
-0.052336197 0.045538735 0.7136668
-0.04760994 0.046060819 0.71271437
-0.042751908 0.046143334 0.71250004
-0.03927429 0.045368575 0.71100003
-0.020961907 0.049361907 0.71000004
-0.018933335 0.049361907 0.71000004
-0.00067619054 0.049361907 0.71000004
0.0033809526 0.048685715 0.71000004
0.0060857148 0.048009526 0.71000004
-0.02099143 0.052140009 0.71100008
-0.018277336 0.053750861 0.71080005
-0.01015 0.052780479 0.7105
-0.0072729774 0.053278692 0.71037501
-0.0025712387 0.052913208 0.71046674
0.0025938891 0.052435637 0.71041667
0.0077783344 0.053099766 0.71025002
0.011046826 0.053882699 0.71016669
0.022314288 0.054771435 0.71000004
0.025704049 0.053438336 0.71025002
-0.021050477 0.055002861 0.71300006
-0.010185715 0.055681907 0.71300006
-0.0074663498 0.056561589 0.71266669
-0.0027076192 0.056163337 0.7105
0.0030068033 0.055745039 0.71257156
0.0076635382 0.055972934 0.71300006
0.01244635 0.057258207 0.71288902
0.018052574 0.057688575 0.71260011
0.022372223 0.056947783 0.71183342
0.026800003 0.056988575 0.71114296
0.030471431 0.057557147 0.71100003
0.0089019053 -0.00068476197 0.71900004
0.012325714 -0.0013695242 0.71899998
0.01711905 -0.001369524 0.71900004
0.022140635 -0.0015977782 0.71900004
0.027801335 -0.0019173337 0.71899998
0.032974161 -0.002600953 0.71833336
0.037583336 -0.0027338096 0.71750009
0.042382501 -0.0027359524 0.71774995
0.047796387 -0.0028760005 0.71899998
0.052384291 -0.0044509526 0.71900004
-0.01711905 0.0047933338 0.71900004
-0.012308572 0.0047866674 0.71800005
-0.0070695244 0.0038758735 0.71833336
-0.0029658203 0.0038788368 0.71877778
0.0030765082 0.0033028573 0.7178334
0.007525715 0.0027349207 0.71833336
0.012312143 0.0027347624 0.71824998
0.017611938 0.002592762 0.71679997
0.022518573 0.0013642858 0.71650004
0.027295556 0.0020465078 0.71650004
0.032756723 0.002728988 0.71656251
0.037309937 0.0016560546 0.71600002
0.043163676 0.0018510206 0.71614295
0.046661634 0.002054286 0.71900004
-0.017772382 0.0075180959 0.71766663
-0.012283018 0.0075058732 0.71650004
-0.0075083608 0.0075075137 0.7166667
-0.0025020109 0.0070501599 0.71644449
0.00068238098 0.0068233339 0.71650004
0.010910477 0.0061371434 0.71600002
0.04367286 0.0088709528 0.71650004
0.045879051 0.0068476195 0.71900004
-0.021227621 0.012325714 0.71900004
-0.017754644 0.012290834 0.71700001
-0.012962001 0.011734192 0.71630001
-0.007500953 0.010569526 0.71600002
-0.00068190478 0.011592383 0.71600002
0.043579813 0.012431239 0.71720004
-0.037241772 0.018473336 0.71842867
-0.033194765 0.017452542 0.71866667
-0.027390478 0.017803811 0.71899998
-0.022792792 0.01809728 0.71900004
-0.017747382 0.01570024 0.71675003
-0.013657143 0.015705716 0.71700001
0.037737008 0.018819731 0.71671432
0.041951541 0.018282542 0.7168889
-0.045879051 0.023966668 0.71900004
-0.042455241 0.022597145 0.71899998
0.037645087 0.021902543 0.71866673
0.040400956 0.021227621 0.71900004
-0.046563812 0.026020955 0.71900004
-0.043482386 0.028075241 0.71899998
-0.070236199 0.044323813 0.71600002
-0.067508578 0.044323813 0.71600002
-0.076373339 0.04841524 0.71600002
-0.072298259 0.04683508 0.71616668
-0.067508578 0.04636953 0.71600002
-0.064780958 0.04636953 0.71600002
-0.055766039 0.04893937 0.71700001
-0.052605294 0.048506882 0.71733332
-0.047776088 0.048992593 0.71777785
-0.043733336 0.049201429 0.71750003
-0.051357146 0.051357146 0.71900004
-0.049302861 0.051357146 0.71900004
-0.043140002 0.051357146 0.71900004
0.043150481 -0.01078762 0.72300005
0.047511436 -0.010328572 0.72300005
0.0075742863 -0.0061971433 0.72300005
0.012380715 -0.0061907149 0.72225004
0.017897382 -0.0061950004 0.72275007
0.022722861 -0.0061971433 0.72300005
0.027822044 -0.006783674 0.72257155
0.032683544 -0.0067736064 0.72142863
0.037648786 -0.0074092066 0.72166669
0.04262818 -0.0075640483 0.72191679
0.04740921 -0.0075598946 0.72144455
0.051990796 -0.0071006361 0.72144455
0.056384765 -0.0075638099 0.72200006
-0.0071088895 -0.0011469843 0.72233343
-0.0019126986 -0.0020657144 0.72300005
0.0027518452 -0.0027535122 0.72256255
0.0074302172 -0.0029370566 0.72118199
0.01236 -0.0041209524 0.72100008
0.018262193 -0.0035717145 0.72090006
0.023128254 -0.0038939686 0.72133344
0.026754607 -0.0041165082 0.72033346
0.030857146 -0.0048000002 0.72000003
0.050057147 -0.0006857143 0.72000003
-0.021345716 0.0041314289 0.72300005
-0.018310478 0.0037169529 0.72280008
-0.012200261 0.0021891778 0.72263646
-0.0080082556 0.0016012699 0.72066677
-0.0024546941 0.0012761906 0.72171432
0.0017157143 0.0010290476 0.72050005
0.047880959 0.0034384131 0.72166675
0.050057147 0.0006857143 0.72000003
-0.031674288 0.0089514293 0.72300005
-0.02162357 0.0078950003 0.72075003
0.046971433 0.007885715 0.72000003
-0.0417981 0.013473471 0.72285724
-0.037112586 0.012368777 0.72164303
-0.032494951 0.012520148 0.72123092
-0.027502563 0.012374225 0.72193754
-0.023362858 0.012367143 0.7215001
0.044571433 0.012342858 0.72000003
0.046669532 0.012086122 0.72214293
-0.05095429 0.019968573 0.72300005
-0.047150716 0.018584527 0.72275007
-0.042615183 0.017868394 0.72168761
-0.038284574 0.016877336 0.72040004
-0.030857146 0.01577143 0.72000003
-0.027428573 0.01577143 0.72000003
-0.022354288 0.017417146 0.72000003
-0.05095429 0.021345716 0.72300005
-0.047108259 0.022181273 0.72033346
-0.043885715 0.021257143 0.72000003
-0.039085716 0.021257143 0.72000003
-0.021942858 0.021257143 0.72000003
-0.042514287 0.026057145 0.72000003
-0.05852858 0.050265722 0.72300005
-0.051182099 0.053104382 0.72040004
-0.047398783 0.052895654 0.72128588
-0.044633336 0.052187622 0.72100008
0.0083314292 -0.021522859 0.72900003
0.029160002 -0.020134287 0.72900003
0.032631435 -0.020134289 0.72900003
0.037477858 -0.020127382 0.72875005
0.04431143 -0.020079048 0.727
0.018745715 -0.015968572 0.72900003
0.02244487 -0.016891852 0.72888893
0.027768021 -0.017355319 0.72891676
0.032626458 -0.017354708 0.72888893
0.037457146 -0.017341906 0.72833341
0.042887621 -0.01729429 0.72633332
0.047482859 -0.016880412 0.72557139
0.052521788 -0.016585359 0.72562492
0.057494611 -0.016624764 0.72733343
0.061013337 -0.015946668 0.72800004
-0.0023138099 -0.010874763 0.72883338
0.0027730165 -0.011787621 0.7280001
0.0074452385 -0.011602621 0.72725004
0.012938733 -0.012016034 0.72783339
0.017315481 -0.012469763 0.72725004
0.02213911 -0.012454824 0.72643739
0.027700834 -0.012466311 0.72712499
0.032571428 -0.012475239 0.72766674
0.037336074 -0.012447381 0.72600001
0.042533338 -0.013395238 0.72499996
0.047642861 -0.013119048 0.72499996
0.052512385 -0.012438095 0.72549999
0.05733588 -0.012434921 0.72533333
-0.012265715 -0.0062485724 0.72900003
-0.0076223817 -0.0069293655 0.72750008
-0.0027700798 -0.0076156361 0.72675002
0.0027631749 -0.0075993659 0.72533333
0.0076004765 -0.0082919067 0.72550005
0.012437144 -0.0082919057 0.72549993
0.01728905 -0.0083001591 0.72616667
0.022095241 -0.0082857152 0.72499996
0.027204765 -0.0087000011 0.72500002
0.032466672 -0.0089803189 0.72533339
0.035904765 -0.0089761913 0.72500002
0.053166669 -0.0089761913 0.72500008
0.056619052 -0.0089761913 0.72500002
-0.02058794 -0.0011568256 0.72866672
-0.017018097 -0.0022346035 0.72766668
-0.01245024 -0.0027685717 0.72624999
-0.0077514299 -0.0033002119 0.72522223
-0.003846939 -0.0036496602 0.72500002
0.052730002 -0.0027757145 0.72850001
-0.036375716 0.0045033339 0.72750008
-0.032368809 0.0036333338 0.72699994
-0.027699642 0.0041539292 0.72712499
-0.022428384 0.0026297148 0.72680002
-0.017266192 0.0013811113 0.72516668
-0.014500001 0.00069047621 0.72500002
0.049023814 0.0041428572 0.72500002
0.05141674 0.003071429 0.72814292
-0.045128573 0.0090257153 0.72900003
-0.041975718 0.0086723818 0.72850001
-0.037351824 0.0076070651 0.72624993
-0.032662448 0.0072031301 0.72528571
-0.027641034 0.0076007149 0.72558331
-0.023620954 0.0073207626 0.7252
0.04911397 0.007610477 0.72633332
0.050682865 0.0076371431 0.72900003
-0.056674294 0.014110478 0.72866672
-0.052540641 0.01261378 0.72780001
-0.047581032 0.012305277 0.7273078
-0.043393929 0.011754644 0.726125
-0.039357144 0.010357143 0.72500002
0.04878699 0.012254287 0.72833335
-0.061742455 0.017937552 0.72842866
-0.057415776 0.017292172 0.72633332
-0.05247619 0.017261907 0.72500002
-0.048333336 0.016571429 0.72500002
0.04494286 0.015902858 0.72600001
0.045743573 0.01732881 0.72775006
-0.066402487 0.023149906 0.72780007
-0.062309466 0.022153514 0.72693741
-0.05791048 0.021423241 0.7256
-0.053857148 0.020714287 0.72500002
0.039411429 0.024200002 0.72600001
0.042416073 0.023026075 0.72712505
0.045128573 0.020134287 0.72900003
-0.066467628 0.025618097 0.727
-0.06201715 0.026917143 0.72840005
-0.058771431 0.025582859 0.72600001
0.039520003 0.027735716 0.72800004
0.041295953 0.026721193 0.72875005
-0.080897145 0.049091432 0.72600001
-0.079514287 0.049091432 0.72600001
-0.06713143 0.049136512 0.72666669
-0.006291429 -0.020272382 0.73400003
-0.0030292065 -0.020272382 0.73400009
0.0027961906 -0.020272382 0.73400003
0.0073100002 -0.02053762 0.73100001
0.012860409 -0.021031024 0.73257148
0.017276464 -0.021271024 0.73400009
0.021833017 -0.020672699 0.73166674
-0.0067574605 -0.018408258 0.73400009
-0.0026963269 -0.017276464 0.73400009
0.0027938101 -0.017456988 0.73316669
0.0076604239 -0.017410053 0.73122221
0.012537858 -0.017415004 0.7314167
0.017230717 -0.017578812 0.73100001
0.021581907 -0.018797144 0.73100007
-0.0069745244 -0.01115881 0.73225003
-0.0030690476 -0.013531526 0.73230004
0.0027847621 -0.01462 0.73100001
0.0080061909 -0.014271906 0.73100001
0.01114262 -0.01392881 0.73124999
-0.020738414 -0.0067574605 0.73400009
-0.017448731 -0.0069804769 0.73283339
-0.012696763 -0.0073942863 0.7324
-0.0069671432 -0.0090566669 0.73150003
0.056622859 -0.006291429 0.73400003
-0.03565143 -0.0013980954 0.73400003
-0.032348998 -0.0016298415 0.7331112
-0.027238099 -0.0013974605 0.73333335
-0.022229522 -0.002709524 0.73188889
-0.018333018 -0.0044092066 0.73100007
0.053166986 -0.001160635 0.73133337
0.057244986 -0.0023116486 0.73369247
0.061516196 -0.0034952383 0.73400003
-0.051030479 0.0048933337 0.73400003
-0.0470054 0.0044206353 0.73300004
-0.042583816 0.0041876193 0.73300004
-0.037586141 0.0025565079 0.73233342
-0.033069048 0.0010442857 0.73100001
-0.027866669 0.0013928573 0.73150003
-0.023670478 0.00069619052 0.73100001
0.054203406 0.0030831294 0.73100007
0.057648364 0.0026276927 0.73200011
0.060734291 0.0013952382 0.73300004
-0.051877692 0.0078651709 0.73185718
-0.047554381 0.0075346315 0.73136365
-0.0427581 0.0068243816 0.73119998
0.052910477 0.0076580956 0.73100007
0.056372382 0.0075047622 0.73300004
-0.061227944 0.014200635 0.73333335
-0.057823338 0.012539525 0.73150003
-0.05499905 0.010442858 0.73100001
0.049530957 0.013953811 0.73250002
0.051293097 0.011515478 0.73275
-0.072001919 0.018874288 0.73400009
-0.067366667 0.018499048 0.73300004
-0.063461676 0.016736429 0.73225003
0.048409909 0.017158478 0.7324
-0.071632862 0.021436192 0.73199999
-0.068010323 0.021122381 0.73116672
0.04613892 0.022620002 0.73242861
0.042882595 0.028156873 0.73128575
0.045438103 0.027262859 0.73400009
0.039125912 0.03299943 0.73100001
0.042678472 0.032494672 0.73220003
0.0454381 0.030059049 0.73400003
0.041075241 0.035505716 0.73100001
-0.0014019049 -0.021028573 0.73600006
0.0014019049 -0.021729525 0.73600006
0.012617144 -0.021729525 0.73600006
0.01752381 -0.02313143 0.73600006
-0.011612859 -0.016891429 0.73900002
-0.0081839692 -0.017068414 0.73650002
-0.0029440003 -0.017804191 0.73600006
-0.021777552 -0.011338913 0.73757148
-0.017555557 -0.011938837 0.73733336
-0.013653906 -0.011120192 0.73900002
-0.0080733337 -0.013335239 0.73700005
-0.031935047 -0.0066123814 0.73860008
-0.027226806 -0.0073348302 0.73842865
-0.023011643 -0.0080344975 0.73711115
-0.01752381 -0.0091123823 0.73600006
-0.012643334 -0.0091309529 0.73750001
-0.0091247624 -0.0091247624 0.73700005
0.059113652 -0.0067758737 0.73600006
0.060982861 -0.0063085719 0.73600006
-0.052081905 -0.0014076191 0.73900002
-0.047810242 -0.0014069049 0.73825002
-0.041770481 -0.0021112554 0.73881817
-0.03747724 -0.0030880955 0.73690003
-0.031961769 -0.004308708 0.73642862
-0.027361587 -0.0042098416 0.73666668
-0.023848575 -0.0042090481 0.73650002
0.058880001 -0.0049066669 0.73600006
0.062384762 -0.0021028572 0.73600006
-0.055600956 0.0049266671 0.73900002
-0.052644189 0.0028076193 0.73700005
-0.04796448 0.0018227621 0.73630005
-0.042390209 0.0013023133 0.73657149
-0.039279528 0.001402381 0.73650002
0.06147778 0.003039683 0.73633337
-0.061935242 0.0091495244 0.73900002
-0.057088468 0.0080427518 0.73799998
-0.054010004 0.0070138099 0.73650002
0.059290718 0.008069762 0.73675001
0.061231434 0.0063342862 0.73900002
-0.075103812 0.014740001 0.73700005
-0.072263502 0.014733335 0.73666668
-0.067208372 0.013815768 0.73766667
-0.062838204 0.01209725 0.73766667
-0.059140638 0.01098635 0.73633337
0.053034291 0.012933062 0.73685724
0.056731705 0.011547756 0.73800009
-0.075771436 0.01753905 0.73666668
-0.072198093 0.016822858 0.73600006
-0.067773506 0.016592858 0.73616672
0.04906667 0.018925715 0.73600006
0.052035563 0.017580001 0.7383334
-0.075702861 0.02032762 0.73600006
0.049175836 0.022480596 0.737625
0.051378097 0.021114286 0.73900002
0.048455238 0.027386669 0.73733336
0.051378097 0.027448576 0.73900002
0.047725327 0.031933896 0.73691678
0.051800959 0.031174924 0.7383334
-0.032449391 -0.016881771 0.74300009
-0.027597144 -0.016982859 0.74300003
-0.022870479 -0.016267937 0.74266672
-0.017356953 -0.016791619 0.74080008
-0.013742859 -0.016914288 0.74000001
-0.031842861 -0.012878668 0.74300003
-0.027575955 -0.012728494 0.74241674
-0.02316032 -0.013739367 0.74188894
-0.017619049 -0.014800001 0.74000001
-0.012237231 -0.013390477 0.73999995
-0.042121228 -0.0069702053 0.7424286
-0.037251193 -0.0075933337 0.74150002
-0.032786399 -0.0085744224 0.74142867
-0.028190479 -0.0091619054 0.74000001
-0.047027241 -0.0040954291 0.74140006
-0.043272387 -0.0043695238 0.74000001
-0.06182896 0.0041028573 0.74280006
-0.057515953 0.0037040478 0.74100006
-0.062723815 0.0075174607 0.74000001
-0.059434928 0.0068126991 0.74000001
0.054266669 0.014800001 0.74000001
0.057399243 0.014244191 0.74040002
0.060107149 0.012729049 0.74250007
0.05431556 0.017636193 0.74066675
0.056422479 0.017393908 0.74240005
0.053269912 0.022889717 0.74180001
0.055901907 0.020520953 0.74300003
0.053718891 0.027566507 0.74216676
0.055901907 0.026889525 0.74300003
0.047923811 0.034533337 0.74000001
0.052462857 0.032382857 0.74240011
0.055901907 0.030427622 0.74300003
-0.021995239 -0.01631905 0.74500006
-0.042211428 -0.011145715 0.7470001
-0.037536629 -0.01259827 0.74618196
-0.03382064 -0.012534922 0.74500006
-0.042997148 -0.008940001 0.74500006
-0.039023813 -0.0092238104 0.74500006
-0.048957147 -0.0049666669 0.74500006
-0.065985717 0.00070952385 0.74500006
-0.062737994 0.0016567197 0.74577785
-0.057924055 0.0010654763 0.74625003
-0.054633338 0.00070952385 0.74500006
0.058614764 0.01811762 0.74600005
0.057188034 0.022650072 0.74657148
0.0571527 0.027743813 0.7470001
-0.061866671 -0.0053647626 0.75100005
-0.056888767 -0.0061459052 0.75040001
-0.053571433 -0.0057142861 0.75000006
-0.06216085 -0.0021430689 0.75022227
-0.057142865 -0.0021428573 0.75000012
-0.053571433 -0.0035714288 0.75000006
0.061956573 0.018745145 0.75120002
0.059285719 0.022142857 0.75000006
0.061449911 0.021914287 0.75200003
0.058745909 0.026727622 0.75040001
0.065433338 0.019414287 0.75500005
0.06369929 0.022673573 0.75575006
0.065971121 0.021830797 0.75566673
