# .PCD v0.7 - Point Cloud Data file format
VERSION 0.7
FIELDS x y z
SIZE 4 4 4
TYPE F F F
COUNT 1 1 1
WIDTH 938
HEIGHT 1
VIEWPOINT 0 0 0 1 0 0 0
POINTS 938
DATA ascii
0.0088628586 0.042881913 0.65800011
0.012214841 0.043014374 0.65775001
0.0094000008 0.047626667 0.65800005
0.01242889 0.04762667 0.65800005
0.013786668 0.050760005 0.65800005
-0.00063047622 0.034676194 0.66200006
0.00063047622 0.034676194 0.66200006
-0.0015329254 0.037238777 0.66271436
0.0016408574 0.038121235 0.66270012
0.0076956199 0.039491814 0.66240007
0.010685715 0.039600004 0.66000003
-0.0020885714 0.042888574 0.66300005
0.0025232141 0.042912859 0.66262507
0.0065009529 0.04257651 0.6606667
0.01257143 0.040857144 0.66000003
-0.0022551024 0.046635516 0.66300005
0.0027361908 0.046515241 0.66300011
0.0070387884 0.047678791 0.66109097
0.012885716 0.047771432 0.66000003
0.0086667854 0.052478455 0.66187501
0.012273408 0.053313699 0.6621539
0.015761906 0.054220956 0.66200006
0.0094714295 0.058091432 0.66300005
0.012623335 0.058069527 0.66275007
0.0094714295 0.062511429 0.66300005
0.012418096 0.062090475 0.66300005
-0.012683017 0.034454767 0.66583335
-0.016261499 0.037698507 0.66771436
-0.012679942 0.038039472 0.6656875
-0.0095142862 0.038691431 0.66600001
-0.0022166669 0.039583337 0.66500002
-0.01719 0.040747143 0.66850001
-0.012250952 0.042164288 0.66825008
-0.0076239686 0.042551275 0.6668334
-0.0044333334 0.043277781 0.66500008
-0.0066281646 0.046210211 0.6672858
-0.0029133335 0.048513334 0.66500002
0.0023231748 0.048368894 0.66533339
-0.0023704765 0.051396627 0.66772729
0.0025401195 0.052081902 0.66687512
0.0061285719 0.052409526 0.6656667
0.0026711749 0.057147373 0.66820002
0.0069744452 0.057071116 0.66583329
0.0041280957 0.061297625 0.66700006
0.0070843291 0.061918627 0.66527271
0.012666667 0.063966669 0.66500002
0.0095000006 0.065233335 0.66500002
0.0125775 0.066385366 0.66862506
-0.022890048 0.032792732 0.67272729
-0.019859685 0.032673653 0.67266673
-0.02219105 0.036940385 0.67339993
-0.018997859 0.037195712 0.67050004
0.0040653972 0.038300321 0.67400002
0.0057771434 0.03851429 0.67400002
-0.021057144 0.040200002 0.67000002
-0.017273715 0.042869527 0.67180008
-0.013724525 0.043725953 0.67025
0.014763811 0.043007623 0.67400002
0.017461801 0.042978842 0.67355549
-0.016591022 0.047573343 0.67371428
-0.01279905 0.047352973 0.671875
-0.0084512187 0.047937151 0.67111111
0.016047619 0.045575242 0.67400002
-0.011412953 0.051676579 0.67320001
-0.0075036744 0.052251436 0.67257142
-0.0029365716 0.053999048 0.67020005
-0.0057771434 0.055845719 0.67400002
-0.0023783676 0.057314835 0.67185718
0.00063809525 0.059342861 0.67000002
-0.00064190483 0.060980957 0.67400002
0.0020265081 0.063057467 0.67216671
0.0057514291 0.064543813 0.671
0.014720001 0.064640008 0.67200005
0.016000001 0.064640008 0.67200005
0.003358929 0.067052029 0.67212498
0.0075463508 0.067921467 0.67153323
0.012934764 0.068832383 0.67075002
0.017556706 0.06742616 0.67130768
0.0084622232 0.072320014 0.67199999
0.012810002 0.072374776 0.67250001
0.016647939 0.072356515 0.67233336
0.0096285725 0.07702858 0.67400002
0.012196192 0.076065727 0.67400002
0.016689524 0.075102866 0.67400002
0.014226668 0.034273334 0.67900002
0.017460003 0.033950001 0.67900002
0.021986667 0.034273334 0.67900002
0.026082225 0.033195555 0.67900002
0.03254889 0.031471111 0.67900002
0.0038800002 0.036860004 0.67900002
0.0086126998 0.03833048 0.6783334
0.013035176 0.037555944 0.67760009
0.017417304 0.037412066 0.67733335
0.021966789 0.037471548 0.67837501
0.026506582 0.037085105 0.67881817
-0.022250069 0.042376328 0.67857146
-0.019314285 0.043135241 0.67600006
0.013500001 0.040500008 0.67500007
0.018455874 0.041847624 0.67600006
0.022077525 0.041958094 0.6778
0.025220003 0.042033337 0.67900008
-0.020031907 0.046526194 0.67850006
-0.01829524 0.046706669 0.67800009
0.01808 0.046491429 0.67800003
0.020026986 0.047592066 0.6783334
-0.016071429 0.051428575 0.67500001
-0.013299525 0.052352861 0.6758334
-0.0090214293 0.054764289 0.67650002
-0.010993334 0.056260005 0.67900002
-0.0079136807 0.057485983 0.67681819
-0.0038571432 0.05978572 0.67500001
-0.0068519055 0.061794579 0.67869997
-0.0027580089 0.062694125 0.67736369
-0.0019396826 0.065281272 0.67866677
0.0012933334 0.068546668 0.67900002
0.001384626 0.072089665 0.67842859
0.05602286 0.014331429 0.68400002
0.043645721 0.01889143 0.68400002
0.047862146 0.018558811 0.68375003
0.052297566 0.018010583 0.6835556
0.056837149 0.017425716 0.68400002
0.060582861 0.016937144 0.68400002
0.022800002 0.024102859 0.68400002
0.027639186 0.023544492 0.68400007
0.032547459 0.022782702 0.68350005
0.03756544 0.022408301 0.68342859
0.043073907 0.022251939 0.68320006
0.047472861 0.022111114 0.68283337
0.051676113 0.021762419 0.68284625
0.055371433 0.020845715 0.68400002
0.0078171436 0.029314287 0.68400002
0.01341943 0.029053716 0.68400002
0.016937144 0.029314287 0.68400002
0.022782957 0.027990384 0.68349999
0.027317204 0.027316611 0.68293744
0.032463215 0.027268454 0.68175006
0.037669469 0.027277324 0.68193758
0.042797342 0.027188703 0.68293339
0.047062702 0.02624302 0.68316674
0.050160002 0.025405716 0.68400002
-0.0010857144 0.034091432 0.68400002
0.0029274605 0.033073016 0.68316674
0.0078023816 0.032510832 0.68274999
0.012808506 0.032206602 0.68221438
0.017537382 0.031662621 0.68200004
0.022050794 0.031778734 0.68099999
0.02786286 0.031880762 0.68040001
0.032261524 0.032909144 0.68019998
0.037023902 0.032064591 0.68200004
0.04169143 0.030617144 0.68400002
-0.031268574 0.039737146 0.68400002
-0.027311668 0.039664526 0.68275005
-0.0019542859 0.035828575 0.68400002
0.0032476194 0.035723813 0.68200004
0.0075028581 0.036219053 0.68085712
0.011009525 0.03561905 0.68000001
0.028658289 0.03851505 0.68080002
0.032481492 0.037677202 0.68206245
0.036480002 0.037782863 0.68400002
-0.031051431 0.04147429 0.68400002
-0.026928572 0.042315416 0.68354547
-0.023690956 0.04381191 0.68150002
0.023575876 0.04434159 0.68133342
0.027606349 0.042868894 0.6820001
0.032372247 0.042697687 0.68371427
0.035828575 0.041040003 0.68400002
-0.025405716 0.046251431 0.68400002
-0.022442477 0.047475435 0.68099999
-0.018780954 0.04857143 0.68000001
0.022588097 0.047288578 0.68250006
0.025802225 0.0466181 0.68300009
-0.02251943 0.051678676 0.68340009
-0.018009368 0.052076988 0.68350005
-0.014289524 0.053910479 0.68200004
0.02225594 0.052189145 0.68326676
0.025840003 0.051028576 0.68400002
-0.012989366 0.057144135 0.68183339
0.01821794 0.057906833 0.68316668
0.021052701 0.056213018 0.68366671
-0.01205672 0.061868999 0.68222219
-0.0092920642 0.062665403 0.68066669
0.017146034 0.061421912 0.68366671
-0.0075234706 0.067615584 0.68264288
-0.0027474728 0.067947477 0.68146163
-0.0074914293 0.071331434 0.68400002
-0.0022523811 0.072471581 0.68269235
0.00065142859 0.074914292 0.68400002
0.042652383 0.013780001 0.68900001
0.049214289 0.013780001 0.68900001
0.05422667 0.013720001 0.68600005
0.028872382 0.019029524 0.68900001
0.033183049 0.018756 0.6886
0.037790049 0.017792642 0.68736374
0.042221647 0.016612815 0.68781823
0.046919689 0.016512066 0.68744451
0.052061912 0.015608572 0.68700004
0.058408003 0.017378669 0.68600005
0.060760003 0.018946668 0.68600005
0.013780001 0.024279049 0.68900001
0.017703336 0.023933334 0.68850005
0.022553336 0.022552194 0.68840009
0.027252384 0.02114762 0.68677783
0.032677859 0.020260716 0.68625009
0.0392 0.020253334 0.68600005
0.041160002 0.020253334 0.68600005
0.053691909 0.023570001 0.6875
0.057618581 0.021171905 0.6875
0.06102572 0.020341907 0.68900001
-0.0078742858 0.029528573 0.68900001
-0.002624762 0.029528573 0.68900001
0.0028393653 0.028610796 0.68800002
0.0079622231 0.027484924 0.68716669
0.012428996 0.026819896 0.68688893
0.017343732 0.026943414 0.68725014
0.021124445 0.026351115 0.68600005
0.047533493 0.028564289 0.68683338
0.051486291 0.026596 0.68780005
-0.0076083816 0.031871811 0.68860006
-0.0029706231 0.032367699 0.68715394
0.0016342859 0.031055717 0.68650007
0.039365146 0.033611242 0.68660009
0.042709332 0.033147428 0.68780011
0.046080954 0.032962382 0.68875003
-0.033973336 0.039853334 0.68600005
0.039235834 0.037927024 0.68662512
0.042625718 0.037378736 0.6885556
0.045277145 0.036090478 0.68900001
-0.033208046 0.042799152 0.68666673
-0.028746668 0.043773334 0.68600005
0.037713017 0.042508572 0.68666673
0.041864958 0.040815052 0.68900007
-0.032099742 0.046748061 0.68781829
-0.027734898 0.047251634 0.6863572
0.024173334 0.049000002 0.68600005
0.027937012 0.047369115 0.68671435
0.032495558 0.046237148 0.68700004
0.036694288 0.045211431 0.68800002
-0.030840954 0.053807624 0.68900001
-0.02733914 0.052353859 0.68790913
-0.021731192 0.05179619 0.68624997
-0.018293336 0.05422667 0.68600005
0.026279241 0.052951623 0.68640012
-0.020341907 0.057744764 0.68900001
-0.017293949 0.057769999 0.68707156
0.022903904 0.058241058 0.68710005
0.026356576 0.056515049 0.68839997
-0.020341907 0.061681911 0.68900001
-0.016631085 0.062289104 0.68845463
0.018106826 0.063916996 0.68716681
0.020341907 0.062994294 0.68900001
-0.0080183335 0.073144533 0.68725008
-0.0045733335 0.073826671 0.68600005
-0.0065619051 0.075461909 0.68900001
-0.0027133336 0.076428987 0.68757147
0.00065476191 0.07726334 0.6875
0.037997745 0.0085905958 0.69387507
0.041831993 0.0084535722 0.69174999
0.046000004 0.0092000011 0.69000006
0.029742859 0.01388 0.69400001
0.033695951 0.013544524 0.69375002
0.037113942 0.012410045 0.69254559
0.04201854 0.012372296 0.69036371
0.046920002 0.012485716 0.69000006
0.051780824 0.012874152 0.6907143
0.0092533343 0.019167621 0.69400001
0.01254 0.019140001 0.69300002
0.017686775 0.018127197 0.69355565
0.022425955 0.017807065 0.69258332
0.027713811 0.017153651 0.69283336
0.032749701 0.016344158 0.69154549
0.037457146 0.015114288 0.69000006
0.040085718 0.015114287 0.69000006
0.047314286 0.015114287 0.69000006
-0.0070060962 0.02392648 0.69400001
-0.0023123813 0.023005715 0.69350004
0.0026404168 0.0224397 0.69306254
0.0079126796 0.022419106 0.69243759
0.012385455 0.022197058 0.69109094
0.016872304 0.021802779 0.6902501
0.021357143 0.0207 0.69000006
0.054542862 0.024314288 0.69000006
0.058182869 0.023405174 0.69085717
0.061642453 0.02324735 0.69171441
-0.015201907 0.028420955 0.69400001
-0.012406581 0.02786511 0.69218183
-0.0079090483 0.027019367 0.69200003
-0.002631905 0.026967935 0.69066668
0.0023469392 0.026191836 0.69000012
0.0072285719 0.025628572 0.69000006
0.049285717 0.029571431 0.69000006
0.053298958 0.028294384 0.69090003
0.057140958 0.027448384 0.69280005
0.062129527 0.026658414 0.69400001
-0.01183762 0.030908097 0.69050002
0.048464287 0.032692861 0.69000006
0.052558042 0.03279791 0.69153339
0.057493873 0.032381695 0.69388896
0.062129527 0.03205619 0.69400001
-0.047588576 0.038996194 0.69400001
0.047525629 0.037601475 0.6904546
0.052826345 0.037308417 0.69333339
0.057062231 0.035471115 0.69400001
-0.04699171 0.042470887 0.69214284
-0.042337466 0.043214925 0.69100004
-0.037457149 0.044028573 0.69000006
0.042478815 0.042973097 0.69150007
0.047160961 0.040759053 0.69185716
-0.040648576 0.048249528 0.69400001
-0.037539054 0.047419369 0.69150007
-0.034312956 0.04824857 0.69020003
0.028695241 0.048847627 0.69000006
0.033201769 0.048437692 0.69128579
0.037757624 0.047487859 0.6925
0.040719371 0.046002544 0.69333339
-0.03687067 0.051671814 0.69380003
-0.032892819 0.052066848 0.69200009
-0.027994288 0.052702863 0.69000006
-0.023000002 0.054542862 0.69000006
0.02893012 0.052600596 0.69037503
0.03146778 0.052374132 0.69316673
-0.026870219 0.057748668 0.69118184
-0.023005717 0.057843022 0.69016671
0.028171074 0.057985839 0.69187498
0.031064764 0.05684191 0.69400001
-0.026877383 0.06215905 0.6925
-0.022767145 0.062641434 0.69090003
-0.018400002 0.063742861 0.69000006
0.022531519 0.062572911 0.69027281
0.027439138 0.061780445 0.69345456
-0.022367861 0.065785713 0.69075006
-0.017742859 0.065714292 0.69000006
0.018426668 0.06646762 0.69100004
0.022594607 0.066322647 0.69099998
0.025740001 0.065340005 0.69300002
-0.012541905 0.07391905 0.69300002
0.029142315 0.008638096 0.69771427
0.032490559 0.0079557942 0.69625008
0.036073811 0.0072809528 0.69500011
0.0033238097 0.013960001 0.69800001
0.017705558 0.01350016 0.69716668
0.022801274 0.013060318 0.69733334
0.027658012 0.012472729 0.6960001
0.031992067 0.012134923 0.69500011
-0.0069752382 0.018931907 0.69749999
-0.0026521904 0.018160764 0.6960001
0.002702564 0.017691139 0.69600004
0.0078434926 0.017232541 0.69600004
0.012588255 0.016562223 0.69566679
0.016553879 0.015986532 0.69528586
0.022504764 0.01522381 0.69500005
0.026476193 0.01522381 0.69500005
-0.017276905 0.024587383 0.69774997
-0.012323598 0.023095664 0.69733334
-0.0083754109 0.021868054 0.69581825
-0.0036404764 0.020850003 0.69500005
-0.065811433 0.027255239 0.69800001
-0.062327553 0.028070111 0.69792312
-0.058789525 0.028895715 0.69749999
-0.020578096 0.027216192 0.69700003
-0.017622096 0.027028 0.69560015
-0.013900001 0.025814287 0.69500005
0.058909528 0.029123813 0.69500005
0.062018946 0.028323915 0.69522232
-0.061321598 0.032320321 0.69733334
-0.057268661 0.03264736 0.69700003
-0.052440956 0.033190481 0.69700003
0.06193538 0.032811567 0.69500011
-0.061070479 0.035181906 0.69700003
-0.058415242 0.035181906 0.69700003
-0.051842265 0.037219644 0.69787502
-0.048878416 0.03759715 0.69666672
0.0549381 0.039052382 0.69500005
0.057822727 0.037192792 0.69557154
0.061364003 0.035650861 0.69580013
-0.048980959 0.041700006 0.69500011
0.044347622 0.044347622 0.69500005
0.047510888 0.043527212 0.69700009
0.051481273 0.040877465 0.69600004
-0.042857837 0.047679484 0.69618189
0.036846034 0.049642861 0.69500005
0.042705398 0.048016988 0.69700003
0.047176193 0.045846671 0.69766665
-0.041632265 0.052247737 0.69662505
-0.038058478 0.053177338 0.69620007
0.03324705 0.053115625 0.69540006
0.037177544 0.052448016 0.69708335
0.040993653 0.051629841 0.69800007
-0.041721303 0.057297926 0.69736367
-0.038400766 0.05620572 0.69760001
0.032978334 0.057502147 0.6960001
0.036216907 0.055819292 0.69774997
-0.041741274 0.060291119 0.69566673
-0.039164763 0.06040667 0.69700003
0.029145239 0.063589051 0.69550002
0.032221906 0.061863177 0.69677782
0.027198097 0.066333339 0.69650006
-0.016293144 0.074043237 0.69540006
0.01944381 0.0046933335 0.70400006
0.023129907 0.0044129528 0.70200002
0.027333334 0.0040000007 0.70000005
0.030000001 0.004666667 0.70000005
0.018527145 0.0078122225 0.70316672
0.022711191 0.0073473807 0.70141673
0.02716667 0.0071666674 0.70000005
-0.010494604 0.01362032 0.70333338
-0.0070300004 0.01372524 0.70300001
-0.0026763496 0.012707303 0.70233339
0.0026242493 0.01218762 0.70207709
0.0073717469 0.014073335 0.70366669
0.012889882 0.012889406 0.70312506
0.017099051 0.011087811 0.70140004
0.022385173 0.010573471 0.70014292
0.026000002 0.010000001 0.70000005
-0.016953969 0.018960319 0.7026667
-0.011585001 0.017820239 0.70175004
-0.0075085717 0.016516667 0.70075005
-0.0026666669 0.015777778 0.70000005
0.0024444447 0.015333335 0.70000005
0.0073333336 0.015333334 0.70000005
-0.082439765 0.024463572 0.70375001
-0.077341832 0.023292776 0.70208335
-0.072770484 0.023700476 0.70100009
-0.068764769 0.024701906 0.70100003
-0.03017143 0.024807621 0.70400006
-0.028830478 0.024807621 0.70400006
-0.021082621 0.023759287 0.70275003
-0.017370082 0.022043889 0.70141673
-0.013555557 0.021111114 0.70000005
-0.082286552 0.027317265 0.70387501
-0.077441148 0.02719867 0.70340008
-0.072224922 0.027418412 0.70216674
-0.067524292 0.027342621 0.70025003
-0.064666674 0.026000002 0.70000005
-0.027476829 0.028146353 0.70366669
-0.02264159 0.027686456 0.70144451
-0.077440009 0.030506667 0.70400006
-0.071785562 0.031818096 0.70333332
-0.067438498 0.032050718 0.70108342
-0.063969664 0.032510072 0.70071429
-0.027190858 0.030672763 0.70320004
-0.023038099 0.030684086 0.70257151
-0.064759053 0.035383813 0.70100003
0.05812715 0.039417624 0.70150006
0.061954051 0.038511667 0.70325005
-0.055570479 0.042180002 0.70300001
-0.052892383 0.041733652 0.70300001
-0.046666671 0.04466667 0.70000005
0.052479666 0.043379053 0.70072722
0.056990478 0.040899049 0.70400006
-0.050119054 0.047444768 0.70166671
-0.047348786 0.04734857 0.70022225
-0.04466667 0.046000004 0.70000005
0.047367781 0.048034444 0.70050001
0.051800098 0.047383148 0.70270008
-0.050190479 0.051530801 0.7026667
-0.047485799 0.052169606 0.70225012
-0.044396669 0.053075716 0.70100003
0.04334591 0.052682098 0.70020002
0.047464054 0.052144375 0.70191681
0.050902147 0.050902147 0.70325005
-0.046959646 0.057150599 0.70187503
-0.044437911 0.05698191 0.70060003
-0.036888056 0.05791698 0.70190918
-0.034000002 0.056000005 0.70000005
0.037671354 0.057784852 0.70008326
0.042680513 0.057397716 0.70240009
0.046709847 0.056543499 0.70400012
-0.046197146 0.060926672 0.70300001
-0.0426981 0.061710481 0.70050007
-0.039333336 0.062666669 0.70000005
0.03357175 0.064253025 0.70033336
0.037219867 0.062510215 0.70142865
0.041890241 0.06132691 0.70375007
-0.027446771 0.067611016 0.70288891
-0.024701906 0.068764769 0.70100003
0.032108933 0.066894405 0.70237499
0.037520953 0.065659523 0.70350003
0.0080914292 -0.00067428575 0.708
0.012120001 -0.00067333336 0.70700002
0.0047200001 0.0047200001 0.708
0.0076868581 0.0029668573 0.70800012
0.012115238 0.0026930955 0.70674992
0.01682267 0.0032297149 0.70659989
0.021485716 0.0033571431 0.70500004
-0.0013466668 0.0087533342 0.70700002
0.0029147093 0.0078484667 0.70644444
0.0074066678 0.0074066669 0.70700002
0.012110319 0.0074007949 0.70649993
0.016345399 0.0069409534 0.70533335
-0.012793334 0.014140001 0.70700002
-0.0074028578 0.012111429 0.70649999
-0.0026930952 0.010089287 0.70625001
0.0026857145 0.010071429 0.70500004
0.0073876199 0.011417461 0.70522225
0.01124643 0.01124643 0.70499998
-0.030792383 0.019104764 0.70800006
-0.027638894 0.0188754 0.70783329
-0.02290743 0.01845905 0.70740002
-0.017957143 0.017282223 0.70700002
-0.013452619 0.016141668 0.70625001
-0.086633608 0.02394109 0.70671433
-0.083928578 0.023500001 0.70500004
-0.035737149 0.023600003 0.70800006
-0.032440126 0.022746289 0.70666665
-0.027449094 0.022678703 0.70609087
-0.023438096 0.022540001 0.70649993
-0.086739056 0.02622286 0.70600003
-0.07922858 0.02887143 0.70500004
-0.035711907 0.026952859 0.70749998
-0.032092471 0.027446061 0.70600003
-0.027528573 0.026185717 0.7050001
-0.024171431 0.026185716 0.70500004
-0.077661917 0.031109527 0.7050001
-0.07432501 0.033295479 0.70625001
-0.031633653 0.030285716 0.70666665
-0.071997628 0.036333814 0.70649999
-0.067888141 0.037911288 0.70792317
-0.062650166 0.039745402 0.70733333
0.063114285 0.03961429 0.70500004
0.065128572 0.03961429 0.70500004
-0.066080004 0.041131433 0.708
-0.062708579 0.042479999 0.70800006
-0.057987273 0.042587448 0.70572728
-0.054385718 0.043642864 0.70500004
0.05749758 0.042587448 0.70572728
0.062272936 0.042061228 0.70742869
0.065313339 0.041073337 0.70700002
-0.062095594 0.047016107 0.70800012
-0.057745647 0.047077075 0.70692301
-0.054462861 0.047740959 0.70600003
0.054540005 0.048480004 0.70700002
0.057242002 0.047140669 0.70710003
0.060011432 0.046525717 0.70800006
-0.055886671 0.052520007 0.70700002
-0.052917432 0.052915718 0.70689994
0.052760094 0.052757841 0.70609093
0.055965718 0.05057143 0.708
-0.050836671 0.056898098 0.70700002
-0.048682548 0.058102857 0.70666665
0.044985719 0.059757147 0.70500004
0.048015773 0.058171537 0.70566666
0.051727623 0.057518672 0.70720005
-0.046504449 0.062229536 0.70766664
-0.042480003 0.064057156 0.70800006
0.043276872 0.06285239 0.70528579
0.047158692 0.06265346 0.70737505
0.051245719 0.060685717 0.708
0.0047533335 -0.00067904766 0.71300006
0.0060857148 -0.00067619054 0.71000004
-0.0061200005 0.0047600004 0.71400005
-0.0047600004 0.0047600004 0.71400005
0.0042036194 0.0028455239 0.71180004
0.0060857148 0.0013523811 0.71000004
-0.010653335 0.0083866678 0.71400011
-0.0074736518 0.0074719582 0.71333343
-0.0029809526 0.0071800002 0.71139997
0.0020304765 0.0060971431 0.71133339
-0.025160002 0.014280001 0.71400005
-0.021872383 0.013448382 0.71320003
-0.017489087 0.012684249 0.71261555
-0.01265091 0.011538357 0.71272737
-0.0077880956 0.010495239 0.71100003
-0.040573336 0.019266669 0.71400011
-0.037191026 0.018740682 0.71371436
-0.033064976 0.017999578 0.71177781
-0.027122859 0.016272701 0.71200007
-0.022636194 0.016128384 0.71160001
-0.017580954 0.015552382 0.71000004
-0.089933336 0.023666669 0.71000004
-0.041865338 0.022699242 0.7136001
-0.037720688 0.022205036 0.71271437
-0.089933336 0.02569524 0.71000004
-0.046240002 0.028560001 0.71400005
-0.042581473 0.027010188 0.71315384
-0.038263738 0.027426271 0.71108335
-0.034485716 0.029076193 0.71000004
-0.090893343 0.033773337 0.71400011
-0.088400006 0.034000002 0.71400005
-0.08228001 0.034680001 0.71400011
-0.078200012 0.034000006 0.71400011
-0.035838097 0.030428573 0.71000004
-0.034485716 0.030428573 0.71000004
-0.086360008 0.036040001 0.71400011
-0.082110003 0.037230004 0.71400011
-0.077249087 0.037552238 0.71292323
-0.072403975 0.039246831 0.7105
-0.081736006 0.043384004 0.71400005
-0.077443816 0.042118099 0.7132858
-0.072499789 0.042688362 0.7114445
-0.067909144 0.04288267 0.71020001
0.062885717 0.043952387 0.71000004
-0.083640009 0.045560002 0.71400005
-0.076704003 0.047464002 0.71400017
-0.072709382 0.047567468 0.71350014
-0.067769945 0.047438394 0.71156269
-0.063336514 0.048911117 0.71000004
0.058828574 0.049361907 0.71000004
0.062820151 0.047600374 0.71161544
-0.070720002 0.051000003 0.71400005
-0.066909298 0.051286429 0.71325004
-0.062326506 0.052166514 0.71133345
-0.058026396 0.052022316 0.71200013
0.054771431 0.054771431 0.71000004
0.05764921 0.052673336 0.71211118
0.063210472 0.05233619 0.7136668
0.065960005 0.053040005 0.71400005
-0.053072196 0.057958286 0.71260005
0.054797143 0.057503812 0.71033335
0.057814114 0.057195935 0.71263653
0.062507689 0.056963079 0.71400017
0.066640005 0.055760004 0.71400005
-0.011045308 -0.0020537418 0.71842867
-0.0089019053 -0.00068476197 0.71900004
-0.016662542 0.003880318 0.71900004
-0.01216121 0.002868508 0.71726662
-0.0080311913 0.003074524 0.71775007
-0.0020523812 0.0038758735 0.71833342
0.001776381 0.0024592385 0.71759999
-0.02120794 0.0075241281 0.71833342
-0.017779367 0.0075206361 0.71800005
-0.012826244 0.0072091008 0.71711111
-0.031909909 0.013832191 0.71900004
-0.027114844 0.01253008 0.71775001
-0.022943813 0.011421634 0.7175715
-0.018411431 0.010228572 0.71600002
-0.046906192 0.019515716 0.71900004
-0.042658102 0.017909335 0.71780002
-0.037635714 0.016422382 0.71850008
-0.032801434 0.015716668 0.71750003
-0.029362859 0.015705716 0.71700001
-0.051357146 0.023966668 0.71900004
-0.047404956 0.022676952 0.71720004
-0.04364191 0.02113905 0.71600002
-0.055465717 0.028760001 0.71900004
-0.052366432 0.028065002 0.71875
-0.048216909 0.026836909 0.71641672
-0.10188904 0.033506192 0.71799999
-0.097579852 0.033133816 0.71733332
-0.09342096 0.034095243 0.71600002
-0.087056518 0.034777146 0.71600002
-0.051214289 0.030728573 0.71700001
-0.049848575 0.030728573 0.71700001
-0.10281213 0.037466258 0.71900004
-0.09814921 0.037890162 0.71900004
-0.090946674 0.037611432 0.71800005
-0.087538421 0.03797143 0.71622229
-0.083874293 0.038868573 0.71600002
-0.1061381 0.040400956 0.71900004
-0.10385557 0.040857464 0.71900004
-0.091073342 0.040400956 0.71900004
-0.087759599 0.04212055 0.71828574
-0.082900144 0.041401368 0.71600002
-0.079782866 0.044323813 0.71600002
-0.081942856 0.04575143 0.71700001
-0.079156667 0.045719527 0.71650004
-0.073645718 0.05114286 0.71600002
-0.067600965 0.053036511 0.71700001
0.060689531 0.05250667 0.71600002
-0.065052383 0.056835242 0.71900004
-0.062254291 0.056631643 0.7183333
-0.05741686 0.057415307 0.71768749
-0.016927525 -0.0024776196 0.72250009
-0.01335746 -0.0032838099 0.72133338
-0.0077284528 -0.0024053573 0.72137511
-0.0041257143 -0.00068761909 0.72200006
-0.022148384 0.0039887624 0.7222001
-0.018390691 0.0022116404 0.72111118
-0.014400001 0.0006857143 0.72000003
-0.0066342866 0.0011434922 0.72066677
-0.0029755561 0.0017537565 0.72100002
-0.031674288 0.0089514293 0.72300005
-0.026966883 0.007867408 0.72188896
-0.023346987 0.007552064 0.72100008
-0.046134289 0.014460001 0.72300005
-0.042255051 0.014176573 0.7226001
-0.037303813 0.013235953 0.72200012
-0.033035878 0.011824233 0.72100008
-0.029055877 0.010752383 0.72066677
-0.051669609 0.018214528 0.72175014
-0.047535002 0.01698786 0.72075009
-0.043200001 0.01577143 0.72000003
-0.039085716 0.01577143 0.72000003
-0.11620763 0.024066668 0.72200006
-0.11483239 0.024066668 0.72200006
-0.056852266 0.022842741 0.72137511
-0.052403625 0.022360574 0.72020018
-0.12807429 0.029608574 0.72300005
-0.1232543 0.02892 0.72300005
-0.1170035 0.028219368 0.72266674
-0.11298881 0.027996268 0.72238469
-0.10748547 0.02766248 0.72253346
-0.10319487 0.02844362 0.72140008
-0.056735624 0.025963051 0.72120011
-0.053485718 0.026057145 0.72000003
-0.12766115 0.031812005 0.72300005
-0.12255135 0.032358967 0.72291678
-0.11787692 0.03218 0.72275007
-0.11290017 0.032355241 0.7228334
-0.10765302 0.032637626 0.7215001
-0.10386668 0.032714289 0.72066677
-0.12660953 0.035781432 0.72250009
-0.12236226 0.036364675 0.72290915
-0.11797525 0.036264762 0.72300005
-0.11206501 0.036322147 0.72300005
-0.10788143 0.037516478 0.7215001
-0.10272 0.037988573 0.72000003
-0.096457146 0.037485719 0.72000003
-0.093257159 0.037714288 0.72000003
-0.10134857 0.041554287 0.72000003
-0.097600013 0.041371424 0.72000009
-0.093257152 0.040457144 0.72000003
-0.072200008 0.052946672 0.72200006
-0.020772383 -0.0062314291 0.727
-0.018668573 -0.0062228576 0.72600001
-0.021862177 -0.0025723814 0.727
-0.018655716 -0.0041461908 0.72549999
-0.035360001 0.0048533338 0.72800004
-0.032541908 0.0041533336 0.72700012
-0.02747939 0.0030621095 0.72649997
-0.022802144 0.0017266667 0.72549999
-0.046517145 0.0090257153 0.72900003
-0.042313337 0.0090174619 0.72833335
-0.03703 0.0081314305 0.72675002
-0.032662448 0.0072031305 0.72528577
-0.029230163 0.006674604 0.72500008
-0.052424099 0.013451526 0.72810006
-0.047620244 0.012104366 0.72641671
-0.042874195 0.011754573 0.72609997
-0.037755083 0.010819841 0.72516674
-0.14713834 0.018045001 0.72875005
-0.14384922 0.018182542 0.72500008
-0.066651434 0.018051429 0.72900003
-0.057160575 0.018130098 0.72660011
-0.054202385 0.016916668 0.72500002
-0.14695716 0.020597145 0.72900003
-0.14246747 0.022476671 0.72616667
-0.13776451 0.023208031 0.72585714
-0.13413715 0.023508573 0.72600001
-0.067252912 0.022880636 0.7280001
-0.062127896 0.022393065 0.72828573
-0.057675004 0.020375954 0.72525007
-0.1513543 0.029160002 0.72900003
-0.14753573 0.028986428 0.72900003
-0.142179 0.027664697 0.72621429
-0.13736813 0.027862102 0.72773331
-0.13298477 0.027426671 0.72599995
-0.12514858 0.026274288 0.72600001
-0.12197417 0.026951073 0.72562498
-0.11881684 0.026940636 0.72533339
-0.10564286 0.02554762 0.72500002
-0.10426191 0.02554762 0.72500002
-0.067345716 0.025688574 0.72900003
-0.063122861 0.02566508 0.72833341
-0.1513543 0.031242859 0.72900003
-0.14718857 0.031937145 0.72900003
-0.14166716 0.03234762 0.72650003
-0.1372481 0.03257921 0.72783345
-0.13204414 0.03249196 0.72588891
-0.12739286 0.033142861 0.72500002
-0.11669049 0.033833336 0.72500002
-0.14144 0.036053333 0.72800004
-0.13746859 0.036102857 0.72900003
-0.13169464 0.036812499 0.72587496
-0.128057 0.037541755 0.72550005
-0.12331905 0.039080955 0.72500002
-0.11684468 0.037843525 0.72509998
-0.11346826 0.038896829 0.72500008
-0.12584001 0.040794287 0.72600001
-0.12232604 0.04077556 0.7256667
-0.11750215 0.040780239 0.72575003
-0.085397147 0.048600003 0.72900003
-0.082875431 0.048725337 0.7288
-0.079733342 0.049226671 0.72800004
-0.025794288 -0.0062742862 0.73200005
-0.02370286 -0.0062742862 0.73200005
-0.027391795 -0.0026272528 0.73169231
-0.024366667 -0.0041771429 0.73100001
-0.042302452 0.0038820414 0.7315715
-0.037887339 0.0034818095 0.7313
-0.032751434 0.0020904765 0.73166674
-0.029260479 0.00069666671 0.73150003
-0.04740572 0.0083657149 0.73200005
-0.042497303 0.0069665085 0.73150009
-0.038290478 0.0066138101 0.73100001
-0.057244446 0.012564287 0.73300004
-0.052670956 0.010812858 0.73250008
-0.15728572 0.018874288 0.73400003
-0.15128002 0.018822858 0.73200005
-0.14968096 0.018797144 0.73100001
-0.062200639 0.017737145 0.73199999
-0.058131907 0.016360477 0.73100001
-0.16078097 0.024466669 0.73400003
-0.1566644 0.022600001 0.73239994
-0.1526397 0.022303969 0.7318334
-0.14835003 0.022983715 0.7313
-0.066138096 0.020189526 0.73100001
-0.064745717 0.020885717 0.73100001
-0.16078097 0.027262859 0.73400003
-0.15684824 0.027291344 0.73136365
-0.15284014 0.027155835 0.731125
-0.14782445 0.026223179 0.73100007
-0.16008191 0.030059049 0.73400003
-0.15713668 0.032125432 0.73330003
-0.1528147 0.033151843 0.73171431
-0.14759238 0.034113336 0.73100001
-0.14411144 0.034113336 0.73100001
-0.15253431 0.035952382 0.73300004
-0.14771895 0.036233217 0.73162502
-0.14411144 0.036201909 0.73100001
-0.08815001 0.047626197 0.73110002
-0.03589429 -0.00070380955 0.73900002
-0.033036195 -0.00070285721 0.73800009
-0.036733657 0.0011692065 0.73700011
-0.032944765 0.00070095243 0.73600006
-0.057517149 0.0091185719 0.73650002
-0.052924763 0.0085624773 0.73700005
-0.17595239 0.014780001 0.73900002
-0.17196667 0.013822223 0.73800004
-0.16821887 0.014192954 0.73780006
-0.16413382 0.014730001 0.73650002
-0.065277144 0.014740001 0.73700005
-0.061832111 0.013327892 0.73657149
-0.059621431 0.011222381 0.73650002
-0.18510191 0.018299049 0.73900002
-0.1836943 0.018299049 0.73900002
-0.17560048 0.017947145 0.73900002
-0.17222722 0.017573653 0.73811114
-0.16775525 0.01754762 0.73700005
-0.16287859 0.017551273 0.73716676
-0.1592243 0.018236667 0.73650002
-0.066307858 0.016488809 0.73675001
-0.063786671 0.016121905 0.73600006
-0.18580572 0.020410478 0.73900002
-0.18211073 0.021818096 0.73899996
-0.17763649 0.022452211 0.73881817
-0.17252819 0.02260134 0.73700017
-0.16775525 0.022460952 0.73700011
-0.16283725 0.022132045 0.73607147
-0.15911619 0.021028573 0.73600006
-0.18087906 0.026744764 0.73900002
-0.17750077 0.02716705 0.73900002
-0.17260444 0.027267968 0.73754549
-0.16778119 0.027379045 0.73711115
-0.16378614 0.027548576 0.73628581
-0.17524858 0.030263811 0.73900002
-0.17188701 0.031187937 0.73866671
-0.16774128 0.031827834 0.73899996
-0.16283868 0.032136858 0.73723084
-0.15911619 0.03434667 0.73600006
-0.16258001 0.03589429 0.73900002
-0.15734953 0.037013333 0.73675001
-0.15298954 0.0380021 0.73620003
-0.15202287 0.040117145 0.73900002
-0.040334288 -0.00070761907 0.74300003
-0.038866669 -0.00070666673 0.74200004
-0.04017143 0.00070476194 0.74000001
-0.038761906 0.00070476194 0.74000001
-0.19034953 0.0084914295 0.74300003
-0.18757002 0.0079552382 0.74250007
-0.18373334 0.0091866674 0.74200004
-0.19601049 0.014860001 0.74300003
-0.19176477 0.014152383 0.74300003
-0.18735145 0.012724764 0.74233335
-0.182605 0.01271857 0.74192864
-0.17754239 0.013222857 0.74050003
-0.1740762 0.012685715 0.74000001
-0.2013884 0.018539621 0.74300003
-0.19724882 0.017513573 0.74300003
-0.19281952 0.017541621 0.74270004
-0.18781419 0.017628785 0.74044442
-0.18201217 0.017283097 0.74074996
-0.17844193 0.017631568 0.74057144
-0.20153573 0.020860478 0.74250007
-0.19724795 0.020502541 0.74233341
-0.19187161 0.021450318 0.74250007
-0.18749049 0.022789007 0.74136364
-0.18288572 0.023961907 0.74000001
-0.17900953 0.021847621 0.74000001
-0.18657558 0.026653653 0.74300003
-0.18321934 0.027731158 0.74114287
-0.17830478 0.028049527 0.74000001
-0.18147755 0.030977337 0.74260008
-0.17701921 0.032014765 0.74150008
-0.17321494 0.033609208 0.74033344
-0.16879049 0.034180954 0.74000001
-0.16420953 0.034533337 0.74000001
-0.16770574 0.036088578 0.74300003
-0.15434286 0.04017143 0.74000001
-0.042658575 -0.00071095244 0.74650002
-0.04274286 0.00071238098 0.74800003
-0.20017906 0.0092609534 0.74800003
-0.1987543 0.0092609534 0.74800003
-0.20260398 0.012996363 0.74690926
-0.19754295 0.012644129 0.74593335
-0.19228098 0.011352382 0.74500006
-0.20578635 0.017800955 0.74766672
-0.20256907 0.016673813 0.74500006
-0.19937621 0.019157143 0.74500006
-0.20560287 0.020631431 0.74700004
-0.2013343 0.022054287 0.74700004
-0.19842216 0.022403095 0.74675006
-0.19297889 0.023749525 0.74660009
-0.19098477 0.027758732 0.74733341
-0.18861048 0.028001336 0.74620003
-0.19020572 0.030632382 0.74800003
-0.18714809 0.03131064 0.74716663
-0.18230787 0.033471193 0.74774998
-0.17856571 0.033370003 0.74550009
-0.046428576 -0.00071428576 0.75000006
-0.045000002 -0.00071428576 0.75000006
-0.047051053 0.0018586669 0.75080007
-0.044523813 0.0016666668 0.75000012
-0.22111905 0.0083666677 0.75300002
-0.21872859 0.0078885723 0.75300002
-0.21173644 0.0084264297 0.75300002
-0.20686431 0.0075934292 0.75209999
-0.20294699 0.0078606354 0.75033343
-0.21586001 0.012908572 0.75300002
-0.21259163 0.012040954 0.75259995
-0.20768848 0.01216 0.75111109
-0.21586001 0.015060001 0.75300002
-0.21235049 0.015398096 0.75200003
-0.20814288 0.01557143 0.75000006
-0.20142859 0.02357143 0.75000006
-0.19707939 0.023116192 0.75066674
-0.20151716 0.025578097 0.75300002
-0.19711584 0.026700836 0.75262511
-0.19367468 0.027586287 0.75040001
-0.19257811 0.032365717 0.75100005
-0.18714286 0.03357143 0.75000006
-0.22222275 0.0064722626 0.75512511
-0.21736214 0.006915092 0.75515395
-0.21355717 0.0069507947 0.75500005
-0.22074763 0.011504762 0.75500005
-0.21828234 0.012018369 0.75500005
-0.20678936 0.027417907 0.75760001
-0.2027024 0.028288571 0.75675005
-0.19888264 0.028412145 0.7552501
