# .PCD v0.7 - Point Cloud Data file format
VERSION 0.7
FIELDS x y z
SIZE 4 4 4
TYPE F F F
COUNT 1 1 1
WIDTH 520
HEIGHT 1
VIEWPOINT 0 0 0 1 0 0 0
POINTS 520
DATA ascii
-0.050285719 0.027489526 0.70400006
-0.048944764 0.027489526 0.70400006
-0.057535436 0.024658097 0.70740002
-0.052638236 0.023149392 0.70599997
-0.072822861 0.028994288 0.708
-0.067099184 0.028399324 0.70757145
-0.062410638 0.028062064 0.70716667
-0.057947304 0.027626513 0.70749998
-0.052677494 0.027593508 0.70663637
-0.049153335 0.028953334 0.70700002
-0.073347308 0.031691432 0.70800006
-0.067352705 0.032215811 0.70766675
-0.06247858 0.03219381 0.70666671
-0.058898669 0.030864766 0.7076
-0.072770603 0.037733097 0.70749992
-0.06776572 0.036074288 0.708
-0.071474291 0.041131433 0.708
-0.040526196 0.01267889 0.71316671
-0.037347622 0.012222858 0.71300018
-0.034631431 0.013580954 0.71300006
-0.042288136 0.017541084 0.71386671
-0.037378341 0.017670559 0.71358341
-0.034655716 0.017668573 0.71350002
-0.036040001 0.021080002 0.71400005
-0.034680001 0.021080002 0.71400005
-0.072352387 0.033326533 0.7100001
-0.06829524 0.034485716 0.71000004
-0.061029531 0.034582861 0.71200001
-0.056672305 0.033079926 0.71125001
-0.052466523 0.032422572 0.71261543
-0.049605243 0.031258576 0.71350002
-0.067748748 0.038336631 0.71072733
-0.062532723 0.037225544 0.71300012
-0.05811929 0.036367383 0.71375
-0.051680002 0.036040001 0.71400005
-0.067757383 0.041946668 0.71325004
-0.062657148 0.040702861 0.71400011
-0.040232383 0.01977524 0.71600002
-0.041247763 0.022720955 0.71671432
-0.037701908 0.022689527 0.71650004
-0.03308123 0.023325035 0.71728581
-0.029444763 0.023966668 0.71900004
-0.041751113 0.026009209 0.71866673
-0.037645083 0.026009208 0.71866673
-0.034052577 0.026121909 0.71800005
-0.049848575 0.034142859 0.71700001
-0.062053338 0.038868573 0.71600002
-0.056788336 0.038029764 0.71625006
-0.052784763 0.037955653 0.71714294
-0.049987622 0.036292382 0.71900004
-0.066599369 0.043869209 0.71600002
-0.06265948 0.043414608 0.71600002
-0.057363514 0.042342443 0.71706241
-0.053215053 0.04117772 0.71820009
-0.067264363 0.046569664 0.7175715
-0.062455926 0.04628123 0.71614289
-0.05864381 0.045687623 0.71600002
-0.048000004 0.029485716 0.72000003
-0.042769946 0.028589632 0.72044456
-0.037351295 0.028921362 0.72057158
-0.032126859 0.027872384 0.7208001
-0.028865401 0.028181909 0.72166675
-0.047528766 0.032557145 0.72120011
-0.042633336 0.032318577 0.72200006
-0.037298862 0.032207813 0.72260004
-0.03208743 0.031536575 0.72300005
-0.028217781 0.030971434 0.72266674
-0.050057147 0.038400002 0.72000003
-0.047337409 0.037333596 0.72227275
-0.042680539 0.037173513 0.72281241
-0.037802227 0.038489208 0.72166675
-0.034971431 0.038400002 0.72000003
-0.051120482 0.041514762 0.72050005
-0.047786862 0.041176572 0.72300005
-0.042175002 0.041486431 0.72300005
-0.038250208 0.041790076 0.72271436
-0.066760004 0.048866034 0.72266674
-0.064037144 0.048888575 0.72300005
-0.03659524 0.033142857 0.72500002
-0.033833336 0.033142857 0.72500002
-0.037285712 0.035904761 0.72499996
-0.051809844 0.044211116 0.72533339
-0.047464088 0.043912251 0.72528571
-0.043980639 0.043750793 0.72533339
-0.062142864 0.049023814 0.72500002
-0.051272862 0.046421431 0.72750002
-0.047420319 0.046495877 0.72866672
-0.022369526 -0.00069904764 0.73400003
-0.047535241 0.0048933337 0.73400003
-0.044040002 0.0048933337 0.73400003
-0.036350477 0.0048933337 0.73400003
-0.022369526 0.0013980954 0.73400003
0.023967303 0.0044225403 0.73300004
0.025811907 0.0041871434 0.73250002
-0.052148957 0.0085283807 0.73400003
-0.04747048 0.0076780953 0.73300016
-0.04260318 0.0076812706 0.73333335
-0.038098097 0.0066409525 0.73400003
0.017476192 0.0076895244 0.73400003
0.02376762 0.006291429 0.73400003
0.025864763 0.006291429 0.73400003
-0.065710485 0.014680001 0.73400003
-0.061809428 0.012834762 0.73250002
-0.057258852 0.012867825 0.73321444
-0.052285716 0.011154287 0.73200005
-0.047645148 0.011562668 0.73140001
-0.04322286 0.011154287 0.73200005
-0.072070166 0.018366031 0.73233342
-0.067239366 0.017448466 0.73288894
-0.062674865 0.017409718 0.73119998
-0.058519527 0.016023334 0.73150003
-0.072669208 0.022178037 0.73226678
-0.06756191 0.020895241 0.73133337
-0.064834289 0.020217145 0.73200005
-0.074099049 0.025864763 0.73400003
-0.017428573 0.029977145 0.73200005
-0.016777143 0.030758098 0.73400003
-0.012995048 0.031160383 0.73360002
-0.017595239 -0.010557144 0.73900002
-0.021772593 -0.0077264551 0.73744446
-0.017557779 -0.0077264556 0.73744446
-0.012663572 -0.007035953 0.73874998
-0.0035190478 -0.0084457146 0.73900002
-0.047507148 -0.0010557143 0.73900002
-0.041947052 -0.0018299049 0.73899996
-0.037301905 -0.0014076193 0.73900002
-0.033782862 -0.0014076191 0.73900002
-0.026040955 -0.0014076191 0.73900002
-0.022446329 -0.003107415 0.73650014
-0.018058453 -0.0033320242 0.73637503
-0.014740001 -0.0049133338 0.73700005
-0.056164004 0.0035190478 0.73900002
-0.052769843 0.0035175665 0.73877776
-0.047751911 0.0021060321 0.73733342
-0.042272244 0.0024278392 0.73692316
-0.03779754 0.0026892859 0.73725003
-0.033133078 0.0026156711 0.73736364
-0.026040955 0.00070380955 0.73900002
-0.022430478 0.00070095243 0.73600006
-0.018925715 0.00070095243 0.73600006
-0.075307623 0.0091495244 0.73900002
-0.071788579 0.0091495244 0.73900002
-0.067800321 0.0091495244 0.73900002
-0.062518239 0.0081269396 0.73757148
-0.057550557 0.0077188108 0.73691672
-0.052940242 0.0066611907 0.73625004
-0.038552385 0.0063085719 0.73600006
0.017991111 0.0079441275 0.73600006
0.022442263 0.0084160715 0.73637503
0.026672382 0.0084228581 0.73700005
-0.076254293 0.013562042 0.73842865
-0.072222598 0.012833509 0.73754549
-0.067570493 0.012329661 0.73685724
-0.063786671 0.011215239 0.73600006
-0.0574781 0.010514286 0.73600006
0.01736643 0.011753334 0.73675001
0.022247516 0.011475662 0.73766667
0.026708573 0.011246666 0.73800004
-0.080938101 0.018299049 0.73900002
-0.077450745 0.017430304 0.73745453
-0.072573572 0.016477857 0.73625004
-0.06939429 0.016121905 0.73600006
0.0077104769 0.018925715 0.73600006
0.011230476 0.018951429 0.73700005
-0.080938101 0.021114286 0.73900002
-0.077642582 0.022182763 0.73710006
0.0049116672 0.022454049 0.73675001
0.0077242064 0.0224704 0.73725003
0.011581429 0.020706192 0.73700005
-0.076507621 0.025970478 0.73700005
0.0084457146 0.026040955 0.73900002
-0.020841589 0.033488575 0.73766673
-0.018025398 0.032538414 0.73733342
-0.012722647 0.033322018 0.73744446
-0.007845195 0.032467365 0.7367273
-0.021062382 0.037210003 0.73716676
-0.017947894 0.03699987 0.73700011
-0.012336328 0.036406264 0.73714292
-0.007726667 0.035829529 0.73766673
-0.021936193 -0.016275238 0.74300003
-0.017690478 -0.016629048 0.74300003
-0.0021228574 -0.016275238 0.74300003
0.0035380959 -0.016275238 0.74300003
0.0081345243 -0.016623572 0.74275005
0.012498891 -0.016743336 0.74283338
0.017681336 -0.017115621 0.74260008
0.020520953 -0.016275238 0.74300003
-0.047410481 -0.010614286 0.74300003
-0.026181906 -0.010614286 0.74300003
-0.022476956 -0.012582098 0.74213338
-0.01765801 -0.012908226 0.74163646
-0.01286508 -0.012583176 0.74220008
-0.0077774897 -0.01253472 0.74236369
-0.0028261312 -0.01271899 0.74181247
0.0026858416 -0.012862859 0.74200004
0.0075977384 -0.013605835 0.74212503
0.012530911 -0.013558614 0.7421819
0.017330715 -0.014501192 0.74275005
0.020520953 -0.014860001 0.74300003
-0.050948575 -0.0070761908 0.74300003
-0.047217861 -0.0076047629 0.74275005
-0.04244294 -0.0077816672 0.74275005
-0.037478574 -0.0070719058 0.74250007
-0.032511786 -0.0070684534 0.74212503
-0.02757672 -0.0077786255 0.74244452
-0.024711113 -0.0077676196 0.74133337
-0.012694764 -0.0091680959 0.74050003
-0.0077593657 -0.0084647629 0.74066675
-0.0025841272 -0.0084571429 0.74000001
0.0011746034 -0.0086920643 0.74000001
-0.060855243 -0.00070761907 0.74300003
-0.056736004 -0.0015565715 0.74280006
-0.052073341 -0.0026823494 0.74086666
-0.047090717 -0.003705 0.74075007
-0.042794924 -0.0044679367 0.74066675
-0.037352383 -0.0042285714 0.74000001
-0.031984605 -0.0032938099 0.74083328
-0.027790669 -0.0031045715 0.74060005
-0.065808579 0.0042457143 0.74300003
-0.062055465 0.0028812455 0.74238473
-0.05795728 0.0029210886 0.74085724
-0.052857146 0.00070476194 0.74000001
-0.030304763 0.00070476194 0.74000001
-0.028190479 0.00070476194 0.74000001
-0.076819055 0.0091619054 0.74000001
-0.071859054 0.0074807624 0.74120003
-0.067523137 0.0075688441 0.74185717
-0.062723815 0.0063428576 0.74000001
0.031093337 0.0091866674 0.74200004
-0.081626996 0.013876509 0.74100006
-0.078335658 0.012400408 0.74100006
-0.074000008 0.01057143 0.74000001
0.018558731 0.01433016 0.74000001
0.022881906 0.014212519 0.74085718
0.02789524 0.013417619 0.74150002
0.03230837 0.013024015 0.74207145
0.037170671 0.014274669 0.74200004
-0.08175239 0.016209524 0.74000001
0.014840001 0.019080002 0.74200004
0.017840598 0.017841073 0.74187499
0.022342861 0.017393908 0.74240011
0.027572066 0.016967937 0.74233341
0.032524686 0.017676748 0.74241674
0.036625523 0.017393144 0.74240011
0.012896787 0.023669407 0.74187505
0.016971905 0.020507144 0.74250007
0.032047939 0.02097429 0.74233341
0.03594286 0.020438097 0.74000001
0.012009842 0.026134923 0.74166673
-0.020438097 0.03312381 0.74000001
-0.017337143 0.033687618 0.74000001
-0.0063428576 0.030304763 0.74000001
-0.002964 0.032334924 0.74126661
0.00070761907 0.033258099 0.74300003
-0.021575399 -0.021576032 0.74683332
-0.017766774 -0.022033229 0.74622226
-0.012618875 -0.021938881 0.74745464
-0.0078330478 -0.022360479 0.74770015
-0.0034019048 -0.021754924 0.74755561
0.002705524 -0.020932954 0.74760008
0.0082400013 -0.021872384 0.7477144
0.012886321 -0.021951778 0.74790925
0.017804233 -0.022077462 0.74777788
0.020659048 -0.020659048 0.74800003
-0.046304766 -0.016384764 0.74800003
-0.044167623 -0.016384764 0.74800003
-0.031185908 -0.01751543 0.74760002
-0.027462289 -0.016931621 0.74700004
-0.022966772 -0.01823069 0.74577785
-0.017738096 -0.018589525 0.74500006
-0.01278889 -0.017763179 0.74599999
-0.0078117466 -0.01775524 0.7456668
-0.0030773547 -0.018228255 0.7456668
0.0026051854 -0.01823926 0.74611115
0.0075285719 -0.018610096 0.74580008
0.013007937 -0.018684126 0.74500006
0.017738096 -0.018447619 0.74500006
0.022240477 -0.017968334 0.74725002
-0.05149477 -0.011628097 0.74750012
-0.047293812 -0.01244762 0.74675006
-0.042681612 -0.012806489 0.74693745
-0.037858188 -0.01262026 0.74745464
-0.032719105 -0.012803871 0.74681258
-0.027821388 -0.012975498 0.74554551
-0.024833335 -0.014900001 0.74500006
-0.010642858 -0.014900001 0.74500006
-0.0078047626 -0.014900001 0.74500006
-0.07266286 -0.006411429 0.74800003
-0.067676201 -0.006411429 0.74800003
-0.064826667 -0.006411429 0.74800003
-0.056202862 -0.0064028576 0.74700004
-0.053278457 -0.0081689293 0.74587506
-0.048957147 -0.0092238104 0.74500006
-0.037604764 -0.0092238104 0.74500006
-0.032638099 -0.0092238104 0.74500006
-0.072483957 -0.0026843958 0.74784625
-0.067608498 -0.0028478575 0.74725008
-0.062808983 -0.0031527891 0.7470001
-0.057850957 -0.0035566669 0.74683344
-0.054633338 -0.0049666669 0.74500006
-0.076699689 0.0040368261 0.74800003
-0.072536856 0.0028436314 0.74668753
-0.067707054 0.0025544765 0.74519998
-0.064566672 0.0014190477 0.74500006
-0.058890481 0.00070952385 0.74500006
-0.077364579 0.0075512389 0.74800009
-0.074093655 0.0068644448 0.74566674
-0.067404769 0.0063857147 0.74500006
-0.0817312 0.012079763 0.74625009
-0.078757145 0.010642858 0.74500006
0.02412381 0.019157143 0.74500006
0.027696192 0.019174285 0.74566674
0.013509049 0.02239524 0.74650002
0.01792324 0.023186671 0.74680007
0.022600807 0.022274802 0.74700004
0.027888572 0.022340573 0.74700004
0.014900001 0.026252383 0.74500006
0.017447859 0.026705477 0.74775004
-0.046614289 -0.03227143 0.75300002
-0.043745719 -0.03227143 0.75300002
0.0024382861 -0.031410862 0.75300002
0.0076017152 -0.031410862 0.75300002
0.012478287 -0.031410862 0.75300002
0.01721143 -0.031554289 0.75300002
0.020797145 -0.031554289 0.75300002
-0.025566986 -0.025566986 0.75266671
-0.022191748 -0.025772385 0.75166672
-0.017265717 -0.026018733 0.75188893
-0.012163069 -0.026473546 0.75122231
-0.0070365882 -0.026838496 0.7514168
-0.0020051429 -0.026787242 0.75200003
0.0021480955 -0.02721699 0.75200003
0.0071513089 -0.027180957 0.75099999
0.012158017 -0.027178019 0.75091672
0.017176252 -0.027197445 0.75143754
0.021266034 -0.026761908 0.75266671
-0.068128578 -0.020797145 0.75300002
-0.051634289 -0.020797145 0.75300002
-0.047315717 -0.021507382 0.75275004
-0.042311437 -0.021514287 0.75300002
-0.03729143 -0.020797145 0.75300002
-0.03225778 -0.020787939 0.75266671
-0.026494561 -0.021584356 0.75185722
-0.023095241 -0.023095241 0.75000012
-0.015000001 -0.02357143 0.75000006
-0.0011904764 -0.023095241 0.75000012
0.0021428575 -0.023000002 0.75000006
0.0057142861 -0.022857144 0.75000006
0.012142858 -0.02357143 0.75000006
0.022333216 -0.022333214 0.75037503
0.02725143 -0.022948571 0.75300002
-0.071513526 -0.016194288 0.7524001
-0.067372084 -0.017202083 0.75256258
-0.062468749 -0.01700208 0.75236368
-0.057182498 -0.016708791 0.75269246
-0.052446764 -0.017626192 0.75229996
-0.047504 -0.018172955 0.75119996
-0.042047862 -0.018073335 0.75150001
-0.037184604 -0.017878257 0.75083339
-0.033236668 -0.018227143 0.75050002
-0.028233811 -0.01894143 0.75050002
-0.072388895 -0.012183812 0.75255567
-0.067277625 -0.012168096 0.75150001
-0.062253337 -0.012165715 0.7513333
-0.057219692 -0.012160319 0.75100005
-0.05245715 -0.013864382 0.75040001
-0.048809528 -0.014523811 0.75000012
-0.036428574 -0.015000001 0.75000006
-0.076822996 -0.006649388 0.75185716
-0.072442152 -0.0080502387 0.75125003
-0.067142859 -0.0085714292 0.75000006
-0.062161699 -0.007859895 0.75022227
-0.058261592 -0.0077100531 0.75111115
-0.085971668 -0.0014326192 0.75225008
-0.08247143 -0.0014342859 0.75300002
-0.077707723 -0.0022896191 0.75130004
-0.072857149 -0.0035714288 0.75000006
-0.087600961 0.0021496972 0.75227278
-0.082422957 0.0021497358 0.75255555
-0.078128226 0.002145119 0.750875
-0.086276673 0.0074093654 0.75283337
-0.082390241 0.0071635721 0.75225008
-0.079285726 0.0064285723 0.75000012
-0.086057149 0.010757144 0.75300002
-0.083571434 0.011428572 0.75000006
0.026451431 0.025737781 0.75066674
-0.021638095 -0.036786035 0.7573334
-0.017501647 -0.036643118 0.75709093
-0.012617144 -0.035687622 0.75700003
-0.0072066672 -0.035326667 0.75700003
-0.002163175 -0.035311114 0.75666666
0.0024510478 -0.035894863 0.7568
0.0072061908 -0.035303336 0.75650001
0.012624286 -0.035710953 0.75750005
0.016990207 -0.035938781 0.75685722
0.020935239 -0.035373334 0.75800002
-0.051977146 -0.031041907 0.75800002
-0.047738418 -0.031426035 0.75566673
-0.02631524 -0.031361908 0.75700003
-0.022303812 -0.032376826 0.75544447
-0.017274208 -0.032389447 0.75575006
-0.012240001 -0.032400001 0.75600004
-0.0072036516 -0.032415245 0.75633335
-0.0021586244 -0.032376826 0.75544453
0.0017978573 -0.033446904 0.7552501
0.0068823136 -0.032973472 0.75500005
0.011864286 -0.033435717 0.75500005
0.017257143 -0.033795241 0.75500005
0.022728032 -0.032600138 0.75585723
0.025576668 -0.032422382 0.75650001
-0.057227433 -0.026812954 0.75680006
-0.052664291 -0.027415715 0.75750005
-0.047524229 -0.027361967 0.75606263
-0.042896193 -0.026676193 0.75700003
-0.035373334 -0.025266668 0.75800002
-0.031843543 -0.026690887 0.75742853
-0.027751286 -0.027751433 0.75607699
-0.022290479 -0.028761907 0.75500005
-0.017154424 -0.028864628 0.75500005
-0.01222381 -0.029480955 0.75500005
-0.0074301586 -0.029480955 0.75500005
-0.0028761907 -0.029480955 0.75500005
0.023159621 -0.027763052 0.75520009
0.025748575 -0.026612574 0.75520009
-0.066174053 -0.021578811 0.7552501
-0.062685825 -0.022337886 0.75655562
-0.057645321 -0.022338336 0.75658339
-0.052726261 -0.022714561 0.75542867
-0.047457147 -0.023728574 0.75500005
-0.042441912 -0.023739051 0.75533342
-0.03741524 -0.023025241 0.75550008
-0.032392859 -0.023035716 0.75583339
-0.028338287 -0.023159621 0.75520009
-0.06111905 -0.019414287 0.75500005
-0.058242865 -0.019414287 0.75500005
-0.081252389 -0.0057523814 0.75500005
-0.079814292 -0.006471429 0.75500005
-0.082764134 -0.003598413 0.75566673
-0.08556667 0.0021571431 0.75500005
-0.086525403 0.0059920638 0.75500005
-0.019620001 -0.045780003 0.76300001
-0.013806667 -0.045780003 0.76300001
-0.0050866669 -0.045780003 0.76300001
0.0087200012 -0.045780003 0.76300001
0.012716668 -0.046143338 0.76300001
0.015744446 -0.046264451 0.76300001
0.022526667 -0.045780003 0.76300001
0.025433335 -0.045780003 0.76300001
-0.026160002 -0.041420002 0.76300001
-0.02217181 -0.041880384 0.76080006
-0.017469265 -0.042655934 0.7614547
-0.012331746 -0.042799689 0.76166677
-0.0069714296 -0.042560954 0.76260006
-0.0023876193 -0.042458098 0.76300007
0.0021774606 -0.042110484 0.76233339
0.007261429 -0.042846188 0.76249999
0.012346137 -0.042849202 0.7625556
0.017361647 -0.042711604 0.76245469
0.022480741 -0.042786777 0.76144451
0.025745716 -0.042427622 0.7615
-0.038513336 -0.035606667 0.76300001
-0.032492384 -0.037060004 0.76300007
-0.02753213 -0.037693907 0.76206684
-0.023161907 -0.038361907 0.76000011
-0.016941145 -0.039530478 0.76020002
-0.012131428 -0.038568579 0.76050007
-0.0072432659 -0.037977558 0.76057154
-0.0021756615 -0.038441911 0.76155561
0.001967075 -0.038819596 0.76085728
0.0072435718 -0.038391992 0.7605834
0.012133691 -0.03857512 0.76062512
0.017622856 -0.038867727 0.76044458
0.022589007 -0.037867624 0.76063645
0.025987891 -0.037377015 0.7610001
-0.042368986 -0.032425582 0.76142859
-0.039240003 -0.034153335 0.76300001
-0.03269048 -0.032690901 0.76277781
-0.028071547 -0.033141311 0.76062512
-0.042008098 -0.02897143 0.76050007
-0.037842929 -0.027581433 0.76207167
-0.033448957 -0.028525908 0.76020002
0.0073142862 -0.050468575 0.76800001
0.013897143 -0.051931433 0.76800001
0.016817858 -0.050817862 0.76775002
0.022308571 -0.051565718 0.76800001
-0.021699049 -0.046567626 0.76800001
-0.016065953 -0.046735954 0.76675004
-0.011982722 -0.047411297 0.76585728
-0.0075414828 -0.047263596 0.76611114
-0.0021869841 -0.047412176 0.76588899
0.0021921694 -0.047488678 0.76711118
0.006998667 -0.04768648 0.76559997
0.012094286 -0.048231434 0.76500005
0.01807905 -0.047751427 0.7661112
0.022339622 -0.048041336 0.76660007
-0.021914288 -0.04455905 0.76700002
-0.016757144 -0.044442859 0.76500005
-0.0087428577 -0.044442859 0.76500005
-0.001457143 -0.044442859 0.76500005
0.0021857144 -0.044442859 0.76500005
0.018214287 -0.044442859 0.76500005
-0.036185719 -0.036185715 0.76500005
-0.033514291 -0.037157144 0.76500005
-0.028414287 -0.038614288 0.76500005
-0.040123813 -0.0320981 0.76600003
-0.036975 -0.032603577 0.76499999
-0.038614288 -0.02987143 0.76500005
0.022733334 -0.055000003 0.77000004
0.0022000005 -0.050600003 0.7700001
0.0080769844 -0.051879525 0.77083337
0.01217905 -0.051213719 0.77039999
0.018610161 -0.052402854 0.7713334
0.023062859 -0.05244267 0.77120006
0.026155557 -0.051088896 0.7700001
-0.019800002 -0.047666669 0.77000004
0.024262859 -0.049260955 0.77200001
0.026923431 -0.048697527 0.77240002
0.019190477 -0.055357147 0.77500004
0.021460002 -0.055500004 0.77700001
0.0081190486 -0.053880956 0.77500004
