# .PCD v0.7 - Point Cloud Data file format
VERSION 0.7
FIELDS x y z
SIZE 4 4 4
TYPE F F F
COUNT 1 1 1
WIDTH 800
HEIGHT 1
VIEWPOINT 0 0 0 1 0 0 0
POINTS 800
DATA ascii
-0.17658953 0.073456198 0.66300005
-0.17406383 0.073456198 0.66300005
-0.17680001 0.075140007 0.66300005
-0.1742743 0.075140007 0.66300005
-0.19511144 0.082085721 0.66300005
-0.19120806 0.081913508 0.66300011
-0.18727505 0.081911072 0.66276932
-0.18294802 0.081380002 0.66240013
-0.19068727 0.086972199 0.66080004
-0.1881703 0.087097533 0.66079998
-0.18146573 0.073898099 0.667
-0.17727068 0.072048895 0.66555554
-0.17248912 0.073279373 0.66777778
-0.16680571 0.073852859 0.66850007
-0.16247144 0.073271438 0.66900003
-0.19570002 0.079166673 0.66500002
-0.19204076 0.078181483 0.66500002
-0.18804927 0.07783629 0.66645461
-0.18209468 0.077912197 0.66620004
-0.17750023 0.077714145 0.66507691
-0.17191692 0.077555791 0.66663152
-0.16666508 0.07760936 0.66793752
-0.16254313 0.077652909 0.6688183
-0.15992287 0.077731431 0.66900003
-0.20182732 0.082946457 0.6671111
-0.1976994 0.082585089 0.66533339
-0.19418001 0.082713336 0.66500002
-0.18050002 0.081066668 0.66500002
-0.1775312 0.08115834 0.66575003
-0.17359208 0.080755882 0.66766679
-0.16502 0.08091715 0.66900003
-0.16247144 0.08091715 0.66900003
-0.20646003 0.088482864 0.66600001
-0.20283806 0.087473638 0.66556251
-0.19776632 0.087291248 0.66513336
-0.1935889 0.086344451 0.66500002
-0.20656574 0.091125719 0.66600001
-0.20324175 0.091057301 0.66550004
-0.19760001 0.090566672 0.66500002
-0.16240191 0.064832382 0.67400002
-0.17117463 0.068683818 0.67400002
-0.16715603 0.068361215 0.67200005
-0.16309328 0.068129733 0.67307144
-0.15790857 0.068940572 0.67399997
-0.15234542 0.069539681 0.67400002
-0.14763811 0.06996762 0.67400002
-0.18653654 0.073806353 0.67000002
-0.18290131 0.07210476 0.67000008
-0.17930478 0.070828579 0.67000002
-0.17159793 0.07204134 0.67180008
-0.16718096 0.071466662 0.67000002
-0.16212232 0.072712652 0.67057151
-0.15767498 0.072881348 0.67246664
-0.15277335 0.072278477 0.67399997
-0.14722039 0.072843969 0.67230767
-0.14331773 0.073766097 0.67120004
-0.18632382 0.077209532 0.67000002
-0.18398415 0.076784134 0.67000002
-0.16143811 0.07848572 0.67000002
-0.15779744 0.077171728 0.67190003
-0.15469906 0.075102866 0.67400002
-0.14870796 0.075530805 0.67400002
-0.14293334 0.075933337 0.67000002
-0.13773653 0.076234296 0.67266673
-0.13313107 0.075616397 0.67400002
-0.17609145 0.083896004 0.67040008
-0.17260019 0.082958281 0.67145461
-0.16792271 0.0827104 0.67227274
-0.16336066 0.082215883 0.67266673
-0.1598343 0.080238104 0.67400002
-0.17588192 0.086657152 0.67400002
-0.17181653 0.085373342 0.67400002
-0.20199701 0.093293063 0.67028582
-0.19904001 0.094080009 0.67200005
-0.20274386 0.097079113 0.67061108
-0.19786966 0.097378746 0.67180002
-0.17164287 0.064010218 0.67500007
-0.16842857 0.064928576 0.67500001
-0.1607143 0.064928576 0.67500001
-0.15726465 0.063999653 0.67537504
-0.1527988 0.064301647 0.67614293
-0.14659758 0.062807307 0.6767779
-0.14254983 0.062399495 0.67869234
-0.13817114 0.063588902 0.67900008
-0.17250001 0.067285724 0.67500007
-0.16842857 0.066214293 0.67500001
-0.1607143 0.066857144 0.67500001
-0.15717858 0.066535719 0.67500001
-0.15260631 0.066830046 0.67523086
-0.14758803 0.066991054 0.67593342
-0.1424671 0.067042448 0.67688888
-0.13765094 0.067607261 0.67807692
-0.17558667 0.071391754 0.67533338
-0.17430034 0.071391754 0.67533338
-0.153 0.07392858 0.67500001
-0.14592858 0.071357146 0.67500001
-0.142465 0.071702793 0.67546165
-0.13766041 0.0720459 0.67543763
-0.1331989 0.072574593 0.677154
-0.15595025 0.078136437 0.67524999
-0.15268543 0.076865643 0.67646164
-0.13628572 0.076500013 0.67500007
-0.1305 0.075214289 0.67500001
-0.1615774 0.083441913 0.67525011
-0.15698662 0.082354009 0.67556262
-0.1524872 0.08270435 0.67843747
-0.17633882 0.088812619 0.67575002
-0.17237473 0.08789371 0.67515397
-0.16734353 0.087534711 0.67581248
-0.16225496 0.087566495 0.67606246
-0.15720275 0.087420784 0.67593336
-0.1529581 0.086481594 0.67766666
-0.17679662 0.092687219 0.67785722
-0.1728128 0.092856124 0.67706251
-0.1683865 0.092386857 0.67836362
-0.16249678 0.09125068 0.67760009
-0.15820001 0.091045722 0.67800009
-0.14196637 0.058991116 0.68066669
-0.13729525 0.058933336 0.68000001
-0.13226515 0.058915433 0.68279999
-0.12963429 0.059280004 0.68400002
-0.14096509 0.060660325 0.68000001
-0.13713804 0.06186536 0.68046153
-0.13284215 0.062514283 0.68374997
-0.12751715 0.063514292 0.68400002
-0.13567619 0.066380955 0.68000001
-0.13274358 0.067673817 0.68325007
-0.12750235 0.068044677 0.68400002
-0.13145095 0.071682386 0.68216676
-0.12755221 0.072016455 0.68236369
-0.12386732 0.071805082 0.6833334
-0.15283811 0.079657145 0.68000001
-0.12152001 0.05422667 0.68600005
-0.11846739 0.053998336 0.68725002
-0.12691411 0.05868591 0.68620008
-0.12276825 0.057657536 0.68640006
-0.11789739 0.057640001 0.68775004
-0.13001335 0.062502228 0.68600005
-0.12713867 0.061282672 0.68600005
-0.12283792 0.062725537 0.68606246
-0.11763186 0.062737562 0.68618751
-0.11335334 0.062393337 0.68600005
-0.13001335 0.067728899 0.68600005
-0.12609334 0.066640005 0.68600005
-0.12292279 0.06758552 0.6870715
-0.11925239 0.066179052 0.68800002
-0.11253715 0.068700008 0.68700004
-0.12328255 0.070478104 0.68733335
-0.11352096 0.071524769 0.68900001
-0.11605144 0.053754289 0.69000006
-0.1121271 0.053831432 0.69211107
-0.10755037 0.05385774 0.69387507
-0.10262018 0.053020868 0.69354552
-0.11500001 0.057828575 0.69000006
-0.11227115 0.057736885 0.69228572
-0.10758001 0.057420008 0.69299996
-0.10314001 0.057300013 0.69299996
-0.11500001 0.061114289 0.69000006
-0.11222132 0.061795596 0.69212502
-0.1080503 0.061536577 0.69180006
-0.10362001 0.060060006 0.69300002
-0.12025715 0.069000006 0.69000006
-0.11669843 0.06760858 0.69033337
-0.11319239 0.066467628 0.6910001
-0.12158357 0.071898341 0.69100004
-0.11705557 0.07168065 0.69050002
-0.11385048 0.070416197 0.69100004
-0.11152001 0.049785718 0.69700003
-0.10738477 0.04971429 0.69600004
-0.10391905 0.049642861 0.69500005
-0.1117903 0.051584195 0.69620007
-0.10712124 0.051617827 0.69614297
-0.10391905 0.050966669 0.69500005
-0.10568415 0.060674608 0.69500005
-0.061013337 0.024807621 0.70400006
-0.061683815 0.02681905 0.70400006
-0.059672385 0.02681905 0.70400006
-0.064943813 0.032137144 0.70300001
-0.076998889 0.03761654 0.70190918
-0.072602622 0.038388811 0.70100009
-0.076995254 0.041510478 0.70300001
-0.074422859 0.040899049 0.70400006
-0.051245719 0.019554287 0.708
-0.065128572 0.024842858 0.70500004
-0.062442861 0.02439524 0.7050001
-0.057506293 0.023781145 0.70539999
-0.052400004 0.023033908 0.70719993
-0.048548575 0.022925714 0.70800006
-0.066445477 0.027419288 0.70649999
-0.063103624 0.028123051 0.70640004
-0.057494193 0.027738765 0.70690006
-0.052761383 0.02716667 0.70722228
-0.04922286 0.026297145 0.708
-0.066211119 0.030748893 0.70700002
-0.062340479 0.031642195 0.70690006
-0.05992667 0.030300003 0.70700002
-0.070800006 0.039782859 0.708
-0.069451436 0.039782859 0.708
-0.076760009 0.04376667 0.70700002
-0.07336691 0.041732147 0.70674998
0.0081485715 -0.00067904766 0.71300006
0.010864763 -0.00067904766 0.71300006
-0.0071809529 0.0041999999 0.7112
-0.0025555314 0.0031843961 0.71253854
0.0023794447 0.0024927782 0.71375012
0.0074726986 0.0013590477 0.71333337
0.010192858 0.001359524 0.71350002
-0.025160002 0.0088400003 0.71400005
-0.02242524 0.0088338098 0.71350002
-0.018315874 0.0088193659 0.71233338
-0.0070012696 0.0070000007 0.71133339
-0.0038511115 0.0070234924 0.71366668
0.00068000006 0.0074800001 0.71400005
-0.025840003 0.01292 0.71400011
-0.022702953 0.011963525 0.71370012
-0.018282857 0.01151143 0.71100003
-0.0060942862 0.010157144 0.71100003
-0.025840001 0.017000001 0.71400005
-0.023120001 0.017680002 0.71400011
-0.04608826 0.022366669 0.7116667
-0.043594863 0.022680193 0.71300006
-0.025160002 0.021760002 0.71400005
-0.023120001 0.021760002 0.71400005
-0.052190166 0.029144447 0.7116667
-0.047274202 0.027182426 0.71190912
-0.042442594 0.025932111 0.71385729
-0.038760003 0.026520003 0.71400005
-0.061323814 0.034220003 0.71149999
-0.057153467 0.032719944 0.71273345
-0.053081486 0.031940956 0.71355563
-0.048960004 0.030600002 0.71400005
-0.067161597 0.038442541 0.71233338
-0.062494047 0.037361193 0.7132501
-0.057786193 0.036711589 0.71383345
-0.053720005 0.036040001 0.71400005
-0.075162865 0.04401429 0.71100003
-0.072036192 0.043132067 0.71133339
-0.067750886 0.042417828 0.71342868
-0.063409999 0.041480005 0.71400011
-0.059160005 0.040120002 0.71400005
-0.076587789 0.047446668 0.7116667
-0.072982326 0.047021061 0.71322232
-0.067773342 0.046013337 0.71400011
-0.077150896 0.052113067 0.71328586
-0.074120007 0.051000003 0.71400005
0.023281906 -0.0061628576 0.71900004
0.027314287 -0.0061457148 0.71700001
0.019115398 -0.0020484128 0.71683335
0.022659138 -0.0025460608 0.71700001
0.027322799 -0.0027320837 0.71718746
0.030814288 -0.0027390479 0.71900004
-0.025912382 0.0047733337 0.71600002
-0.023866668 0.0047733337 0.71600002
0.0037504765 0.003409524 0.71600002
0.0075061913 0.0040947623 0.71650004
0.012274287 0.0013638097 0.71600002
0.022833336 0.0012314288 0.71780008
0.027166329 0.0027376197 0.71821427
0.030814288 0.0047933338 0.71900004
-0.026627757 0.0075107492 0.71685719
-0.023866668 0.0061371434 0.71600002
-0.0015911113 0.0079555567 0.71600002
0.0031400956 0.0075084767 0.71670002
0.0075266673 0.006157144 0.71833342
-0.03117667 0.012742382 0.71683335
-0.028114764 0.011872477 0.71650004
-0.0061457148 0.012974287 0.71700001
-0.0028719367 0.012172509 0.7179333
0.0020511907 0.011275238 0.71750003
-0.031301338 0.018454859 0.71760005
-0.027737621 0.017961113 0.71616673
-0.0039716191 0.016845144 0.71900004
-0.032001905 0.022418573 0.71875
-0.028205039 0.02215388 0.71728581
-0.046401434 0.029342383 0.71650004
-0.042338096 0.028680956 0.71699995
-0.037609529 0.028720956 0.71800005
-0.032640323 0.026249211 0.71900004
-0.029444763 0.025336193 0.71900004
-0.051537387 0.033789288 0.71675003
-0.047982384 0.032536101 0.7177
-0.042161774 0.031401228 0.71900004
-0.039031431 0.031499051 0.71900004
-0.056598097 0.038186669 0.71600002
-0.052372143 0.037701674 0.71650004
-0.049987622 0.036292382 0.71900004
-0.061882861 0.042960003 0.71600002
-0.05722769 0.042479113 0.71706659
-0.05318534 0.041703053 0.71780008
-0.071158379 0.048514292 0.71742857
-0.067576475 0.047879867 0.71671432
-0.063344166 0.046613213 0.717125
-0.058889531 0.045879051 0.71900004
-0.072584763 0.051357146 0.71900004
0.02537143 -0.0061714291 0.72000003
0.032014925 -0.0025146035 0.72033346
-0.028114287 0.0048000002 0.72000003
0.012394287 0.0041314289 0.72300005
0.018718479 0.0028912385 0.7226001
0.022466399 0.003826123 0.72114295
0.028839048 0.0027495238 0.72100008
0.032339051 0.002063704 0.72244453
-0.030857146 0.0089142863 0.72000003
-0.029142858 0.0072000008 0.72000003
0.0075531751 0.0082382541 0.72083342
0.011981144 0.0064725722 0.72300005
0.018591432 0.0067480006 0.72300005
0.022712065 0.0068828575 0.72266674
0.027107431 0.006467429 0.72240007
-0.0006857143 0.014400001 0.72000003
0.0039003179 0.01261778 0.72266674
0.0068857148 0.011705715 0.72300005
-0.0015100954 0.016888382 0.7208001
-0.033600003 0.024000002 0.72000003
-0.032610394 0.027997058 0.72018194
-0.046971433 0.034628574 0.72000003
-0.042742856 0.034057144 0.72000009
-0.037052859 0.032800101 0.72050005
-0.032959051 0.031358417 0.72100008
-0.050057147 0.038400002 0.72000003
-0.047371857 0.037761908 0.72088897
-0.042608231 0.037727881 0.7226364
-0.037666313 0.036635119 0.72237509
-0.033740003 0.038560003 0.72300005
-0.051565897 0.042836543 0.72018194
-0.047719624 0.041120004 0.72200006
-0.044757146 0.040625717 0.72300005
-0.035117146 0.040625717 0.72300005
-0.033051431 0.040625717 0.72300005
-0.06218572 0.04844429 0.72150004
-0.057640478 0.047119528 0.72049999
-0.070628576 0.051428575 0.72000003
-0.067245245 0.050434764 0.72050005
-0.063948579 0.050196193 0.72200006
-0.017075051 -0.0012495238 0.7288
-0.012467262 -0.0013851192 0.72712505
-0.017341904 0.0013873017 0.72833341
-0.012883811 0.00096990488 0.72720003
0.016571429 0.0048333337 0.72500002
-0.032631435 0.0069428571 0.72900003
0.012727348 0.0083861239 0.7251429
0.017031748 0.0080555566 0.72500002
0.022111429 0.0089823818 0.72550005
0.028009254 0.0084133353 0.72742862
0.032216057 0.0076331981 0.72857153
-0.060402863 0.014580001 0.72900003
-0.059014291 0.014580001 0.72900003
-0.052071434 0.01319143 0.72900003
0.0031784766 0.013971619 0.72620004
0.0077414289 0.012580288 0.72570002
0.012469107 0.012470299 0.72731251
0.017186929 0.012280261 0.72718185
0.021404764 0.010357143 0.72500008
0.02776167 0.010410715 0.72874999
-0.060402863 0.016662858 0.72900003
-0.059014291 0.016662858 0.72900003
-0.00069047621 0.018642858 0.72500002
0.0027654765 0.017287068 0.72608328
0.0076281494 0.017333545 0.72800004
0.011957144 0.01720286 0.72900003
-0.0012432382 0.021140764 0.72539997
0.0029688438 0.021869799 0.72728574
0.0070338785 0.021498915 0.72814292
0.011108572 0.020134287 0.72900003
0.0041657146 0.02638286 0.72900003
0.0062485719 0.025688574 0.72900003
-0.033232383 0.03392667 0.727
-0.043500002 0.039357144 0.72500002
-0.036426805 0.038204491 0.72557145
-0.032935403 0.036850326 0.72549999
-0.029854288 0.035408575 0.72900003
-0.04733 0.043184765 0.72549999
-0.042819209 0.041438259 0.72516674
-0.038666669 0.040738098 0.72500002
-0.060071431 0.049023814 0.72500002
-0.056569528 0.048719369 0.72733343
-0.052656829 0.047809049 0.72750008
-0.049023814 0.046261907 0.72500002
0.018175241 -0.010485715 0.73400003
0.021670477 -0.010485715 0.73400003
-0.020272382 -0.0069904765 0.73400003
-0.01746889 -0.0069876197 0.73366666
-0.013539811 -0.0068403818 0.73280007
0.0034952383 -0.006990477 0.73400009
0.0080328574 -0.0066366671 0.73350006
0.012713525 -0.0075445711 0.73340011
0.017430583 -0.007669948 0.7321111
0.021454969 -0.0080835382 0.73342866
-0.021118572 -0.0022692857 0.73300004
-0.01761388 -0.0038816328 0.73142868
-0.012537501 -0.004179643 0.73137504
0.0048933337 -0.0048933337 0.73400003
0.0076812706 -0.0048888894 0.73333335
0.011139048 -0.0048733335 0.73100001
-0.0454381 0.0048933337 0.73400003
-0.042641908 0.0048933337 0.73400009
-0.037131745 0.0037971432 0.73255557
-0.032468196 0.0032036193 0.73159999
-0.02813725 0.0030221166 0.73255557
-0.020930002 0.00069761905 0.73250002
-0.060817149 0.0090876194 0.73400003
-0.0571821 0.0088080009 0.73400003
-0.052586939 0.0080819055 0.73342866
-0.047119368 0.0079951324 0.73355561
-0.042564448 0.0076742861 0.73266679
-0.037620958 0.0076633333 0.73150003
0.034113336 0.0076580956 0.73100001
0.036459528 0.0081280954 0.73150009
-0.065710485 0.014680001 0.73400003
-0.061750837 0.01255893 0.73262501
-0.057198916 0.012354832 0.73242873
-0.052488338 0.01254008 0.73158336
-0.047585856 0.012244356 0.73171437
-0.042990483 0.011386668 0.73200005
0.023587812 0.012984 0.73280001
0.027903654 0.013256351 0.73250008
0.032724846 0.012532621 0.73108333
0.037488956 0.012682097 0.7316668
-0.066409528 0.017875649 0.73400009
-0.063127242 0.01658286 0.73160005
-0.056442223 0.016723812 0.73166668
-0.052910481 0.016012382 0.73100001
0.014155875 0.017868891 0.73100007
0.016708571 0.016012382 0.73100001
0.020272382 0.016078096 0.73400003
0.029977145 0.01673143 0.73200005
0.032928333 0.017249286 0.73174995
0.037202384 0.017277623 0.73149997
0.041131433 0.016034286 0.73200005
-0.067108572 0.020272382 0.73400003
0.008493524 0.023252765 0.73100001
0.011851567 0.022003405 0.73185718
0.034160003 0.020217145 0.73200005
0.036948577 0.020217147 0.73200005
0.0078433342 0.027363097 0.73199999
0.01188381 0.027961906 0.73400003
-0.031328574 0.034113336 0.73100001
-0.029240001 0.034113336 0.73100001
0.0083885714 0.031457148 0.73400009
-0.031339288 0.037607383 0.73124999
-0.02785293 0.037900414 0.73114294
-0.024059765 0.038357385 0.73225003
-0.04531429 0.043920003 0.73200005
-0.042220242 0.043616906 0.73275
-0.037827265 0.042883214 0.73212498
-0.032406431 0.0421631 0.73175001
-0.027802646 0.042054713 0.73188889
-0.024466669 0.041243814 0.73400003
-0.020861272 -0.011016826 0.7383334
-0.017571431 -0.011246666 0.73800004
-0.014780001 -0.010557144 0.73900002
-0.0018295239 -0.011114477 0.73860008
0.0029714287 -0.012158682 0.73753852
0.0077209529 -0.012636668 0.73699999
0.012487621 -0.012489907 0.7366668
0.017558627 -0.012877778 0.73744446
0.022161387 -0.012199829 0.73763639
0.02593524 -0.010514286 0.73600006
-0.026510162 -0.006803493 0.73900002
-0.022699684 -0.0077225403 0.73711115
-0.01752381 -0.0091123823 0.73600006
-0.012203048 -0.0079950485 0.73640007
-0.0077274842 -0.0073263957 0.73757148
-0.0028115879 -0.0077266684 0.73750007
0.0021042861 -0.0084176194 0.73650002
0.0074300962 -0.008551619 0.73600006
0.011916191 -0.0084114289 0.73600006
0.024533335 -0.0091123814 0.73600006
0.02593524 -0.0091123814 0.73600006
-0.045747623 -0.00070380955 0.73900002
-0.041993972 -0.00070380955 0.73900002
-0.037089843 -0.002265926 0.73788887
-0.031878736 -0.0011717462 0.7383334
-0.027374603 -0.002809365 0.73700011
-0.023665238 -0.0033311909 0.73625004
-0.0077209529 -0.0049133338 0.73700011
-0.061935246 0.0042228573 0.73900002
-0.0573541 0.0037946668 0.73799998
-0.052527711 0.0029981821 0.73718184
-0.04778545 0.0028091162 0.73785722
-0.042332131 0.0019778358 0.73745459
-0.038011815 0.0015424764 0.73640007
-0.032989524 0.00070190488 0.73700011
-0.027348891 0.00070126995 0.73633337
-0.022723809 0.002384762 0.73640007
-0.065454289 0.0091495244 0.73900002
-0.062494561 0.0077231294 0.73728579
-0.057601094 0.0069118375 0.73628581
-0.05187048 0.0063085719 0.73600006
-0.04883302 0.0067758737 0.73600006
-0.081876516 0.014310795 0.73900002
-0.076647311 0.014297461 0.7383334
-0.071850106 0.01391943 0.73820007
-0.067643218 0.012342519 0.73764294
-0.06384445 0.011926351 0.73666668
0.018925715 0.014720001 0.73600006
0.021904763 0.013142859 0.73600006
-0.080938101 0.016187619 0.73900002
-0.076384529 0.017734526 0.73750001
-0.072329104 0.01755471 0.73733336
-0.069067389 0.017178811 0.73625004
0.017724082 0.017924353 0.73600012
0.022642165 0.017667273 0.73663646
0.027349101 0.01753217 0.73633337
0.030841907 0.018925715 0.73600006
-0.076844543 0.022443959 0.73815393
-0.072496586 0.022058669 0.73760003
-0.069488578 0.021057144 0.73700005
0.013718642 0.023331705 0.73600012
0.017534368 0.022443414 0.73641676
0.021918098 0.021916019 0.73800004
0.027517578 0.02228312 0.73745459
0.031312954 0.022188192 0.73720002
0.012759335 0.027200669 0.73610008
0.01715388 0.027183812 0.73728579
0.020410478 0.026040955 0.73900002
0.028778097 0.025970478 0.73700005
0.030181907 0.025970478 0.73700005
-0.00070190488 0.032989528 0.73700011
0.0012634287 0.033270288 0.73700005
0.012431257 0.031427104 0.73627281
0.016845716 0.030883811 0.73700005
-0.0021080954 0.036572859 0.73850006
0.0049533336 -0.020520953 0.74300003
0.0063685719 -0.020520953 0.74300003
0.019105716 -0.020520953 0.74300003
0.022340547 -0.021127485 0.74300009
-0.021575479 -0.016623572 0.74275005
-0.017973525 -0.016841335 0.74300003
-0.011321906 -0.016275238 0.74300003
-0.0077838106 -0.016982859 0.74300003
-0.0028297622 -0.017685004 0.74275005
0.0028275398 -0.017677542 0.74241674
0.0077698422 -0.017660638 0.74166667
0.012720319 -0.017667938 0.74200004
0.0176636 -0.017665504 0.74188894
0.022606589 -0.01766151 0.74175
0.027389934 -0.017282996 0.74285722
0.030427622 -0.016982857 0.74300003
-0.026783403 -0.012431839 0.74285722
-0.022995021 -0.013101686 0.74200004
-0.01764651 -0.014118573 0.74116677
-0.0125767 -0.012861652 0.74193335
-0.0077685723 -0.012713969 0.74150002
-0.0032715155 -0.013408314 0.7409091
0.0021161907 -0.014813334 0.74066675
0.014800001 -0.014800001 0.74000001
0.016209524 -0.014800001 0.74000001
0.023609525 -0.01444762 0.74000001
0.027689008 -0.012913421 0.7420001
0.030950343 -0.012402588 0.74100006
-0.057317145 -0.0063685719 0.74300003
-0.050948575 -0.0063685719 0.74300003
-0.047400162 -0.0070747631 0.74283338
-0.042134766 -0.0074940012 0.74230009
-0.037430901 -0.0077695241 0.74155557
-0.032528579 -0.0077792066 0.74250001
-0.028000478 -0.0082360329 0.74116677
-0.024666669 -0.0091619054 0.74000001
-0.011276191 -0.0091619054 0.74000001
-0.0077523813 -0.0091619054 0.74000001
-0.060855243 -0.00070761907 0.74300003
-0.057167452 -0.0026372294 0.74272728
-0.052285239 -0.0028278572 0.74187493
-0.0474342 -0.0030186151 0.7413637
-0.042401906 -0.0033129673 0.74107695
-0.037822224 -0.004463492 0.74000001
-0.032709908 -0.0038070478 0.74019998
-0.062611058 0.0026853334 0.74200004
-0.057963051 0.0012689525 0.74040002
-0.052152384 0.00070476194 0.74000001
-0.07144548 0.0081345243 0.74275005
-0.067759648 0.0081158336 0.74112499
-0.064133339 0.0063428576 0.74000001
-0.081321433 0.012728097 0.74250007
-0.077632658 0.013425852 0.74200004
-0.07292445 0.011996193 0.74100006
-0.079146668 0.016253334 0.74200004
0.023846859 0.023847621 0.74080008
0.026146669 0.024733335 0.74200004
0.019028572 0.028190479 0.74000001
0.02279602 0.027674638 0.74163646
0.026853334 0.026853336 0.74200004
0.014381589 0.034186672 0.74266672
0.017283097 0.033511192 0.74075001
-0.016859686 -0.026833018 0.74800003
-0.012677143 -0.026636003 0.74780005
-0.0078361919 -0.026358098 0.74800003
-0.0049866671 -0.026358098 0.74800003
0.019234287 -0.026358098 0.74800003
0.022083811 -0.026358098 0.74800003
-0.021720715 -0.021008335 0.74775004
-0.017634893 -0.022546411 0.74609089
-0.012800358 -0.022755835 0.74662501
-0.0078204768 -0.022751909 0.74650002
-0.0028403574 -0.022736667 0.74599999
0.0024903971 -0.022409288 0.74691677
0.0080044046 -0.022237502 0.74712503
0.01280254 -0.022051273 0.74683344
0.017645545 -0.022948051 0.74654555
0.022986246 -0.023935027 0.74644452
0.026346352 -0.022074606 0.74766672
-0.030632382 -0.016384764 0.74800003
-0.027740162 -0.01707159 0.74683344
-0.023276668 -0.018301904 0.74624997
-0.017383335 -0.01880238 0.74500006
-0.013073334 -0.01804686 0.74599999
-0.0078047626 -0.019157145 0.74500006
0.028380955 -0.019157143 0.74500006
-0.056278098 -0.010685715 0.74800003
-0.052288767 -0.010970667 0.74800009
-0.047548316 -0.012616538 0.74718189
-0.042660899 -0.012800655 0.74656248
-0.037680954 -0.012799683 0.74650013
-0.032706726 -0.012800535 0.74656248
-0.02880667 -0.013197144 0.74500006
-0.066251434 -0.007836191 0.74800003
-0.062508732 -0.0078131761 0.7458334
-0.057519171 -0.0079898816 0.74562508
-0.052838583 -0.0080972388 0.7457
-0.047538102 -0.0092238104 0.74500006
-0.043990478 -0.0092238104 0.74500006
-0.066251434 -0.0042742859 0.74800003
-0.062726952 -0.0031451702 0.74600005
-0.058890481 -0.0049666669 0.74500006
-0.065985717 0.004257143 0.74500006
-0.062522858 0.00071047625 0.74600005
-0.07726077 0.0086786682 0.74700004
-0.073444001 0.0075285719 0.74580008
-0.067404769 0.0063857147 0.74500006
-0.080649219 0.011115874 0.74500006
-0.077745721 0.011004763 0.74550003
-0.074500002 0.010642858 0.74500006
0.031344764 0.027782859 0.74800003
-0.020797145 -0.030837145 0.75300002
-0.01728381 -0.031779688 0.75266677
-0.012545478 -0.031185478 0.75275004
0.0024382861 -0.031410858 0.75300002
0.0074528577 -0.031963717 0.75250006
0.012180637 -0.032243494 0.75233334
0.017185479 -0.032225795 0.75191677
0.02220561 -0.032234393 0.75211126
0.026984554 -0.031760637 0.75222218
0.031315241 -0.031793337 0.75300002
-0.021045333 -0.026772574 0.75160003
-0.018484084 -0.027878914 0.75057149
-0.012959185 -0.028673472 0.75000012
-0.0071559525 -0.028629526 0.75150001
-0.0019684525 -0.027740361 0.75162494
0.0022766236 -0.027389875 0.75136369
0.0071488693 -0.027169468 0.75068754
0.012150954 -0.027162384 0.75050008
0.016796667 -0.027757626 0.75050008
0.022151297 -0.028276466 0.7502858
0.027316196 -0.027315434 0.75080007
0.032077719 -0.02677924 0.7518
-0.052340165 -0.021509685 0.75283337
-0.047113165 -0.022090822 0.75263649
-0.042292703 -0.022222221 0.75266677
-0.037760794 -0.021270636 0.75283337
-0.026744608 -0.021252222 0.75216675
-0.022203334 -0.022917621 0.75200003
0.028635874 -0.022191748 0.75166672
0.031786513 -0.02246524 0.75283337
-0.061435245 -0.01721143 0.75300002
-0.057347924 -0.017204942 0.75268763
-0.052418768 -0.017616479 0.75189996
-0.047648001 -0.018029718 0.75119996
-0.04271308 -0.01774996 0.75090915
-0.037208892 -0.017890161 0.75133336
-0.032391548 -0.018076548 0.751625
-0.027883178 -0.01930286 0.75066674
0.032550097 -0.018784001 0.75280005
-0.070714287 -0.010714286 0.75000006
-0.067209288 -0.011440715 0.75075006
-0.06208786 -0.01199 0.75150001
-0.057535816 -0.012452764 0.75139999
-0.052142862 -0.013571429 0.75000012
-0.049285717 -0.015000001 0.75000006
-0.071789525 -0.0076801372 0.75271434
-0.06826105 -0.0072980002 0.75130004
-0.071714289 -0.0021514287 0.75300002
-0.068173341 -0.0019678574 0.75150001
-0.07653001 0.0021507144 0.75275004
-0.072282232 0.0021463493 0.75144452
-0.067510955 0.0018591433 0.75089997
-0.077520221 0.0059623285 0.75133336
-0.072142862 0.0050000004 0.75000012
-0.068809532 0.0054761912 0.75000012
0.018047621 -0.046201907 0.75800002
0.020935239 -0.045480002 0.75800002
-0.012266351 -0.041851752 0.75766671
-0.0071271965 -0.042049952 0.75688893
-0.0026469845 -0.041629843 0.75800008
0.0021657145 -0.041148573 0.75800002
0.013716191 -0.041148573 0.75800002
0.017514288 -0.04244139 0.75763637
0.021888575 -0.04209302 0.75766671
-0.016986329 -0.037267555 0.75664306
-0.012260952 -0.037307885 0.75727272
-0.0072042868 -0.037465718 0.75650012
-0.0023066669 -0.037048768 0.7568
0.0020305631 -0.037276804 0.75663638
0.0075126551 -0.037257694 0.75642866
0.012234287 -0.037424922 0.75566673
0.017272562 -0.037425179 0.75568765
0.02232524 -0.037449691 0.7561667
0.027002566 -0.037095606 0.75684625
0.032451432 -0.035913527 0.75720006
0.035326667 -0.036048576 0.75700003
-0.048240002 -0.030960003 0.75600004
-0.036095239 -0.031041907 0.75800002
-0.032966986 -0.031523176 0.75800008
-0.025266668 -0.031041907 0.75800002
-0.022341905 -0.032431163 0.75671428
-0.017017461 -0.033795245 0.75500005
-0.011936191 -0.033220004 0.75500005
-0.0071913498 -0.032360878 0.75508344
-0.0021571431 -0.032357145 0.75500005
0.0017976193 -0.033435717 0.75500005
0.0057523814 -0.033795241 0.75500005
0.02804286 -0.033795245 0.75500005
0.032386351 -0.033825081 0.75566673
-0.057259817 -0.025817527 0.75720006
-0.051954608 -0.026699368 0.75766671
-0.047681533 -0.027226159 0.75626683
-0.04235848 -0.02694324 0.75640005
-0.037513334 -0.027415236 0.75750005
-0.032485716 -0.027432382 0.75800002
-0.027361019 -0.027265273 0.7573334
-0.023129934 -0.027653474 0.75557154
-0.0035952383 -0.029480955 0.75500005
0.032357145 -0.029480955 0.75500005
-0.066000007 -0.021360001 0.75600004
-0.062490836 -0.022152264 0.75637501
-0.057600483 -0.022321275 0.75600004
-0.052537464 -0.023749527 0.75566673
-0.049614288 -0.023728574 0.75500005
-0.036918893 -0.023254447 0.75516671
-0.032414883 -0.022152025 0.75637501
-0.027834764 -0.023275398 0.75583339
-0.023728574 -0.023728574 0.75500005
0.033315878 -0.021811113 0.75500005
-0.066765033 -0.017067015 0.75527281
-0.063515887 -0.017257145 0.75500005
0.035233337 -0.018695239 0.75500005
-0.066931121 -0.013673969 0.75566673
-0.063995242 -0.013661906 0.75500005
-0.075666666 -0.0064844452 0.75666666
-0.073391907 -0.005756191 0.75550008
-0.076176003 -0.0018720002 0.75600004
-0.074061915 -0.0021571431 0.75500005
-0.086256005 0.0024480002 0.75600004
-0.082554676 0.0020163811 0.75640005
-0.079370171 0.0026374606 0.75533342
-0.086084448 0.0055149212 0.75533342
-0.082469061 0.0059931753 0.75516671
0.019568572 -0.050008576 0.76100004
0.022817334 -0.050721336 0.76300001
0.027250003 -0.050503336 0.76300001
0.0021742859 -0.045660004 0.76100004
0.0077419053 -0.046204448 0.76200008
0.012147382 -0.046960242 0.76150006
0.017015953 -0.047425479 0.76025003
0.022668455 -0.047329884 0.76162505
0.027468001 -0.046942674 0.76300001
0.032700002 -0.046506673 0.76300001
0.036333337 -0.046506669 0.76300001
-0.0015923809 -0.042994287 0.76000005
0.0021721432 -0.042900242 0.76025009
0.0072444449 -0.042742863 0.76066673
0.012125595 -0.042892978 0.7601251
0.015200001 -0.044152383 0.76000005
0.023413654 -0.043689214 0.76033342
0.02756032 -0.042790323 0.76150006
0.032661486 -0.042824659 0.76211113
0.035544448 -0.042798415 0.76166672
-0.026160002 -0.036333337 0.76300001
-0.022268929 -0.036750838 0.76037508
-0.019542858 -0.039085716 0.76000005
-0.012304762 -0.039809525 0.76000005
-0.0014476192 -0.039809525 0.76000005
0.0036190478 -0.039809525 0.76000005
0.0050666672 -0.039085716 0.76000005
0.029206669 -0.039344445 0.76033342
0.032595925 -0.038805172 0.7605716
0.035489999 -0.039111905 0.76050007
-0.032571431 -0.031123811 0.76000005
-0.027165359 -0.032417744 0.76062512
-0.023885716 -0.034019049 0.76000005
-0.055733338 -0.026780954 0.76000005
-0.053561907 -0.026780954 0.76000005
-0.032571435 -0.027504763 0.76000011
-0.028228574 -0.029676192 0.76000005
-0.032571431 -0.023885716 0.76000005
0.026957145 -0.050271433 0.76500005
0.031328574 -0.050271433 0.76500005
0.028414287 -0.048814289 0.76500005
0.032057144 -0.048814289 0.76500005
-0.028414287 -0.034242861 0.76500005
