# .PCD v0.7 - Point Cloud Data file format
VERSION 0.7
FIELDS x y z
SIZE 4 4 4
TYPE F F F
COUNT 1 1 1
WIDTH 840
HEIGHT 1
VIEWPOINT 0 0 0 1 0 0 0
POINTS 840
DATA ascii
0.051618099 0.093907624 0.65300006
0.052328844 0.096750624 0.65300012
0.05690429 0.096706197 0.65300006
0.038226668 0.084600009 0.65800005
0.043031119 0.084182233 0.65800005
0.046686668 0.084286675 0.65800005
0.037937436 0.08807078 0.65800011
0.042601369 0.087707795 0.65781254
0.047477402 0.087813415 0.65766668
0.051800415 0.088659748 0.65757149
0.037976 0.092119999 0.65800005
0.042858582 0.092517905 0.65764284
0.047485176 0.092473403 0.65606254
0.052463058 0.092236273 0.65526676
0.056052383 0.093003623 0.65539998
0.04407556 0.096297786 0.65800011
0.047805242 0.097401172 0.65678579
0.052330691 0.097522236 0.65500003
0.056766666 0.097938098 0.65500003
0.048604872 0.10242583 0.65711117
0.052474108 0.10245244 0.65593749
0.057107307 0.10183747 0.6553334
0.049431432 0.10574572 0.65700001
0.050682861 0.10574572 0.65700001
0.029677145 0.078297146 0.66300005
0.0327527 0.078060217 0.66277784
0.037676886 0.077705279 0.66236377
0.042629685 0.079379529 0.6615001
0.029135918 0.082356334 0.66300005
0.032916036 0.082290538 0.66183329
0.037720155 0.08229389 0.66068423
0.042480178 0.081930056 0.66036367
0.047318336 0.082216673 0.66025001
0.029045716 0.087137148 0.66300005
0.032715179 0.087396957 0.66146684
0.036247622 0.086533338 0.66000003
0.049657147 0.086114295 0.66000003
0.050914288 0.086114295 0.66000003
0.029677145 0.090294294 0.66300005
0.032499056 0.09083946 0.66171432
0.035828575 0.091142863 0.66000003
0.040857144 0.093657151 0.66000003
0.033131428 0.069448575 0.66900003
0.035680003 0.069448575 0.66900003
0.024848573 0.073271438 0.66900003
0.028178783 0.072813489 0.66814291
0.033034947 0.072423406 0.66706252
0.036429338 0.072731435 0.66640007
0.024089117 0.078267083 0.66814291
0.027656669 0.077258579 0.66649997
0.033052113 0.075974301 0.66557145
0.03736667 0.075366668 0.66500008
0.023285206 0.082357585 0.66638464
0.026811115 0.082122229 0.66500002
0.023586063 0.087370478 0.66609091
0.026600003 0.087400004 0.66500002
0.024274288 0.091884576 0.66720003
0.027588207 0.092535175 0.66653848
0.032745175 0.09388613 0.66671437
0.035680003 0.094934292 0.66900003
0.033275239 0.096016839 0.66766679
0.037750714 0.097323574 0.66900009
0.040777147 0.09748286 0.66900009
0.038865715 0.10003144 0.66900003
0.041414291 0.10003144 0.66900003
0.027601909 0.064832382 0.67400002
0.031453334 0.064832382 0.67400002
0.013907938 0.06911175 0.67400002
0.017959049 0.067990489 0.67349994
0.022910481 0.06796585 0.67200005
0.027796788 0.06773679 0.671
0.032069907 0.067334101 0.67080009
0.035095241 0.067638099 0.67000002
0.013907938 0.072749212 0.67400002
0.018090554 0.072616272 0.67292303
0.02255231 0.072670557 0.67069232
0.026800003 0.070828579 0.67000002
0.014763812 0.076386675 0.67400002
0.018084003 0.077172644 0.67339993
0.022067409 0.07741493 0.67055559
0.014442858 0.083126679 0.67400002
0.018256195 0.082321599 0.67266673
0.021057144 0.082952388 0.67000002
0.018577144 0.085845098 0.67266673
0.021120001 0.085760005 0.67200005
0.032576464 0.098098114 0.67071432
0.035520639 0.098479375 0.67000002
0.014011113 0.054104447 0.67900008
0.013580001 0.056260005 0.67900002
0.018322226 0.057122227 0.67900008
0.020017143 0.057468574 0.67800003
0.0097000003 0.064020008 0.67900002
0.013098572 0.062638849 0.67807144
0.01771423 0.0627762 0.67711782
0.02216159 0.062395241 0.67777783
0.026387623 0.062944762 0.67580003
0.0094384765 0.067620955 0.67880005
0.012341271 0.066757306 0.67616677
0.0083993953 0.072661914 0.67845458
0.011677144 0.072184086 0.67585725
0.009341429 0.076345719 0.67650002
0.012417512 0.077326827 0.67530781
0.016071429 0.079071432 0.67500001
0.012901311 0.081608929 0.67737502
0.016071429 0.081642866 0.67500007
0.014785715 0.085500002 0.67500001
0.016071429 0.08614286 0.67500001
0.0091176201 0.052753177 0.68383336
0.012098858 0.053208958 0.68300003
0.0045600003 0.058628574 0.68400002
0.0079921102 0.057532117 0.6831429
0.012877075 0.057251506 0.68092859
0.017220316 0.056990903 0.68088895
0.02072381 0.058933336 0.68000001
0.0035157148 0.06250944 0.68370003
0.0076602553 0.062205408 0.68180013
0.01273651 0.060228579 0.68000001
0.0039990484 0.067798242 0.68357152
0.0070232046 0.067355499 0.68181825
0.0042247623 0.07182429 0.68250006
0.0064952383 0.071447626 0.68200004
0.0034400001 0.053257626 0.68825006
0.0065393662 0.05297175 0.68666673
-0.0006561905 0.059057146 0.68900001
0.0023360548 0.057400823 0.68714303
0.006533334 0.055533338 0.68600005
-0.0006561905 0.06102572 0.68900001
0.0010888891 0.062720001 0.68600005
0.0022866668 0.067293338 0.68600005
-0.00066095241 0.049571432 0.69400001
0.0024177781 0.04903556 0.69266671
-0.005948572 0.054198097 0.69400001
-0.0024538778 0.053114828 0.69342864
0.0018083334 0.051824056 0.69100004
-0.006279048 0.057502862 0.69400001
-0.0027887914 0.057595696 0.69146156
-0.0066095246 0.06190921 0.69400001
-0.002972937 0.062643431 0.69358343
-0.0070447624 0.043994483 0.69779998
-0.0041987305 0.04396826 0.6960001
-0.011300953 0.049192384 0.69800001
-0.0078271748 0.047884449 0.69640011
-0.0027800002 0.047524773 0.69500005
0.00099285715 0.047988098 0.69500005
-0.011300953 0.05118667 0.69800001
-0.0080603184 0.052438416 0.69550008
-0.0039714286 0.050966669 0.69500005
-0.011629287 0.057813101 0.69774997
-0.0088834297 0.057137527 0.6960001
-0.011252382 0.060233336 0.69500005
-0.0086047631 0.060233336 0.69500005
-0.011769715 0.043724958 0.70200008
-0.0082298424 0.042484447 0.70066667
-0.015957335 0.047872003 0.70400006
-0.012548571 0.047141802 0.70155555
-0.016582428 0.051931519 0.70154554
-0.012952571 0.052340765 0.70100003
-0.015399049 0.055570479 0.70300001
-0.012956572 0.055962291 0.70120001
-0.016849842 0.039764129 0.70766664
-0.013466667 0.039726671 0.70700002
-0.020902859 0.043828573 0.708
-0.017141612 0.042926963 0.70684618
-0.013040954 0.041540768 0.70580006
-0.020873334 0.045786671 0.70700002
-0.018343538 0.046575651 0.70585716
-0.0026933337 0.069353335 0.70700002
-0.032406587 0.03339221 0.71290922
-0.028591812 0.033468764 0.71140003
-0.025054287 0.038597144 0.71100008
-0.022214765 0.037985951 0.71225011
-0.018465582 0.038186938 0.71057147
-0.025054287 0.041305717 0.71100003
-0.022370717 0.041686669 0.71175003
-0.019609526 0.041247621 0.71000004
-0.04108572 0.023966668 0.71900004
-0.038294286 0.023933336 0.71800005
-0.11572477 0.028075241 0.71900004
-0.11344223 0.028531749 0.71900004
-0.055465721 0.028075241 0.71900004
-0.052897863 0.027904052 0.71899998
-0.04108572 0.027390478 0.71900004
-0.038240001 0.025265716 0.71700001
-0.11572477 0.032868575 0.71900004
-0.11230095 0.032868575 0.71899992
-0.10778153 0.033827242 0.71900004
-0.10367296 0.034101147 0.71900004
-0.041439474 0.03231651 0.71855557
-0.037758876 0.032657403 0.71845454
-0.033822861 0.031090956 0.71750003
-0.11207271 0.037357569 0.71899998
-0.10796414 0.036748894 0.71900004
-0.10367296 0.037114099 0.71900004
-0.11127381 0.040743336 0.71900004
-0.10750763 0.041770481 0.71900004
-0.023866668 0.04364191 0.71600002
-0.12394287 0.0089514293 0.72300005
-0.12669715 0.010328572 0.72300005
-0.12297886 0.01087943 0.72300005
-0.058528576 0.019280002 0.72300005
-0.046806909 0.019273097 0.72275007
-0.044757146 0.019280002 0.72300005
-0.1171301 0.023260383 0.7226001
-0.11391881 0.023747381 0.72275007
-0.056969646 0.022718692 0.72287506
-0.052445203 0.022815758 0.72200012
-0.047447197 0.022690797 0.72200006
-0.043644357 0.022654425 0.72085726
-0.036443811 0.024066668 0.72200006
-0.11755598 0.027080636 0.72088897
-0.1126213 0.027544592 0.72145462
-0.10746515 0.029308576 0.72240013
-0.10180262 0.028889764 0.7222501
-0.098741136 0.028782288 0.72300005
-0.057236671 0.026327465 0.72116679
-0.051787049 0.025688766 0.72120011
-0.047381908 0.026093336 0.72100008
-0.04259048 0.02689524 0.72000009
-0.037201274 0.02804476 0.72116679
-0.032673575 0.029233573 0.7222501
-0.12050001 0.030985717 0.72300005
-0.11803563 0.032016955 0.72140002
-0.10721667 0.032078572 0.72050011
-0.10227096 0.03253286 0.72070009
-0.097830705 0.032538537 0.72223085
-0.092311844 0.033130076 0.72257155
-0.087431028 0.032749664 0.72285724
-0.084694289 0.033051431 0.72300005
-0.030942859 0.030942859 0.72200006
-0.11687879 0.037388708 0.7212857
-0.11314287 0.038628574 0.72000003
-0.10742857 0.038171433 0.72000003
-0.10225198 0.038137149 0.72057158
-0.097341731 0.037206359 0.72080016
-0.092147924 0.03713518 0.72206247
-0.087866679 0.036018737 0.72266674
-0.084694289 0.035117146 0.72300005
-0.11677398 0.041066036 0.72266674
-0.11287203 0.043039143 0.72145462
-0.10741057 0.042943574 0.72141683
-0.10312659 0.04194029 0.72190005
-0.097777538 0.042534232 0.72266674
-0.093989998 0.043724287 0.72300005
-0.11223715 0.046134289 0.72300005
-0.10604 0.046134289 0.72300005
-0.13598667 -0.0013880953 0.72850001
-0.13251764 -0.0013880953 0.72850007
-0.12766024 -0.0013878572 0.72850007
-0.12427715 -0.00069428579 0.72900003
-0.13595432 0.0024794559 0.72885722
-0.13238201 0.0027719848 0.72775
-0.12731048 0.002766191 0.72649997
-0.12234318 0.0033500006 0.72783339
-0.11872286 0.0048600002 0.72900003
-0.13538572 0.0062485719 0.72900003
-0.13236794 0.0076231752 0.72766668
-0.12781662 0.0075992602 0.72544444
-0.1227121 0.0073237154 0.72549999
-0.11804552 0.0078963814 0.72740006
-0.11279847 0.0087405732 0.72840005
-0.10823382 0.0090195248 0.72850001
-0.13538572 0.011802858 0.72900003
-0.13244279 0.012482621 0.72808337
-0.12772486 0.013006063 0.7256363
-0.12255774 0.012988763 0.72539997
-0.11747197 0.012438512 0.72556251
-0.11260894 0.012297732 0.72676921
-0.1079994 0.012757214 0.72692859
-0.10483715 0.013885716 0.72900003
-0.06145934 0.012873431 0.72670001
-0.05751203 0.013297978 0.72537494
-0.053857148 0.013809524 0.72500002
-0.12746365 0.017218618 0.72845459
-0.12227585 0.017469093 0.72836369
-0.11724316 0.017164098 0.72670001
-0.1128417 0.017307729 0.7268889
-0.10802136 0.01731183 0.72708338
-0.10449 0.017704288 0.72900003
-0.061731219 0.01698794 0.72644442
-0.057146553 0.017092502 0.72512496
-0.052523971 0.017277623 0.72566664
-0.048695479 0.017267382 0.72525001
-0.044880956 0.017261906 0.72500002
-0.12264915 0.022336004 0.72840005
-0.11744588 0.02145762 0.72683334
-0.11275239 0.021745717 0.72720003
-0.10786238 0.022125 0.72599995
-0.10246232 0.022152444 0.72693741
-0.098311752 0.023826033 0.72866672
-0.090951435 0.024300002 0.72900003
-0.08729203 0.02269011 0.7287693
-0.083082862 0.023374287 0.72900003
-0.077262223 0.023826033 0.72866672
-0.072155952 0.023589287 0.72850007
-0.061101638 0.021489937 0.72785723
-0.057309531 0.020944446 0.72500008
-0.052061912 0.020300001 0.72500002
-0.049023814 0.020023812 0.72500002
-0.12246938 0.027675875 0.72649997
-0.11945239 0.029690478 0.72500002
-0.11185715 0.02554762 0.72500002
-0.10769197 0.026813164 0.72527266
-0.10291271 0.026782965 0.72522217
-0.097370572 0.027208287 0.72509998
-0.09262757 0.027649464 0.72581249
-0.087415524 0.027458098 0.72600001
-0.082633957 0.027839253 0.72564292
-0.07749334 0.027674403 0.72649992
-0.072018936 0.027699644 0.72712493
-0.067742452 0.028465718 0.72900003
-0.060700007 0.026079049 0.727
-0.035214286 0.026928574 0.72500002
-0.12272644 0.032715 0.727
-0.11945239 0.033833336 0.72500002
-0.092385724 0.031347621 0.72500002
-0.087690488 0.03107143 0.72500002
-0.082442872 0.032314282 0.72499996
-0.077438265 0.032498095 0.72600001
-0.073391438 0.031157145 0.727
-0.12247539 0.036534429 0.72771436
-0.11945239 0.037285715 0.72500002
-0.086772867 0.038547859 0.72600001
-0.082701117 0.037142698 0.72666669
-0.077797286 0.035884358 0.72657144
-0.12011144 0.043045718 0.72900003
-0.11746238 0.043299526 0.72550005
-0.10253572 0.043845244 0.72500002
-0.097357146 0.044880956 0.72500002
-0.092134669 0.041992199 0.72519994
-0.11673225 0.047425855 0.72771436
-0.11260583 0.047840837 0.72537494
-0.10804992 0.047946095 0.72539991
-0.10259776 0.047620781 0.72654545
-0.097645879 0.047093496 0.72716665
-0.13212001 -0.006291429 0.73400003
-0.14165017 -0.0011625398 0.73266673
-0.13818489 -0.0029644051 0.731875
-0.13190207 -0.0039480953 0.73150003
-0.12788168 -0.0038330955 0.73175007
-0.12273715 -0.0019367196 0.73177779
-0.11735858 -0.0013971429 0.7335
-0.11244319 -0.00069841277 0.73333335
-0.1421579 0.0030251855 0.73288888
-0.13891369 0.0027855954 0.731125
-0.12152644 0.0010445239 0.73124999
-0.11692682 0.002647429 0.7316668
-0.11226525 0.0027887304 0.73216671
-0.1093262 0.0038414286 0.73350006
-0.071937785 0.0048888894 0.73333335
-0.06901715 0.0048800004 0.73200005
-0.14146143 0.0073357145 0.73350006
-0.13753632 0.0078446427 0.73212504
-0.11696 0.0062657148 0.73100001
-0.1124845 0.0068624495 0.73100007
-0.10710935 0.0073910481 0.73220009
-0.10271975 0.0080693886 0.7322858
-0.098915249 0.0087380949 0.73400003
-0.071302861 0.0076895244 0.73400003
-0.069111437 0.0069819055 0.73300004
-0.13718373 0.012315345 0.73199999
-0.10568541 0.010916509 0.73166674
-0.1023865 0.012536351 0.73133337
-0.097649641 0.012553334 0.7323752
-0.09248542 0.012491577 0.73184627
-0.087688141 0.012923297 0.73207694
-0.082482867 0.01370762 0.73188889
-0.078589059 0.013622382 0.7335
-0.067018099 0.012565715 0.73300004
-0.064206481 0.012116573 0.73120004
-0.059176195 0.010442858 0.73100001
-0.13575715 0.017404763 0.73100007
-0.13282162 0.017562002 0.73170006
-0.10218322 0.017233692 0.731125
-0.097654536 0.017438019 0.73241675
-0.092621908 0.017409842 0.73122221
-0.087720007 0.017404765 0.73100007
-0.082205713 0.017416671 0.73150009
-0.077688813 0.01763262 0.73325008
-0.074099049 0.018874288 0.73400003
-0.067108572 0.018874288 0.73400003
-0.064281598 0.018333018 0.73100007
-0.13100922 0.02187524 0.73300004
-0.12747598 0.022291351 0.73141664
-0.12218144 0.021233812 0.73100001
-0.11904858 0.020189526 0.73100001
-0.097219288 0.021907475 0.73115391
-0.092719927 0.022088226 0.73100007
-0.088416204 0.020189527 0.73100007
-0.081608996 0.021272488 0.73100001
-0.077521369 0.021195922 0.73142856
-0.07251393 0.020917026 0.73212498
-0.067637943 0.022311589 0.73216671
-0.063711748 0.022836827 0.73155552
-0.12673171 0.027576331 0.73171431
-0.06699162 0.026880002 0.73119998
-0.063045502 0.028228061 0.73115391
-0.059176195 0.029240001 0.73100001
-0.12695554 0.032359868 0.73185712
-0.072173826 0.033022005 0.73149997
-0.067643821 0.032776088 0.7322222
-0.062902339 0.032623205 0.7316364
-0.12618287 0.036251433 0.73200005
-0.12357239 0.038868763 0.73140001
-0.071302861 0.03565143 0.73400003
-0.067685723 0.03558667 0.73266673
-0.064834289 0.03555429 0.73200005
-0.12235366 0.041558098 0.73133337
-0.090177149 0.043340955 0.73400003
-0.088609338 0.042004004 0.73260003
-0.11904858 0.048037149 0.73100007
-0.093130007 0.046389528 0.73250002
-0.14146572 -0.0063342862 0.73900002
-0.13724288 -0.0063342862 0.73900002
-0.13328096 -0.00703381 0.73850006
-0.12879716 -0.0063342862 0.73900002
-0.075307623 -0.0063342862 0.73900002
-0.072172388 -0.0068939053 0.73860002
-0.069488578 -0.0063171433 0.73700005
-0.14596336 -0.002105556 0.73683333
-0.1426868 -0.0036870239 0.73712504
-0.13607669 -0.0049100006 0.73650002
-0.13388191 -0.0049066669 0.73600006
-0.12692922 -0.0049088895 0.73633337
-0.12142906 -0.0038614289 0.73700005
-0.11732414 -0.0035126987 0.73766673
-0.11331762 -0.0028109527 0.73750007
-0.10838667 -0.00070380955 0.73900002
-0.10346001 -0.00070380955 0.73900002
-0.076558836 -0.0025806352 0.73899996
-0.072258092 -0.0026198272 0.73790908
-0.069535717 -0.0028090479 0.73750007
-0.14589763 0.00070142862 0.73650002
-0.11004953 0.00070095243 0.73600006
-0.10722339 0.0026143726 0.7367273
-0.10271965 0.0029489526 0.73773348
-0.097494669 0.0036571429 0.73859996
-0.075754762 0.0028057145 0.73650002
-0.072397381 0.0019280955 0.73625004
-0.069488578 0.0014038096 0.73700005
-0.14089143 0.0084114289 0.73600006
-0.10177621 0.0063171438 0.73700011
-0.097383954 0.0073205447 0.73714292
-0.092926569 0.0081921704 0.73733336
-0.087855794 0.0083333347 0.73800009
-0.082345724 0.0091495244 0.73900002
-0.076878734 0.0080393665 0.7375555
-0.072398365 0.0077104764 0.73600012
-0.06939429 0.0091123814 0.73600006
-0.090422861 0.010514286 0.73600006
-0.08621715 0.010514286 0.73600006
-0.082507767 0.011127892 0.73685724
-0.076598495 0.01227881 0.73675007
-0.072263658 0.012629367 0.73666668
-0.069417864 0.012622143 0.73625004
-0.075469211 0.016589208 0.73600006
-0.072022855 0.017348573 0.73600006
-0.068219334 0.017129526 0.73628581
-0.13318922 0.022702858 0.73733342
-0.13213812 0.027411431 0.73800004
-0.12967619 0.027337145 0.73600006
-0.13175145 0.031917907 0.73820007
-0.12985238 0.03228762 0.73700005
-0.13090858 0.036598098 0.73900002
-0.12818477 0.037578098 0.73750001
-0.08493048 0.041412383 0.73700005
-0.14223143 -0.017690476 0.74300003
-0.14506191 -0.012737144 0.74300003
-0.14221549 -0.012735955 0.7429167
-0.13776657 -0.011867515 0.74266672
-0.13435668 -0.010607144 0.74250007
-0.14658128 -0.0077780965 0.74233341
-0.1425543 -0.0081166672 0.74100006
-0.1375524 -0.0084653981 0.74066675
-0.13217446 -0.0082458742 0.7421667
-0.12719953 -0.0074209529 0.74200004
-0.12232396 -0.0073742871 0.74242866
-0.11762175 -0.0068360325 0.74250007
-0.11251144 -0.0063685719 0.74300003
-0.075511433 -0.0084695239 0.74100006
-0.073662229 -0.008708572 0.74133343
-0.14804856 -0.0045928573 0.74200004
-0.1228635 -0.004933334 0.74000001
-0.11780128 -0.0049377782 0.74066675
-0.11191321 -0.0037355106 0.7417143
-0.10754374 -0.0029464287 0.74208343
-0.10227323 -0.0022979763 0.74187505
-0.09803398 -0.0011787302 0.74233341
-0.094113342 -0.00070761907 0.74300003
-0.085621916 -0.0025946032 0.74300003
-0.083006673 -0.0022777778 0.74211121
-0.078510486 -0.0023961905 0.74000001
-0.074000008 -0.0049333335 0.74000001
-0.10078096 0.00070476194 0.74000001
-0.096638106 0.0014107939 0.74066675
-0.092656523 0.0028284127 0.74266672
-0.088452376 0.0025272109 0.74300009
-0.082736194 0.0028290476 0.74250007
-0.078987159 0.0028200003 0.74050003
-0.092323825 0.0063428576 0.74000001
-0.086614676 0.0069228574 0.74180007
-0.082530804 0.0070533343 0.74066675
-0.078698426 0.0068126991 0.74000001
-0.13685843 0.020963177 0.74200004
-0.13473082 0.023279367 0.74066675
-0.13638668 0.026146669 0.74200004
-0.13479143 0.026816193 0.74100006
-0.13214859 0.038394924 0.74200004
-0.15145288 -0.022348477 0.74730009
-0.14721644 -0.02276024 0.74675
-0.14276983 -0.021921813 0.74730009
-0.1389143 -0.020659048 0.74800003
-0.15231398 -0.017793335 0.74733341
-0.14758098 -0.017738096 0.745
-0.14261429 -0.017738096 0.74500006
-0.1380911 -0.017641559 0.74636364
-0.13464001 -0.016384764 0.74800003
-0.15051697 -0.013243429 0.74760002
-0.14758097 -0.012771429 0.745
-0.13723525 -0.014433651 0.74533343
-0.13257739 -0.012808494 0.74708337
-0.12750275 -0.011778942 0.74700004
-0.12286329 -0.011773969 0.74666673
-0.11749049 -0.010680954 0.74766672
-0.11248096 -0.010678573 0.74750006
-0.10820906 -0.010678573 0.74750006
-0.10472 -0.010685715 0.74800003
-0.090472385 -0.013535239 0.74800003
-0.087437339 -0.012085715 0.74640006
-0.08443334 -0.011352382 0.74500006
-0.15011144 -0.0085371435 0.74700004
-0.14900002 -0.0078047626 0.74500006
-0.13268097 -0.0092238104 0.74500006
-0.12700479 -0.0092238104 0.74500006
-0.12274763 -0.0092238104 0.74500006
-0.11764922 -0.0087590497 0.74566674
-0.11225478 -0.0085261911 0.74600005
-0.10765125 -0.0076805721 0.74660009
-0.10313445 -0.0071134921 0.74683344
-0.097596198 -0.006411429 0.74800003
-0.086852871 -0.0078300014 0.74750012
-0.084603339 -0.0085300002 0.74650002
-0.10586096 -0.0042638099 0.74600005
-0.10174572 -0.0046828575 0.74500006
-0.09722238 -0.0037340482 0.74650002
-0.092550054 -0.0023941994 0.7470001
-0.087980852 -0.0029260321 0.74700004
-0.087429106 0.0030746036 0.745
-0.15541334 -0.030796193 0.75200003
-0.15275145 -0.030837145 0.75300002
-0.1570674 -0.027270628 0.75200003
-0.15242028 -0.027365718 0.75072736
-0.14774249 -0.027631432 0.75160003
-0.14245875 -0.026489208 0.75166684
-0.13872072 -0.025450239 0.75275004
-0.1562894 -0.022385715 0.75128573
-0.14214286 -0.02357143 0.75000012
-0.13734239 -0.022175714 0.7511
-0.13258335 -0.021500479 0.75250006
-0.12729999 -0.021734286 0.75233334
-0.12334858 -0.021514289 0.75300002
-0.15646274 -0.017901074 0.75187504
-0.1354762 -0.018809525 0.75000012
-0.13214287 -0.017857146 0.75000006
-0.12731048 -0.017880954 0.75100005
-0.12286943 -0.01720543 0.75270015
-0.11682776 -0.015871024 0.75257146
-0.11251667 -0.015767146 0.75250006
-0.10814476 -0.015040001 0.75200003
-0.091794297 -0.015777145 0.75300002
-0.08964286 -0.015060001 0.75300002
-0.15705431 -0.013625715 0.75300002
-0.1531347 -0.012564899 0.75085717
-0.13142858 -0.015000001 0.75000006
-0.12757145 -0.014714286 0.75000006
-0.12140636 -0.013119366 0.75133342
-0.11741643 -0.01288762 0.75175005
-0.11224255 -0.012869207 0.75066674
-0.10742786 -0.012692144 0.75075001
-0.10267296 -0.012172572 0.7518
-0.097388007 -0.012191429 0.75300008
-0.092569284 -0.011996905 0.75200003
-0.088571437 -0.010714286 0.75000006
-0.15306191 -0.0071523814 0.75099999
-0.10218763 -0.0085755568 0.75033343
-0.097019896 -0.0083443383 0.75088888
-0.092245549 -0.0071525401 0.75083339
-0.089285724 -0.0078571439 0.75000012
-0.092142865 -0.0035714288 0.75000006
-0.13894096 0.023634287 0.75200003
-0.13750857 0.029363811 0.75200003
-0.16098477 -0.036095239 0.75800002
-0.15954097 -0.035373334 0.75800002
-0.092403814 -0.035373334 0.75800002
-0.16102716 -0.032421432 0.75650001
-0.15745507 -0.032732006 0.75699997
-0.15181169 -0.03209405 0.75724995
-0.1480093 -0.031331193 0.75625002
-0.14340509 -0.030987306 0.75666666
-0.098900959 -0.031041907 0.75800002
-0.092403814 -0.033929527 0.75800002
-0.16109429 -0.026631812 0.75580007
-0.14668572 -0.029480955 0.75500005
-0.14212611 -0.029232001 0.75600004
-0.13767128 -0.026910638 0.75683343
-0.13265523 -0.025955241 0.75699997
-0.12788525 -0.025577622 0.75650001
-0.12416762 -0.025266668 0.75800002
-0.097778 -0.026870901 0.75799996
-0.093125723 -0.025266668 0.75800008
-0.16126421 -0.022336572 0.75660002
-0.15890953 -0.021571431 0.75500005
-0.13590001 -0.023728574 0.75500005
-0.13230477 -0.023728574 0.75500005
-0.12799048 -0.023728574 0.75500005
-0.12181703 -0.022513609 0.75557154
-0.11738524 -0.021605875 0.7561667
-0.11362429 -0.021282382 0.75750005
-0.10142763 -0.021296192 0.75800002
-0.097285725 -0.022340953 0.75666666
-0.092593528 -0.022067431 0.7572
-0.16086787 -0.018355001 0.75575006
-0.15819049 -0.015819049 0.75500005
-0.12065621 -0.017688572 0.75500005
-0.11768414 -0.018455558 0.75500005
-0.11209557 -0.018483706 0.75611115
-0.10713485 -0.016982179 0.7564286
-0.10256805 -0.017490888 0.75614303
-0.097537421 -0.017062318 0.75542873
-0.093330719 -0.018019525 0.75674999
-0.15747145 -0.011812926 0.75500005
-0.098509528 -0.01222381 0.75500005
-0.15613668 -0.0071942857 0.75550008
-0.14293715 0.01949143 0.75800002
-0.14510287 0.022379048 0.75800002
-0.14219867 0.022311024 0.75571436
-0.16689113 -0.041904446 0.76300001
-0.16331835 -0.042328335 0.76300001
-0.10173334 -0.041420002 0.76300001
-0.098100007 -0.041420005 0.76300001
-0.16768824 -0.037975676 0.76281828
-0.1629937 -0.038130999 0.76063645
-0.15787812 -0.037533488 0.76123095
-0.1524 -0.036286667 0.76200002
-0.14777905 -0.035946667 0.76250005
-0.14460668 -0.035606667 0.76300001
-0.10203544 -0.037448574 0.76200002
-0.097537838 -0.037939459 0.76185721
-0.09418834 -0.036950715 0.76075006
-0.16691527 -0.032657146 0.76200002
-0.16372573 -0.032571431 0.76000005
-0.15272382 -0.034019049 0.76000011
-0.14740191 -0.033411436 0.76028579
-0.14284001 -0.032871112 0.76133341
-0.13854954 -0.031192068 0.76166672
-0.10536668 -0.03124667 0.76300001
-0.10210256 -0.032585718 0.76033342
-0.097533345 -0.032752384 0.76000011
-0.094943814 -0.034063812 0.76100004
-0.16640668 -0.029793335 0.76300001
-0.16390431 -0.02900905 0.7615
-0.13713127 -0.029213175 0.76050007
-0.13241538 -0.029138643 0.7621429
-0.12780267 -0.027417907 0.76160002
-0.12208001 -0.025433335 0.76300001
-0.11786535 -0.025723999 0.76300001
-0.11263335 -0.02579667 0.76300001
-0.1066124 -0.026679048 0.76300007
-0.10223682 -0.027551433 0.76133335
-0.096749209 -0.029193653 0.76000011
-0.16425464 -0.022012701 0.76200002
-0.12103525 -0.023917144 0.76100004
-0.11741143 -0.023917144 0.76100004
-0.1121094 -0.022878371 0.76085722
-0.10755187 -0.022619741 0.76163644
-0.10284811 -0.02293635 0.76050007
-0.091200009 -0.023885716 0.76000005
-0.10784763 -0.019542858 0.76000011
-0.15226763 0.0089428574 0.76133341
-0.15177478 0.011256191 0.76250005
-0.15042001 0.015986668 0.76300001
-0.14860334 0.017076669 0.76300001
-0.17115429 -0.046811432 0.76800001
-0.16738811 -0.046781432 0.7675001
-0.16457143 -0.046080004 0.76800001
-0.17288886 -0.042144597 0.76654547
-0.16878574 -0.043471433 0.76500005
-0.1622124 -0.044107623 0.76550007
-0.15766214 -0.042336907 0.76641673
-0.15282083 -0.041205581 0.76671433
-0.14911382 -0.040202387 0.76750004
-0.17685945 -0.037595432 0.76800007
-0.17297323 -0.037221059 0.76633334
-0.16975716 -0.035700001 0.76500005
-0.15518573 -0.038614288 0.76500005
-0.15227145 -0.038614288 0.76500005
-0.14739445 -0.038187463 0.76616669
-0.14283213 -0.036621768 0.76685727
-0.13746311 -0.035828337 0.76775002
-0.13312 -0.035840001 0.76800001
-0.10727158 -0.036871299 0.76771432
-0.10418572 -0.038614288 0.76500005
-0.1762743 -0.034377147 0.76800001
-0.17301117 -0.03330721 0.76742864
-0.16975717 -0.032785721 0.76500005
-0.14110002 -0.03375715 0.76500005
-0.13716774 -0.033340216 0.76655561
-0.13272148 -0.03255238 0.76711118
-0.12873143 -0.032182857 0.76800001
-0.12068572 -0.03145143 0.76800001
-0.11776 -0.03145143 0.76800001
-0.11264001 -0.03145143 0.76800001
-0.10752906 -0.033043098 0.76674998
-0.16690573 -0.027384082 0.76528579
-0.12740706 -0.02933467 0.76620001
-0.12256065 -0.028452702 0.76599997
-0.11725204 -0.028630598 0.76587498
-0.11224045 -0.028575152 0.76572734
-0.10782859 -0.02841429 0.76500005
-0.1661143 -0.024042858 0.76500005
-0.15559144 0.010957143 0.76700002
-0.153 0.013842858 0.76500005
-0.17719242 -0.056368258 0.77200001
-0.17425144 -0.055142861 0.77200001
-0.18073477 -0.051901434 0.77300006
-0.17734604 -0.052246984 0.77266675
-0.17300983 -0.051934969 0.7711429
-0.17706691 -0.047990721 0.77225006
-0.17309906 -0.048304386 0.77080005
-0.16741717 -0.048829526 0.77100003
-0.16283555 -0.047912806 0.77133334
-0.15821208 -0.046360001 0.77266669
-0.17735039 -0.042810056 0.77055556
-0.15646923 -0.044810798 0.7713334
-0.15185034 -0.043596983 0.77150005
-0.14750263 -0.04206619 0.77149999
-0.1426978 -0.040946353 0.77233338
-0.13766763 -0.040490478 0.77300012
-0.13472286 -0.040490478 0.77300006
-0.11179262 -0.041186906 0.77225006
-0.10753988 -0.041233473 0.77114284
-0.10486668 -0.040333334 0.77000004
-0.14189945 -0.038593527 0.77039999
-0.13731144 -0.038183816 0.77100003
-0.13244024 -0.037841432 0.77149999
-0.12788787 -0.036015004 0.77175003
-0.12294382 -0.036073335 0.77300006
-0.11738454 -0.036981668 0.77275008
-0.11244392 -0.037481591 0.77166665
-0.10853334 -0.038866669 0.77000004
-0.1754943 -0.030839048 0.77100003
-0.17292477 -0.030472383 0.77100003
-0.13126667 -0.034466669 0.77000004
-0.12698929 -0.033399764 0.77074999
-0.12292858 -0.033260241 0.77174997
-0.11758435 -0.033538204 0.77111113
-0.11224922 -0.033748258 0.77033341
-0.17153239 -0.028711431 0.77300006
-0.16940001 -0.027133334 0.77000004
-0.15740763 0.012785526 0.77160001
-0.15473334 0.012466667 0.77000004
-0.18230954 -0.055357147 0.77500004
-0.18648002 -0.051060002 0.77700001
-0.18347982 -0.052781146 0.7762
-0.17094001 -0.051800005 0.77700001
-0.16946001 -0.051060002 0.77700001
-0.15782478 -0.051125716 0.778
-0.15263429 -0.051125716 0.778
-0.13280097 -0.051191431 0.77900004
-0.12909144 -0.051191431 0.77900004
-0.11173087 -0.052081715 0.77900004
-0.10846648 -0.052378483 0.77900004
-0.18652402 -0.048148002 0.77780002
-0.18279144 -0.048468165 0.77614295
-0.17982002 -0.046620004 0.77700001
-0.16065875 -0.048468258 0.77500004
-0.15711826 -0.048433885 0.77557153
-0.15262 -0.047957622 0.77666676
-0.14814495 -0.045730483 0.77700007
-0.14244573 -0.045256194 0.77900004
-0.13205907 -0.049707621 0.77900004
-0.12983334 -0.049707621 0.77900004
-0.11647906 -0.046740007 0.77900004
-0.11264418 -0.047429409 0.77812511
-0.10755975 -0.04748252 0.7779091
-0.1471324 -0.043622546 0.77633333
-0.14207755 -0.043409716 0.77780002
-0.13775811 -0.042710796 0.77766675
-0.13296059 -0.041356385 0.77820003
-0.12760763 -0.040804766 0.77900004
-0.12142509 -0.041299373 0.77900004
-0.11755072 -0.042023577 0.77750003
-0.1136364 -0.042706858 0.77580005
-0.10789905 -0.043603811 0.77600002
-0.10360001 -0.043660004 0.77700001
-0.13098001 -0.039220002 0.77700001
-0.12719668 -0.038456194 0.77649999
-0.12231199 -0.038164493 0.77700007
-0.11735715 -0.03911905 0.77500004
-0.17560571 -0.026673336 0.778
-0.17307499 -0.027137285 0.7761429
-0.17583144 -0.022999048 0.77900004
-0.17266828 -0.022972383 0.77811116
-0.16946001 -0.022200003 0.77700001
-0.17212401 -0.019388003 0.77700001
-0.16946001 -0.019240003 0.77700001
-0.15008001 -0.050773337 0.78400004
-0.14410667 -0.05002667 0.78400004
-0.12693334 -0.05002667 0.78400004
-0.12220445 -0.051022228 0.7840001
-0.1168143 -0.052928574 0.78000009
-0.11306286 -0.053040005 0.78000003
-0.18645716 -0.04531429 0.78000003
-0.18318859 -0.045908578 0.78000003
-0.15008001 -0.048533335 0.78400004
-0.14701602 -0.047815241 0.78200006
-0.1426226 -0.047541775 0.78171438
-0.13742097 -0.047385283 0.78072733
-0.13258067 -0.047093485 0.78107703
-0.12741959 -0.046596743 0.78371435
-0.12279963 -0.047242291 0.78240007
-0.11867767 -0.047818415 0.7804445
-0.13594286 -0.043828573 0.78000003
-0.13178891 -0.043352067 0.7803334
-0.12719144 -0.043141909 0.78100008
-0.12322381 -0.042894289 0.78100002
-0.11960001 -0.043828573 0.78000003
-0.17719936 -0.021811431 0.78066671
-0.12950286 -0.050154287 0.78600001
-0.12875429 -0.048657145 0.78600001
-0.17057429 -0.0052600005 0.78900003
-0.16907144 -0.0052600005 0.78900003
-0.18578859 -0.026433336 0.79300004
-0.1816524 -0.027729524 0.79225004
-0.18503335 -0.024922859 0.79300004
-0.18244553 -0.023069715 0.79159999
-0.17326668 -0.0052733338 0.79100001
-0.18710525 -0.031500477 0.79700005
-0.18394256 -0.031626984 0.79700011
-0.18649144 -0.028808571 0.796
-0.18444858 -0.029602859 0.79700005
