# .PCD v0.7 - Point Cloud Data file format
VERSION 0.7
FIELDS x y z
SIZE 4 4 4
TYPE F F F
COUNT 1 1 1
WIDTH 686
HEIGHT 1
VIEWPOINT 0 0 0 1 0 0 0
POINTS 686
DATA ascii
-0.048140001 0.13189201 0.60900009
-0.051417623 0.12445286 0.6135
-0.047862504 0.12345037 0.61287498
-0.051729765 0.12796041 0.61258334
-0.048187144 0.12735786 0.61237502
-0.05173362 0.13224278 0.6117
-0.049461909 0.13442001 0.611
-0.051250003 0.13627715 0.61150002
-0.049461909 0.13616572 0.611
-0.050699051 0.11436763 0.61900002
-0.048930481 0.1137781 0.61900002
-0.05591429 0.11948001 0.61800003
-0.052742459 0.11782954 0.61728585
-0.047853496 0.11764239 0.61694449
-0.05714339 0.12194403 0.61855555
-0.052940957 0.12237354 0.6161111
-0.048465054 0.12134124 0.61610001
-0.053300004 0.12592858 0.61500001
-0.05108786 0.10930453 0.62374997
-0.047489811 0.10886925 0.62330008
-0.043296669 0.10883167 0.62275004
-0.051924534 0.11245088 0.62308347
-0.0472675 0.1124199 0.62193346
-0.042710166 0.11227576 0.62113333
-0.039561909 0.11100953 0.62
-0.055268575 0.11648001 0.62400001
-0.052659765 0.11567025 0.62125003
-0.046883814 0.11537906 0.62
-0.043104764 0.11514287 0.62
-0.051796909 0.10449215 0.62875003
-0.048158236 0.10427226 0.62871432
-0.044928573 0.10483334 0.62900001
-0.055711433 0.10962572 0.62900001
-0.052415162 0.10731389 0.62658334
-0.047739431 0.1065802 0.62660003
-0.043716192 0.10719544 0.62880003
-0.05641989 0.11283799 0.62687498
-0.053928573 0.11226191 0.625
-0.057488937 0.11601727 0.62712497
-0.050116193 0.099628575 0.634
-0.047078095 0.098985478 0.63374996
-0.044078097 0.099628575 0.634
-0.052441213 0.10263412 0.63290912
-0.047187321 0.10212696 0.63218755
-0.042729449 0.10306746 0.63354546
-0.039247621 0.10445905 0.634
-0.054946668 0.10566667 0.634
-0.041839242 0.10616153 0.63120002
-0.039247621 0.10566667 0.634
-0.059494291 0.11478191 0.63100004
-0.060696196 0.11658476 0.63100004
-0.056239374 0.098230056 0.63800001
-0.052282512 0.097565718 0.63715798
-0.047548 0.096670114 0.63679999
-0.042674527 0.098492466 0.63708347
-0.038035717 0.098892868 0.63900006
-0.060591429 0.10355207 0.63833338
-0.057210162 0.10248857 0.63677788
-0.05321905 0.10099524 0.63500005
-0.041257527 0.10175277 0.63520002
-0.037868507 0.10190551 0.63692856
-0.057513338 0.10594445 0.63566673
-0.04906667 0.088933341 0.64400005
-0.055466671 0.094476193 0.64000005
-0.052349351 0.093538634 0.64118177
-0.048024051 0.092836432 0.64237505
-0.04289905 0.093766198 0.64350003
-0.039253339 0.092613339 0.64400005
-0.057701595 0.096101597 0.6400001
-0.046323813 0.095695242 0.64000005
-0.042001169 0.096147202 0.64122224
-0.038886353 0.096298419 0.6413334
-0.04875429 0.084548578 0.648
-0.052636191 0.089028262 0.64766669
-0.047518514 0.087103397 0.64693749
-0.042320821 0.088163011 0.64671433
-0.037939522 0.087754525 0.64775002
-0.056160003 0.091337144 0.648
-0.053143602 0.0913072 0.64633328
-0.046685718 0.090914294 0.64500004
-0.043245722 0.091282874 0.64500004
-0.039007146 0.090607151 0.64500004
-0.051692195 0.084665537 0.65080005
-0.046490587 0.083683811 0.65088886
-0.042221595 0.084098004 0.65088892
-0.037820004 0.084940009 0.65100002
-0.055757143 0.088591434 0.65050006
-0.052795924 0.086931981 0.65000004
-0.04209524 0.086047627 0.65000004
-0.039000001 0.086047627 0.65000004
-0.052013338 0.07958667 0.65800011
-0.047317557 0.078980416 0.65742862
-0.042579528 0.079526193 0.65750003
-0.052345958 0.082791671 0.65691674
-0.047849622 0.081705436 0.65590012
-0.042427018 0.081729017 0.65600008
-0.038354576 0.08233019 0.65590006
-0.048473336 0.074913338 0.66100001
-0.052099723 0.077143148 0.66070002
-0.048116978 0.076608054 0.66081822
-0.042608894 0.078079537 0.66116679
-0.039156765 0.078940764 0.66100007
-0.054266673 0.081504762 0.66000003
-0.051453974 0.073686987 0.66700006
-0.047309939 0.073824495 0.66742867
-0.042381749 0.073953822 0.66750002
-0.045667622 0.075479999 0.66600001
-0.043206479 0.075896002 0.6652
-0.039156195 0.064832382 0.67400002
-0.052078098 0.069061905 0.67299998
-0.047371905 0.068495408 0.67216659
-0.04229223 0.068563655 0.67283332
-0.039098099 0.06793905 0.67299998
-0.052432504 0.071613222 0.67137504
-0.047022015 0.07170286 0.67022222
-0.041896384 0.071913339 0.67060006
-0.052105524 0.063483819 0.67880005
-0.047422227 0.063588902 0.67900002
-0.042224336 0.06312789 0.67827272
-0.03908024 0.062979765 0.67825001
-0.052791435 0.066567816 0.67600006
-0.047624525 0.065643579 0.67575008
-0.042750206 0.06573198 0.67571437
-0.047211669 0.058932625 0.68375003
-0.044406038 0.058701914 0.68233335
-0.050123334 0.062490955 0.68350005
-0.047581233 0.061306674 0.6817143
-0.043196511 0.060689848 0.68033338
-0.047180004 0.054384768 0.68800002
-0.043837145 0.054305717 0.68700004
-0.050526671 0.059713338 0.68900001
-0.047372382 0.056831229 0.68766671
-0.050380003 0.060848575 0.68700004
-0.052162591 0.048765313 0.69328582
-0.048562389 0.048559844 0.69216675
-0.052517023 0.052514993 0.69100016
-0.04748198 0.052436713 0.69023085
-0.044028573 0.05191429 0.69000006
-0.052441649 0.057343476 0.6906364
-0.047971431 0.055857148 0.69000006
-0.055096194 0.04779429 0.69700003
-0.05317302 0.047436513 0.69500005
-0.052594289 0.034388572 0.708
-0.055965718 0.036411431 0.708
-0.053437144 0.036917146 0.70800006
-0.056853473 0.032833606 0.7118572
-0.053577241 0.032065243 0.71030003
-0.057441913 0.028947305 0.71800005
-0.060943812 0.030814288 0.71900004
-0.058768101 0.030750003 0.71750003
-0.062153656 0.027596828 0.72244447
-0.059108574 0.026468573 0.72000003
-0.062090363 0.033102505 0.72037506
-0.059657145 0.032914288 0.72000003
-0.076746099 0.023731239 0.72860003
-0.072057627 0.024250001 0.72750008
-0.066533528 0.023375431 0.72620004
-0.063104168 0.022992263 0.72612494
-0.076714583 0.028022572 0.72830009
-0.07276731 0.027720321 0.72766674
-0.067725718 0.027642855 0.72562498
-0.064214289 0.027388891 0.72500008
-0.076345481 0.031926431 0.72874999
-0.072689749 0.032536086 0.72688895
-0.06771414 0.032474764 0.72549999
-0.064214289 0.032452382 0.72500002
-0.071217149 0.03526286 0.72600001
-0.067714289 0.035238575 0.72549999
-0.064214289 0.035214286 0.72500002
-0.061166674 0.0080390479 0.73400003
-0.058057621 0.0078440486 0.73224998
-0.085982859 0.013980953 0.73400003
-0.082432389 0.013971904 0.73350006
-0.061609846 0.012788043 0.73233336
-0.057982728 0.011437417 0.73100007
-0.086542092 0.017755812 0.73400003
-0.082771055 0.017586289 0.73280001
-0.078992389 0.018175241 0.73400003
-0.070603818 0.018874288 0.73400003
-0.067685723 0.01884 0.73266673
-0.064137146 0.018822858 0.73200005
-0.090177149 0.02376762 0.73400003
-0.087031044 0.022630287 0.73340005
-0.082207032 0.022292739 0.73150009
-0.077521369 0.02119592 0.73142868
-0.072519846 0.02161476 0.73216677
-0.06798137 0.021399049 0.7315715
-0.064137146 0.020217145 0.73200005
-0.091450483 0.02931905 0.73300004
-0.087825358 0.027880715 0.73187506
-0.082150482 0.02784762 0.73100001
-0.078669526 0.026455238 0.73100001
-0.091575243 0.031457145 0.73400003
-0.087840006 0.03137143 0.73200005
-0.082179293 0.031339288 0.73124999
-0.078669526 0.031328574 0.73100001
-0.10627525 -0.00070380955 0.73900002
-0.10486762 -0.00070380955 0.73900002
-0.10755491 0.0030071866 0.73900002
-0.10486762 0.0035190478 0.73900002
-0.082345724 0.0049266675 0.73900002
-0.078122869 0.0049266675 0.73900002
-0.071084768 0.0049266671 0.73900002
-0.062072545 0.0039811111 0.73783344
-0.059311431 0.0038585716 0.73700005
-0.10838667 0.0063342862 0.73900002
-0.10486762 0.0077419053 0.73900002
-0.095014289 0.0091495244 0.73900002
-0.091769338 0.0085723819 0.73780006
-0.087272398 0.0080234287 0.73899996
-0.082295775 0.0077364021 0.73855555
-0.077350482 0.0077342875 0.7383334
-0.072361588 0.0077266679 0.73766673
-0.067489065 0.0077319061 0.73816669
-0.063312583 0.0074398103 0.73700005
-0.1027562 0.014076191 0.73899996
-0.097014286 0.012853594 0.73863637
-0.092378311 0.012837349 0.73721439
-0.087747373 0.012187015 0.73709089
-0.082507491 0.011328436 0.73685724
-0.077176601 0.012628158 0.73668766
-0.072296202 0.012634288 0.73700011
-0.067395121 0.012635597 0.73712516
-0.063815564 0.011920953 0.73633337
-0.10269222 0.017467275 0.73900002
-0.097713128 0.017574076 0.73811108
-0.092620723 0.017541669 0.73675007
-0.088670485 0.017173335 0.73600006
-0.080664292 0.01683381 0.73650002
-0.076725148 0.017392954 0.73640007
-0.072447389 0.017365953 0.73675001
-0.067370363 0.016842265 0.73687506
-0.063299529 0.016879525 0.73850006
-0.10255511 0.022220274 0.73900008
-0.097564772 0.022460952 0.73700011
-0.092907839 0.022249322 0.73664302
-0.08902096 0.021028573 0.73600006
-0.10099667 0.02709667 0.73900002
-0.097594604 0.02738254 0.73722225
-0.093434051 0.027171427 0.73625004
-0.096994296 0.030574765 0.73800004
-0.093428575 0.031613339 0.73760003
-0.055901907 -0.0091990484 0.74300003
-0.05448667 -0.0084914295 0.74300003
-0.11172906 -0.00070714287 0.74250007
-0.10853334 -0.00070476194 0.74000001
-0.10256334 -0.0024048572 0.74270004
-0.097328514 -0.0024489381 0.74261534
-0.092698097 -0.0021228571 0.74300003
-0.087744758 -0.0014152383 0.74300003
-0.084206671 -0.0014152383 0.74300003
-0.078545719 -0.00070761907 0.74300003
-0.061562862 -0.00070761907 0.74300003
-0.11589335 0.0035333335 0.74200004
-0.11250757 0.0026634433 0.74153847
-0.10733667 0.00070619048 0.74150002
-0.10252406 0.0028272222 0.74241674
-0.097090349 0.0015156463 0.74257153
-0.092390291 0.0025460955 0.74280006
-0.087567739 0.0028228571 0.7414999
-0.082580954 0.0021161905 0.7411111
-0.077528432 0.0023354581 0.7416153
-0.072725967 0.0025919841 0.74258339
-0.06768018 0.0036630307 0.74236369
-0.062657468 0.0016479366 0.7420001
-0.11208572 0.0075804093 0.74285722
-0.10773266 0.0081634019 0.74071431
-0.1022817 0.0077585191 0.74066669
-0.097622767 0.0076277154 0.74170011
-0.09273953 0.0066995244 0.74050003
-0.087390482 0.0063428576 0.74000001
-0.11222839 0.012878668 0.74300003
-0.10758349 0.012501975 0.7410714
-0.10223716 0.011280954 0.74033344
-0.098901592 0.011041272 0.74000001
-0.112043 0.017478097 0.74257153
-0.10789419 0.017629631 0.74044448
-0.10360001 0.019028572 0.74000001
-0.11141263 0.021575477 0.74275005
-0.10787087 0.022769893 0.74176925
-0.10360001 0.024666669 0.74000001
-0.10619924 0.027009904 0.74240005
-0.10320344 0.027813718 0.74120003
-0.10543524 0.030427622 0.74300003
-0.10213067 0.030935241 0.74160004
-0.097691573 0.032564491 0.74100006
-0.093405724 0.034673337 0.74300003
-0.043633338 -0.027960952 0.74800009
-0.11231874 -0.011398096 0.74800009
-0.10899429 -0.010685715 0.74800003
-0.10187048 -0.010685715 0.74800003
-0.056934051 -0.011387382 0.74725002
-0.053923812 -0.011352381 0.74500006
-0.1161181 -0.007836191 0.74800003
-0.1125562 -0.007836191 0.74800003
-0.10842439 -0.0078361919 0.74800009
-0.1024253 -0.0076907375 0.74636376
-0.097422227 -0.0078241276 0.74666673
-0.092464611 -0.0078255571 0.74683344
-0.087776199 -0.0074254433 0.74757153
-0.083316475 -0.0072231302 0.74771434
-0.078361914 -0.006411429 0.74800003
-0.061570078 -0.0076326542 0.74800009
-0.057842858 -0.0076528578 0.74750006
-0.11162833 -0.0037390478 0.74775004
-0.10724974 -0.0035528045 0.7457779
-0.10193493 -0.0049666669 0.74500006
-0.09862382 -0.004257143 0.74500006
-0.091812387 -0.0046828575 0.74500006
-0.087271437 -0.0042571435 0.74500006
-0.082118444 -0.0030471429 0.74607152
-0.077312559 -0.0030379221 0.74600005
-0.072492868 -0.0028454761 0.74625003
-0.067723133 -0.0026538528 0.747091
-0.062598497 -0.0032030956 0.74691671
-0.059127621 -0.0028495239 0.74800003
-0.10004286 0.0035476191 0.74500006
-0.097441286 0.004020635 0.74500006
-0.09436667 0.004257143 0.74500006
-0.070242859 0.00070952385 0.74500006
-0.067404769 0.00070952385 0.74500006
-0.064566672 0.00070952385 0.74500006
-0.11636192 0.0078047626 0.74500006
-0.11423334 0.008514287 0.74500006
-0.09862382 0.0078047626 0.74500006
-0.11659842 0.013007937 0.745
-0.11423334 0.012061905 0.74500006
-0.12039239 0.019234287 0.74800003
-0.11728118 0.017771324 0.74633342
-0.11423334 0.018447619 0.74500006
-0.12039239 0.022083811 0.74800003
-0.11747786 0.022783732 0.74758339
-0.11334644 0.023236906 0.745
-0.11140934 0.027462287 0.7470001
-0.10833164 0.02797086 0.74540007
-0.10756953 0.031344764 0.74800003
-0.10239937 0.03389778 0.74666679
-0.097293019 0.034797784 0.74566674
-0.047952857 -0.031133812 0.75150007
-0.043857146 -0.031285718 0.75000006
-0.047857143 -0.027857145 0.75000006
-0.11718114 -0.021370862 0.75300002
-0.11402572 -0.020797145 0.75300002
-0.10255144 -0.020797145 0.75300002
-0.09968286 -0.020797145 0.75300002
-0.11686001 -0.017923703 0.75277787
-0.11253536 -0.017741073 0.75262511
-0.10705819 -0.01720627 0.75275004
-0.10247216 -0.017198969 0.75241673
-0.097857088 -0.016815459 0.7525385
-0.092730008 -0.016012859 0.75283337
-0.060957149 -0.015060001 0.75300002
-0.059443813 -0.015040001 0.75200003
-0.11702698 -0.013027253 0.7503078
-0.11214287 -0.013775511 0.75000012
-0.10785716 -0.012857142 0.75000006
-0.10302725 -0.012432192 0.75020003
-0.097163975 -0.012145873 0.75016677
-0.092224769 -0.012154921 0.75066668
-0.087507367 -0.01203723 0.75145453
-0.082434289 -0.011469208 0.75266671
-0.077451438 -0.010757144 0.75300002
-0.072144583 -0.011330859 0.75300002
-0.067400604 -0.011472501 0.75287509
-0.062130239 -0.011996906 0.75199997
-0.058083817 -0.013372519 0.7502858
-0.11595239 -0.0076190485 0.75000012
-0.11214286 -0.0078571439 0.75000012
-0.10678571 -0.0078571439 0.75000006
-0.10214286 -0.0092857145 0.75000006
-0.087142862 -0.0092857145 0.75000006
-0.081900202 -0.0087192385 0.75040001
-0.077006035 -0.0080274083 0.75099999
-0.072250165 -0.0078700529 0.75111115
-0.067002594 -0.0074575515 0.75071436
-0.063571431 -0.0085714292 0.75000006
-0.058571436 -0.0050000004 0.75000006
-0.11357144 -0.0021428573 0.75000006
-0.057857148 -0.0035714288 0.75000006
-0.12071429 0.017857144 0.75000006
-0.12071429 0.020714287 0.75000006
-0.1210362 0.025066668 0.75200003
-0.11721566 0.027128574 0.75242865
-0.11319619 0.028835557 0.75066674
-0.046401273 -0.033419684 0.7573334
-0.11642557 -0.026886826 0.7561667
-0.11249366 -0.027224319 0.75620019
-0.10728001 -0.026640002 0.75600004
-0.10275827 -0.0268027 0.75716674
-0.09774591 -0.025844192 0.75800002
-0.052285507 -0.026825186 0.75666672
-0.11629715 -0.023259684 0.75533342
-0.1120156 -0.022429788 0.75527281
-0.10715409 -0.022293972 0.75511116
-0.10253387 -0.022617042 0.75522226
-0.097693019 -0.022163916 0.75611115
-0.092436202 -0.021538233 0.75742859
-0.087350488 -0.021512764 0.75800002
-0.082297154 -0.020935239 0.75800002
-0.052960772 -0.023232764 0.75760001
-0.11145239 -0.019414287 0.75500005
-0.1085762 -0.019414287 0.75500005
-0.096154928 -0.018943494 0.75533342
-0.092578582 -0.018468097 0.75550008
-0.087782264 -0.017269405 0.75550014
-0.082433894 -0.017497145 0.75642866
-0.077810161 -0.016717143 0.75766671
-0.07203842 -0.017078415 0.75766659
-0.067423344 -0.01694778 0.75716662
-0.063043706 -0.017064234 0.75699997
-0.059839051 -0.01730381 0.75700003
-0.08556667 -0.013661906 0.75500005
-0.082762867 -0.013673969 0.75566673
-0.07769829 -0.012518669 0.75540012
-0.073055476 -0.013315953 0.75575006
-0.067636192 -0.013670953 0.75550008
-0.063995242 -0.013661906 0.75500005
-0.0769381 -0.0093476195 0.75500005
-0.050140005 -0.035606667 0.76300001
-0.047000956 -0.037509181 0.76136374
-0.04358096 -0.037370075 0.76085728
-0.11118001 -0.03124667 0.76300001
-0.10754668 -0.03124667 0.76300001
-0.051778581 -0.032423653 0.76216668
-0.048559051 -0.034063812 0.76100004
-0.043485716 -0.034063812 0.76100004
-0.11074287 -0.029676192 0.76000005
-0.10784763 -0.029676192 0.76000011
-0.10179596 -0.029343573 0.76075006
-0.097362153 -0.028647859 0.76150006
-0.092424907 -0.02716689 0.76138473
-0.087112628 -0.026134526 0.76225007
-0.082476676 -0.025796667 0.76300001
-0.077268891 -0.02591778 0.76300001
-0.071940005 -0.02715091 0.76300001
-0.068306677 -0.026886668 0.76300001
-0.056531433 -0.025366668 0.76100004
-0.05366905 -0.029734764 0.7615
-0.096266672 -0.023885716 0.76000005
-0.09250287 -0.023596192 0.76000005
-0.087580957 -0.023523811 0.76000005
-0.082527503 -0.023165833 0.7601251
-0.077560849 -0.022471959 0.76111114
-0.072515957 -0.022481669 0.76141679
-0.067442015 -0.022482434 0.76144451
-0.062424615 -0.022503337 0.76216668
-0.057248048 -0.022464126 0.76088899
-0.076723814 -0.019542858 0.76000005
-0.073587313 -0.019060319 0.76000011
-0.065866672 -0.019542858 0.76000005
-0.061523817 -0.019542858 0.76000011
-0.04169143 -0.047542859 0.76800001
-0.10898286 -0.04169143 0.76800001
-0.047447145 -0.040881433 0.7665
-0.042388692 -0.041475601 0.76737505
-0.038765717 -0.040228575 0.76800001
-0.11176178 -0.036768034 0.76557153
-0.10796064 -0.036799684 0.76766676
-0.092473477 -0.037093878 0.76800007
-0.086674288 -0.036571432 0.76800001
-0.084114291 -0.035840001 0.76800001
-0.077775247 -0.036327623 0.76800001
-0.05240915 -0.036348954 0.76640004
-0.040800005 -0.037157144 0.76500005
-0.038765717 -0.038765717 0.76800001
-0.11147144 -0.033514291 0.76500005
-0.10724001 -0.03355905 0.76600003
-0.10248033 -0.032701273 0.76677781
-0.097381435 -0.032706004 0.76650006
-0.092703499 -0.032849099 0.76644444
-0.087667391 -0.032875482 0.76708341
-0.082603179 -0.032895662 0.76755559
-0.077355482 -0.032840397 0.76625007
-0.072429061 -0.032658093 0.76625001
-0.068877473 -0.031883813 0.76666677
-0.056295559 -0.032900639 0.7676667
-0.05323929 -0.033547863 0.76575005
-0.095442861 -0.02987143 0.76500005
-0.093985721 -0.02987143 0.76500005
-0.087485254 -0.029161908 0.76550007
-0.082306907 -0.028653812 0.76650006
-0.077384606 -0.028305557 0.76533335
-0.073585719 -0.029142858 0.76500005
-0.06643334 -0.028472491 0.76655561
-0.062325984 -0.027149871 0.76663643
-0.057839435 -0.028189717 0.76680005
-0.05464286 -0.028414287 0.76500005
-0.10660953 -0.051099051 0.77200001
-0.10380287 -0.050797146 0.77300006
-0.042643812 -0.050731432 0.77200001
-0.10691076 -0.047948029 0.77114284
-0.10264685 -0.04761827 0.77136362
-0.098953336 -0.047453813 0.77250004
-0.046380002 -0.047116194 0.77300006
-0.042712592 -0.047450162 0.77177781
-0.03828191 -0.046380002 0.77300006
-0.11102096 -0.040438097 0.77200001
-0.10711347 -0.042660385 0.77140009
-0.10217604 -0.042634126 0.77183336
-0.097766034 -0.042635716 0.77183336
-0.09290763 -0.041987937 0.7711668
-0.087417468 -0.041139051 0.7713334
-0.083097279 -0.041286942 0.77214295
-0.078670479 -0.040438097 0.77200001
-0.050600003 -0.040333334 0.77000004
-0.047165912 -0.043640576 0.77140003
-0.042241503 -0.043920144 0.7704286
-0.038182862 -0.042835876 0.77100009
-0.11146668 -0.038866669 0.77000004
-0.1062042 -0.038339812 0.77120006
-0.1024124 -0.037322093 0.77139992
-0.09764678 -0.037444029 0.77088892
-0.091960013 -0.037693337 0.77000004
-0.087560005 -0.037986673 0.77000004
-0.082736194 -0.037608098 0.7705
-0.077978455 -0.03761417 0.770625
-0.072798632 -0.0375036 0.77211112
-0.067729525 -0.036809526 0.77300006
-0.062944286 -0.03644143 0.77300006
-0.057532858 -0.03713024 0.77199996
-0.053533338 -0.037400004 0.77000004
-0.10266668 -0.034466669 0.77000004
-0.071133338 -0.034466669 0.77000004
-0.067021698 -0.033389315 0.77144444
-0.06242165 -0.03251446 0.77109098
-0.058164902 -0.033012792 0.77028579
-0.10609239 -0.055642862 0.77900004
-0.1059562 -0.053349528 0.778
-0.1022244 -0.052892387 0.77780002
-0.097682156 -0.052085955 0.77850008
-0.094221912 -0.051191431 0.77900004
-0.09659858 -0.048208099 0.77575004
-0.092538744 -0.047383182 0.77733344
-0.087451279 -0.047061905 0.77816689
-0.082746916 -0.046095952 0.77750003
-0.077900007 -0.045256194 0.77900004
-0.048100002 -0.046620004 0.77700001
-0.040700004 -0.049580004 0.77700001
-0.039220002 -0.048840001 0.77700001
-0.090785719 -0.043547623 0.77500004
-0.087833345 -0.043547623 0.77500004
-0.081633337 -0.042957153 0.77500004
-0.077489533 -0.042353336 0.77675003
-0.072871007 -0.041747417 0.77811116
-0.067513339 -0.041546673 0.77900004
-0.06263797 -0.041652661 0.77900004
-0.057986099 -0.041080575 0.77860004
-0.052608892 -0.041987624 0.77800006
-0.04958 -0.042921908 0.77700007
-0.076023817 -0.03911905 0.77500004
-0.070209533 -0.036953337 0.77600002
-0.067282863 -0.038447626 0.77633333
-0.062506862 -0.038568955 0.77580005
-0.057817467 -0.03911905 0.77500004
-0.052404769 -0.03911905 0.77500004
-0.045880005 -0.00074000005 0.77700001
-0.042920001 -0.00074000005 0.77700001
-0.051060002 0.0037000002 0.77700001
-0.047389053 0.0022214286 0.77750009
-0.043373335 0.0018542858 0.77850002
-0.051060002 0.0051800003 0.77700001
-0.049127944 0.0056777783 0.77766669
-0.10528 -0.060480002 0.78400004
-0.10378668 -0.060480002 0.78400004
-0.10595953 -0.05820334 0.78350008
-0.10232916 -0.057200003 0.78200001
-0.097688578 -0.056675248 0.78300011
-0.094080009 -0.056000005 0.78400004
-0.096571431 -0.054228574 0.78000003
-0.092278294 -0.053136956 0.78140014
-0.087694772 -0.05232095 0.78200006
-0.082808897 -0.052222859 0.78333342
-0.077548586 -0.052500952 0.78377777
-0.072426669 -0.051146671 0.78400004
-0.06869334 -0.05002667 0.78400004
-0.047040001 -0.051022228 0.7840001
-0.088400006 -0.049771436 0.78000009
-0.082201533 -0.049202669 0.78040004
-0.077192537 -0.048124988 0.78107697
-0.072207965 -0.047440518 0.78163654
-0.067791328 -0.046935029 0.78222227
-0.062865458 -0.046862002 0.78327274
-0.057493336 -0.046293341 0.78400004
-0.052091051 -0.046120767 0.78360003
-0.047695719 -0.048440479 0.78250003
-0.07205715 -0.043828573 0.78000009
-0.067600004 -0.043828573 0.78000009
-0.062400006 -0.043828573 0.78000003
-0.056960769 -0.043279242 0.78080004
-0.053622864 -0.043940954 0.78200006
-0.041458417 0.0027333337 0.78200006
-0.10285811 -0.065319054 0.78833342
-0.098437153 -0.065374292 0.78900003
-0.10554858 -0.062880002 0.78600001
-0.10243191 -0.06235905 0.7865001
-0.097765893 -0.062154293 0.78800005
-0.093928576 -0.060865719 0.78900003
-0.096865155 -0.058837719 0.78600001
-0.092241377 -0.057746131 0.78742862
-0.087805718 -0.05628572 0.78800005
-0.082552388 -0.056285717 0.78800005
-0.077299051 -0.056285717 0.78800005
-0.050345719 -0.056357145 0.78900003
-0.048030481 -0.056285717 0.78800005
-0.086834297 -0.054645717 0.78600001
-0.082342863 -0.054645717 0.78600001
-0.077199057 -0.054715242 0.78700006
-0.072703816 -0.053966671 0.78700006
-0.06732212 -0.052852318 0.78792864
-0.062649213 -0.052139793 0.78833342
-0.057835244 -0.051075876 0.78866673
-0.052175608 -0.052175317 0.78869236
-0.047720321 -0.053466987 0.78700006
-0.043417145 -0.053148575 0.78600001
-0.060634289 -0.048657145 0.78600001
-0.057640009 -0.048657145 0.78600001
-0.05292223 -0.048178732 0.78633344
-0.10032 -0.066378102 0.79200006
-0.097364292 -0.066419527 0.79250002
-0.093649529 -0.065705717 0.79300004
-0.095673338 -0.064033337 0.79100001
-0.092646435 -0.062834531 0.79250008
-0.087607622 -0.062684774 0.79300016
-0.082752518 -0.062468983 0.7930001
-0.091153339 -0.059513338 0.79100001
-0.087413572 -0.058778811 0.79124999
-0.082215883 -0.058834605 0.792
-0.077975884 -0.057853967 0.79233336
-0.072558507 -0.057249397 0.79242867
-0.067173816 -0.057928808 0.79250008
-0.062923633 -0.057189912 0.79220003
-0.057362385 -0.056229528 0.79250002
-0.052733339 -0.056500003 0.79100001
-0.061522227 -0.053988896 0.79100007
-0.057705339 -0.054089338 0.79100001
-0.054491114 -0.054491114 0.79100007
-0.10108001 -0.079800002 0.79800004
-0.09895201 -0.078280002 0.79800004
-0.10564001 -0.072200008 0.79800004
-0.10260001 -0.071693346 0.79800004
-0.097243153 -0.072173439 0.79769999
-0.0923279 -0.07128083 0.79742855
-0.087697856 -0.070993572 0.79725003
-0.082736194 -0.070591435 0.79700011
-0.078181915 -0.070591435 0.79700011
-0.10267144 -0.068398289 0.79619998
-0.097292855 -0.068521433 0.79500002
-0.092184961 -0.067774855 0.796
-0.087144449 -0.067443497 0.79566669
-0.082666993 -0.067500003 0.79633331
-0.078242503 -0.067228213 0.79762501
-0.072200008 -0.066500008 0.79800004
-0.069160007 -0.066120006 0.79800004
-0.08101429 -0.063600004 0.79500002
-0.077372387 -0.06296207 0.79649997
-0.072160013 -0.063045502 0.79755551
-0.067766197 -0.062831193 0.79724997
-0.064559534 -0.062281433 0.79750001
-0.077228576 -0.059814289 0.79500002
-0.072534285 -0.059511434 0.79500002
-0.067385718 -0.059814289 0.79500002
-0.063600004 -0.059814289 0.79500002
-0.10285715 -0.080000006 0.80000001
-0.096000008 -0.080000006 0.80000001
-0.09394858 -0.080200002 0.80200005
-0.10273144 -0.076809056 0.80050009
-0.096931234 -0.076783076 0.80000007
-0.093289912 -0.076801531 0.8016001
-0.081931435 -0.075805716 0.80400002
-0.1029435 -0.072696514 0.80066675
-0.099809527 -0.073904768 0.80000001
-0.092341594 -0.074027948 0.80133337
-0.087664001 -0.073589347 0.80320007
-0.082526676 -0.073102549 0.80233335
-0.076190479 -0.06780953 0.80000001
-0.073904768 -0.06780953 0.80000001
-0.093112387 -0.080800004 0.80800003
-0.0838781 -0.080800004 0.80800003
-0.10669906 -0.07599429 0.80600005
-0.091240644 -0.078170799 0.80733341
-0.087451197 -0.077074051 0.80725008
-0.083220959 -0.077992015 0.80760002
-0.085205719 -0.074459054 0.80600005
-0.091581337 -0.082007244 0.81080008
-0.087567627 -0.081697904 0.81080002
-0.086400002 -0.079457149 0.81000006
