# .PCD v0.7 - Point Cloud Data file format
VERSION 0.7
FIELDS x y z
SIZE 4 4 4
TYPE F F F
COUNT 1 1 1
WIDTH 735
HEIGHT 1
VIEWPOINT 0 0 0 1 0 0 0
POINTS 735
DATA ascii
-0.093960002 0.12470001 0.60900003
-0.10291865 0.12825498 0.60857147
-0.09802001 0.12818001 0.60900003
-0.093380004 0.12586001 0.60900003
-0.10199525 0.13097239 0.60850006
-0.09802001 0.13108003 0.60900003
-0.10225 0.1238681 0.61350006
-0.097473256 0.12312521 0.61218184
-0.094850481 0.12336382 0.611
-0.1016065 0.12702052 0.6115455
-0.097522266 0.12695301 0.61107147
-0.094850481 0.12801906 0.611
-0.10568839 0.11838477 0.61720008
-0.10235571 0.11823827 0.61766672
-0.098368198 0.11881583 0.61700004
-0.10518382 0.12163715 0.61700004
-0.10209358 0.12145533 0.61608344
-0.098049805 0.12099186 0.61542869
-0.091447145 0.10985477 0.62349999
-0.089245722 0.10942923 0.62333333
-0.10221715 0.11469715 0.62400001
-0.096472383 0.11350858 0.62400007
-0.092173271 0.11271525 0.62315392
-0.088892862 0.11259691 0.62225008
-0.10195132 0.11617584 0.62237501
-0.097052164 0.11731649 0.62158829
-0.092840694 0.11684365 0.62163639
-0.088857152 0.11610667 0.62200004
-0.096558101 0.12025334 0.62200004
-0.10004096 0.10483334 0.62900001
-0.097644769 0.10483334 0.62900001
-0.091254927 0.1027034 0.62900001
-0.087588727 0.10343811 0.62892312
-0.08353357 0.10449215 0.62874997
-0.10052021 0.10794839 0.62900001
-0.097278111 0.10766081 0.62723082
-0.092645444 0.10758841 0.62761122
-0.087582126 0.10751083 0.62864298
-0.083020553 0.10679062 0.62842864
-0.10237927 0.11304089 0.6270715
-0.098089539 0.11204054 0.62528574
-0.094404772 0.11202381 0.625
-0.088060006 0.11082382 0.62900001
-0.092804238 0.098642059 0.63100004
-0.087159798 0.098952167 0.63311112
-0.083325721 0.099628575 0.634
-0.10067715 0.10429429 0.63300002
-0.097430415 0.10280361 0.6323846
-0.093267821 0.10228211 0.63100004
-0.087188698 0.1008694 0.63137501
-0.082321696 0.10248434 0.63299996
-0.07905747 0.10319652 0.63366669
-0.10276286 0.10997429 0.63100004
-0.097554609 0.10556731 0.63100004
-0.094349533 0.10516667 0.63100004
-0.086537153 0.10997429 0.63100004
-0.083016515 0.10808223 0.63166672
-0.078974292 0.10550001 0.63300002
-0.10516667 0.11237811 0.63100004
-0.10396477 0.11237811 0.63100004
-0.086537153 0.1111762 0.63100004
-0.084734291 0.1111762 0.63100004
-0.088620007 0.11996858 0.63300002
-0.088078737 0.12138414 0.63200009
-0.082743973 0.093898259 0.6388334
-0.091424629 0.097847216 0.63814294
-0.087417081 0.096520714 0.63741672
-0.08231461 0.097332589 0.63655567
-0.078252017 0.097429179 0.63846159
-0.074854292 0.099197149 0.63900006
-0.077896096 0.10113756 0.63844448
-0.074854292 0.10041429 0.63900006
-0.087634295 0.11988858 0.63900006
-0.087100215 0.1231834 0.63855559
-0.08810477 0.12577716 0.63800001
-0.095066674 0.093840003 0.64400005
-0.092003226 0.093222983 0.64187503
-0.087591447 0.092545405 0.64166671
-0.082625628 0.092158392 0.64170009
-0.077422097 0.093142487 0.6414668
-0.07354334 0.093459532 0.64350003
-0.092700586 0.095873155 0.64120007
-0.075717621 0.096478574 0.64116675
-0.074059054 0.096909218 0.6426667
-0.069306672 0.098746672 0.64400005
-0.070533335 0.10488001 0.64400005
-0.070533335 0.10610668 0.64400005
-0.083843276 0.08260899 0.64800006
-0.077366292 0.084275626 0.64780003
-0.072617151 0.084548578 0.648
-0.086744636 0.088506006 0.64728576
-0.082601562 0.087531321 0.64724994
-0.077543274 0.087387443 0.64618754
-0.072624579 0.087566562 0.64660001
-0.095214292 0.092757151 0.64500004
-0.09152858 0.09152858 0.64500004
-0.087296672 0.090370007 0.64550006
-0.081970669 0.090573728 0.64520001
-0.077604771 0.090709537 0.64500004
-0.072206087 0.091971964 0.64546156
-0.071670093 0.097362682 0.64539999
-0.069107145 0.096442863 0.64500004
-0.072326466 0.10194416 0.64592862
-0.069414288 0.10074286 0.64500004
-0.072394297 0.10561525 0.64600003
-0.081220008 0.079980008 0.65100002
-0.075872391 0.078981914 0.65300006
-0.081482515 0.082875609 0.65062505
-0.077646613 0.082167014 0.65149999
-0.072585486 0.083028503 0.65141672
-0.073666669 0.086047627 0.65000004
-0.077530384 0.077778958 0.65650004
-0.073325962 0.078941673 0.65525001
-0.077976197 0.080471441 0.65500009
-0.07194604 0.08088731 0.65500003
-0.069242865 0.082342863 0.65500003
-0.075942725 0.073058642 0.66214293
-0.073579244 0.073579244 0.66260004
-0.077314287 0.076057151 0.66000003
-0.072506852 0.077072561 0.66131252
-0.067678571 0.078032672 0.66290009
-0.063774288 0.078928575 0.66300005
-0.067537032 0.081896789 0.66275001
-0.064041436 0.082969531 0.66250002
-0.066830479 0.085114293 0.66200006
-0.064308576 0.085114293 0.66200006
-0.066262864 0.069448575 0.66900003
-0.063077152 0.069448575 0.66900003
-0.071976356 0.07197319 0.66683334
-0.067303635 0.072380789 0.66668755
-0.062966511 0.072507791 0.66783345
-0.070300005 0.076000005 0.66500002
-0.066500008 0.076090485 0.66500008
-0.063396834 0.076708898 0.6656667
-0.065233335 0.080433339 0.66500002
-0.063966669 0.080433339 0.66500002
-0.072468005 0.064032577 0.671
-0.072637022 0.067785464 0.67020005
-0.06774234 0.068167724 0.67033339
-0.063561201 0.068033099 0.67075002
-0.070847943 0.063526034 0.6783334
-0.067220323 0.06269525 0.67866671
-0.061546881 0.06269525 0.67866665
-0.058846671 0.060786672 0.67900002
-0.070382863 0.065862864 0.67800003
-0.067402862 0.065680325 0.6783334
-0.062305406 0.066025399 0.67600006
-0.056240004 0.053634293 0.68400002
-0.065794289 0.057325721 0.68400002
-0.06228213 0.057576925 0.68284619
-0.058400005 0.057748578 0.68133342
-0.062819049 0.061338786 0.68000001
-0.070590481 0.068000004 0.68000001
-0.066704765 0.066704765 0.68000001
-0.061980832 0.053148694 0.6868751
-0.057770159 0.052232601 0.6884445
-0.065986671 0.055533338 0.68600005
-0.063373342 0.055968892 0.68600005
-0.05817556 0.055560321 0.68633342
-0.061599053 0.047958102 0.69300002
-0.059228577 0.048699051 0.69100004
-0.065151431 0.05264762 0.69100004
-0.063254103 0.05168115 0.69040006
-0.059361905 0.051476195 0.69000006
-0.062062193 0.043323338 0.69769996
-0.063049257 0.047120009 0.69685721
-0.066714764 0.04403143 0.70050001
-0.064666674 0.04266667 0.70000005
-0.051748894 0.031585719 0.70566672
-0.051643811 0.028540477 0.71350002
-0.050738096 0.031795241 0.71033335
-0.049385082 0.031795241 0.71033335
-0.049302857 0.028760001 0.71900004
-0.067014292 0.031455241 0.71800005
-0.06487143 0.031411432 0.71700001
-0.048618097 0.030814288 0.71900004
-0.055697147 0.014440001 0.72200006
-0.051855054 0.013306476 0.72020018
-0.0474285 0.012372462 0.72175014
-0.04469524 0.013064763 0.72200006
-0.05554286 0.01577143 0.72000003
-0.052525718 0.016045718 0.72000003
-0.055735718 0.022018574 0.72250009
-0.05434699 0.022701275 0.72233343
-0.067158781 0.029006671 0.72271436
-0.058280483 0.014570002 0.72850001
-0.044190481 0.014500001 0.72500002
-0.06188022 0.017645715 0.72822219
-0.057571791 0.017459882 0.72612494
-0.052259732 0.018079322 0.72614282
-0.047548003 0.016220002 0.72780007
-0.076371431 0.024300002 0.72900003
-0.072404638 0.023473745 0.72800004
-0.067621782 0.023662316 0.72771436
-0.062262144 0.022136787 0.72637498
-0.057593819 0.022098575 0.72509998
-0.054547623 0.020023812 0.72500002
-0.076319531 0.026364762 0.72850001
-0.072668426 0.027683493 0.72666669
-0.067938313 0.026483918 0.72544444
-0.062456951 0.027429456 0.7252143
-0.05764972 0.026128953 0.72580004
-0.050648101 0.026364287 0.72850001
-0.048408192 0.027601717 0.72820008
-0.075677149 0.031242859 0.72900003
-0.072734609 0.031864133 0.72733343
-0.069738097 0.031761907 0.72500002
-0.042601913 -0.0013968255 0.73333335
-0.039845716 -0.0013980954 0.73400003
-0.053127624 0.0090876194 0.73400003
-0.072650008 0.014670001 0.7335
-0.067807622 0.014680001 0.73400009
-0.062320165 0.01418397 0.73250008
-0.057243813 0.012914287 0.73300004
-0.053826671 0.01188381 0.73400003
-0.080390483 0.018874288 0.73400003
-0.077394567 0.017875649 0.73400009
-0.072519839 0.017432228 0.73216671
-0.067612804 0.017425716 0.73188889
-0.064311117 0.01648381 0.73133337
-0.047060553 0.018207757 0.73128575
-0.04275715 0.017627619 0.73300004
-0.080856517 0.022835558 0.73400009
-0.077555336 0.021898761 0.73230004
-0.072429053 0.02089262 0.73124999
-0.067546196 0.020890322 0.73116672
-0.050821908 0.023670478 0.73100001
-0.047416255 0.022314468 0.73218757
-0.044040006 0.021670479 0.73400009
-0.081053019 0.02725048 0.73366678
-0.077552937 0.028371977 0.73171431
-0.046382267 0.027376313 0.73237503
-0.082254611 0.030991113 0.73400009
-0.078420639 0.030948255 0.73300004
-0.0454381 0.030059049 0.73400003
-0.042133972 -0.0077250805 0.73733342
-0.037473064 -0.0081386408 0.73842865
-0.03448667 -0.0084457146 0.73900002
-0.041120384 -0.0043508573 0.73680007
-0.037458103 -0.0031127897 0.73814291
-0.069677144 0.0049266671 0.73900002
-0.056619052 0.004571429 0.73850006
-0.054120004 0.0042161909 0.73800004
-0.082515523 0.0081405453 0.73871434
-0.077184454 0.0091495244 0.73900002
-0.071436673 0.0080938097 0.73900002
-0.067550652 0.0077398419 0.73883337
-0.062620215 0.0077391542 0.73877776
-0.057596676 0.0077250805 0.73750013
-0.054010004 0.0070138099 0.73650002
-0.08596532 0.013372382 0.73900002
-0.082224697 0.012649762 0.73791671
-0.077421658 0.012504574 0.73766679
-0.072296835 0.011930902 0.73700005
-0.067359298 0.011927381 0.73675001
-0.06267035 0.011530478 0.73700005
-0.057823949 0.011123537 0.73657149
-0.053272381 0.010514286 0.73600006
-0.09114334 0.017947145 0.73900002
-0.087845191 0.017568361 0.73788893
-0.082975678 0.017410997 0.73663646
-0.078506671 0.016121905 0.73600006
-0.040008575 0.01614381 0.73700005
-0.038441431 0.017727859 0.73724997
-0.091137789 0.022023177 0.73800004
-0.087748498 0.022463892 0.73708344
-0.083728291 0.022159144 0.73630005
-0.041592903 0.022604177 0.73638469
-0.037727386 0.02211 0.73700005
-0.090791434 0.026040955 0.73900002
-0.087858424 0.026708892 0.73800004
-0.084171593 0.027356353 0.73650002
-0.042843338 0.027041193 0.73750001
-0.085160956 0.030263811 0.73900002
-0.082361907 0.030841907 0.73600006
-0.07775753 0.033606287 0.73820007
-0.044220004 0.030181907 0.73700005
-0.040334288 -0.016275238 0.74300003
-0.041952003 -0.012149906 0.74160004
-0.037337434 -0.012588478 0.74250001
-0.034638338 -0.012726429 0.74225003
-0.085621916 -0.0021228574 0.74300003
-0.08373493 -0.0011793652 0.74300003
-0.075715244 -0.00070761907 0.74300003
-0.061562862 -0.00070761907 0.74300003
-0.057317149 -0.00070761907 0.74300003
-0.09666077 0.0024059049 0.74300003
-0.092205882 0.0033011115 0.74283338
-0.087700471 0.0028283333 0.74262506
-0.082577698 0.0028211907 0.74108338
-0.07770811 0.0028240476 0.74174994
-0.072546594 0.0026602931 0.74176913
-0.067588843 0.0034006063 0.74136364
-0.062192041 0.0028248301 0.74207145
-0.057650268 0.0022724869 0.74122226
-0.096236199 0.0077838106 0.74300003
-0.092258655 0.0079827225 0.74271435
-0.087479137 0.0077602388 0.74075001
-0.08175239 0.0063428576 0.74000001
-0.077695668 0.0072910059 0.74088889
-0.073476188 0.0074739056 0.74040002
-0.09620405 0.012732383 0.74275005
-0.09253335 0.012713654 0.74166673
-0.088434927 0.012140741 0.74022222
-0.096686073 0.017498931 0.74237508
-0.093220197 0.017345907 0.74040002
-0.095850244 0.021575479 0.74275005
-0.093452871 0.023070319 0.74150008
-0.092615567 0.027100638 0.74233341
-0.088175878 0.028921273 0.74066675
-0.041693337 0.027560001 0.74200004
-0.086685717 0.030304763 0.74000001
-0.036994286 -0.020631431 0.74700004
-0.034057148 -0.021285716 0.74500006
-0.037638415 -0.01775524 0.74566674
-0.034057148 -0.017738096 0.74500006
-0.0927113 -0.011703403 0.74800009
-0.03831429 -0.013480953 0.74500006
-0.096171431 -0.0071238102 0.74800003
-0.092548266 -0.0078312699 0.74750006
-0.087757029 -0.007654882 0.74762511
-0.083348572 -0.006411429 0.74800003
-0.076224767 -0.006411429 0.74800003
-0.07266286 -0.006411429 0.74800003
-0.067615248 -0.0064057149 0.74733341
-0.062668338 -0.0071216682 0.74775004
-0.058652699 -0.00688635 0.74800003
-0.097026296 -0.0021371429 0.74800009
-0.092526138 -0.0028468457 0.74731255
-0.087796934 -0.0030771431 0.74544448
-0.082058102 -0.0032274728 0.7462309
-0.077608667 -0.0030396536 0.74636376
-0.072474822 -0.0028442261 0.74606252
-0.067502625 -0.0028443658 0.74608338
-0.062704995 -0.0033363376 0.74623084
-0.058022864 -0.0030800002 0.74600005
-0.10154505 0.0031326672 0.7477001
-0.097445324 0.0031424493 0.74528581
-0.093547307 0.0023698413 0.74600005
-0.067404769 0.00070952385 0.74500006
-0.064566672 0.00070952385 0.74500006
-0.10244747 0.0078257155 0.74700016
-0.097825341 0.0078089531 0.74540007
-0.09436667 0.0070952387 0.74500006
-0.10227811 0.012660191 0.74680007
-0.09862382 0.012771429 0.74500006
-0.10100143 0.017782383 0.74683344
-0.09862382 0.019157143 0.74500006
-0.10083112 0.022300955 0.74733341
-0.097802632 0.023253573 0.74550003
-0.10044572 0.026358098 0.74800003
-0.097509854 0.026334604 0.74733341
-0.093042627 0.028054051 0.74575007
-0.040551431 0.027745716 0.74700004
-0.087505721 0.032014288 0.74700004
-0.087462626 -0.02079024 0.75275004
-0.083905719 -0.020797145 0.75300002
-0.040877145 -0.020797145 0.75300002
-0.039285716 -0.020714287 0.75000006
-0.10111715 -0.015777145 0.75300002
-0.097253695 -0.016350651 0.75236356
-0.092563644 -0.017393075 0.75236368
-0.087540522 -0.017684398 0.75199997
-0.082380004 -0.017192859 0.75216669
-0.078014582 -0.016635716 0.75290012
-0.045150004 -0.015767144 0.75250006
-0.042570002 -0.017487142 0.75250006
-0.10241524 -0.012175239 0.75199997
-0.097409882 -0.012281559 0.7505455
-0.091071427 -0.013214286 0.75000006
-0.087000012 -0.012714286 0.75000012
-0.082361914 -0.01217524 0.75199997
-0.077322789 -0.012171986 0.75174999
-0.072324134 -0.012174922 0.75188887
-0.067492902 -0.012042165 0.75172728
-0.062280953 -0.012171747 0.75166672
-0.057576615 -0.011706985 0.75255567
-0.052316673 -0.011467144 0.7525
-0.048668575 -0.011452857 0.75150001
-0.10126934 -0.0075916196 0.75200003
-0.098451003 -0.0073894178 0.75088894
-0.085476205 -0.0088095246 0.75000012
-0.082197629 -0.0080419052 0.75050002
-0.077469729 -0.0081478097 0.75040001
-0.072142869 -0.0085714292 0.75000012
-0.067448989 -0.0086734695 0.75000012
-0.06214286 -0.0092857145 0.75000012
-0.056648254 -0.0073958742 0.75133336
-0.052166671 -0.0071466672 0.75033343
-0.048673473 -0.0074489811 0.75000012
-0.031889904 -0.0055775242 0.75080007
-0.027232384 -0.0057333335 0.7525
-0.022948572 -0.0057371436 0.75300002
-0.10245714 -0.0016104763 0.75100005
-0.098248772 -0.0027173336 0.75080007
-0.055476196 -0.0030952382 0.75000012
-0.053095244 -0.0030952382 0.75000012
-0.032515053 -0.0030080003 0.75200003
-0.02864762 -0.0035809525 0.75200003
-0.022948572 -0.0035857146 0.75300002
-0.10528 0.0021485717 0.75200003
-0.10428572 0.0017857144 0.75000006
-0.10642858 0.0092857145 0.75000006
-0.105 0.0050000004 0.75000006
-0.11100953 0.01360762 0.75200003
-0.1080817 0.012168467 0.75155556
-0.11108334 0.015767144 0.75250006
-0.10718506 0.016622573 0.75230008
-0.10392858 0.017142858 0.75000006
-0.10542001 0.021514287 0.75300002
-0.10335238 0.022530477 0.75100005
-0.10309786 0.025775 0.75175005
-0.09659072 0.028618811 0.75125003
-0.097378872 -0.03245886 0.75739998
-0.025988573 -0.031041907 0.75800002
-0.022585308 -0.0320732 0.75800002
-0.01804762 -0.031041907 0.75800002
-0.10034477 -0.029598096 0.75800002
-0.097355805 -0.026394287 0.75720006
-0.092213966 -0.026520003 0.75711107
-0.088122293 -0.025528762 0.75720006
-0.082778417 -0.025988575 0.75800002
-0.078687623 -0.025266668 0.75800002
-0.026710479 -0.027432382 0.75800002
-0.022559524 -0.028334765 0.75799996
-0.017470097 -0.029309336 0.75800002
-0.09714178 -0.02194177 0.7571429
-0.092853345 -0.0223145 0.75577784
-0.087752387 -0.023017384 0.75525004
-0.082318738 -0.022641273 0.75600004
-0.077618361 -0.022206582 0.75654542
-0.072417416 -0.021736598 0.75714284
-0.067447357 -0.021522451 0.75685716
-0.062916741 -0.021934424 0.75685722
-0.057608005 -0.021224001 0.75800002
-0.052217782 -0.021416508 0.75800008
-0.047630716 -0.021650236 0.75774997
-0.042756766 -0.021738479 0.75580007
-0.025988573 -0.023100954 0.75800002
-0.022379048 -0.023822859 0.75800008
-0.10287868 -0.017122859 0.75540012
-0.09785524 -0.019067619 0.75550008
-0.076698422 -0.018215876 0.75500005
-0.072647855 -0.017263575 0.7552501
-0.067595907 -0.017258514 0.75506258
-0.062577553 -0.017263416 0.7552501
-0.057637509 -0.017293336 0.75650018
-0.052517585 -0.017113943 0.75727272
-0.047825109 -0.017485103 0.7559287
-0.065433338 -0.013661906 0.75500005
-0.056804769 -0.013661906 0.75500005
-0.052514292 -0.013667937 0.75533342
-0.046977784 -0.013182541 0.75500005
-0.031426352 -0.0011990478 0.75566673
-0.027111322 -0.0019985188 0.75577784
-0.023055717 -0.0014404763 0.75650001
-0.035280004 0.0014400001 0.75600004
-0.032802857 0.0010819049 0.75699997
-0.029598096 0.0007219048 0.75800002
-0.10824065 0.018960636 0.75600004
-0.10684954 0.02266524 0.75550008
-0.10646128 0.025714606 0.75700009
-0.026083574 -0.036226906 0.76075
-0.022727622 -0.036045719 0.76000005
-0.017387858 -0.036226906 0.76075011
-0.013788572 -0.036286667 0.76200002
-0.096091911 -0.032635719 0.7615
-0.093013346 -0.03124667 0.76300001
-0.083736435 -0.031537384 0.76125002
-0.031164763 -0.031164763 0.76100004
-0.027333338 -0.032763097 0.76025009
-0.021714287 -0.034019049 0.76000005
-0.017532669 -0.032745812 0.76070017
-0.013770477 -0.034063812 0.76100004
-0.10060953 -0.028228574 0.76000005
-0.097714297 -0.028228574 0.76000011
-0.093251124 -0.029232701 0.76100004
-0.08694803 -0.02829388 0.76171434
-0.082596429 -0.027534049 0.76075
-0.0772181 -0.026223049 0.76060003
-0.072476193 -0.025366668 0.76100004
-0.067402862 -0.02536667 0.76100004
-0.062662758 -0.026857037 0.76211119
-0.05736905 -0.027596671 0.76249999
-0.051977061 -0.027012728 0.76281828
-0.047498479 -0.026582668 0.76260006
-0.043357782 -0.02591778 0.76300001
-0.031164763 -0.02971524 0.76100004
-0.027769949 -0.027770583 0.76066679
-0.022076191 -0.02569524 0.76000005
-0.017330045 -0.026687101 0.76109099
-0.013045715 -0.026816193 0.7610001
-0.098438099 -0.023885716 0.76000005
-0.072427623 -0.023901431 0.76050007
-0.067373976 -0.023906669 0.76066673
-0.061161913 -0.023523811 0.76000005
-0.057180952 -0.023306668 0.76000005
-0.052650888 -0.023067486 0.76028579
-0.047047626 -0.023885718 0.76000011
-0.042704768 -0.023885718 0.76000011
-0.039809525 -0.023161907 0.76000005
-0.028228574 -0.023885716 0.76000005
-0.022442698 -0.021718889 0.76016676
-0.01782343 -0.022606479 0.76080006
-0.013045715 -0.023917144 0.76100004
-0.054285716 -0.019542858 0.76000005
-0.02152889 -0.017899368 0.76200002
-0.017916193 -0.017915877 0.7626667
-0.021800002 -0.013080001 0.76300001
-0.019620001 -0.013080001 0.76300001
-0.026780954 -0.00072380959 0.76000005
-0.032290097 0.0030409526 0.76020002
-0.027358618 0.0023080525 0.76145458
-0.023938097 0.0021774606 0.76166672
-0.032585084 0.0050688898 0.76033342
-0.02971524 0.0050733336 0.76100004
-0.11118001 0.019620001 0.76300001
-0.10951096 0.021758573 0.7615
-0.085577145 -0.047542859 0.76800001
-0.066759527 -0.040690005 0.76750004
-0.063634291 -0.040228575 0.76800001
-0.095442861 -0.035700001 0.76500005
-0.092770487 -0.037254293 0.76700008
-0.089965723 -0.036571428 0.76800001
-0.070948578 -0.03803429 0.76800001
-0.067248575 -0.037278574 0.7675001
-0.062099259 -0.037259895 0.76711118
-0.057948574 -0.036857963 0.76742864
-0.054125719 -0.035840001 0.76800001
-0.048274286 -0.035840001 0.76800001
-0.029201429 -0.035769999 0.7665
-0.021156192 -0.037936192 0.76600003
-0.019722858 -0.03871524 0.76700002
-0.095442861 -0.032785717 0.76500005
-0.092354432 -0.033214834 0.76528579
-0.088529401 -0.032430071 0.76642865
-0.08338286 -0.032914288 0.76800001
-0.071291193 -0.032538332 0.76774997
-0.067651719 -0.033022571 0.76710004
-0.062473517 -0.032661386 0.76518184
-0.057590168 -0.03280561 0.76544446
-0.052530564 -0.032833576 0.76608342
-0.047508046 -0.032890692 0.76744455
-0.042971432 -0.032365717 0.76800007
-0.038765717 -0.03145143 0.76800001
-0.032621715 -0.032621719 0.76800007
-0.029910479 -0.03355905 0.76600003
-0.088885725 -0.02987143 0.76500005
-0.082100578 -0.029020572 0.76560009
-0.07708858 -0.02868776 0.76671439
-0.072275452 -0.028473759 0.76655567
-0.067777254 -0.028422965 0.76522219
-0.062344909 -0.02862245 0.76500005
-0.05318572 -0.028997147 0.76500005
-0.047166128 -0.028425444 0.76528579
-0.042010624 -0.028101759 0.76561546
-0.037593812 -0.028471669 0.76650006
-0.033514291 -0.029142858 0.76500005
-0.038614288 -0.023314286 0.76500005
-0.02732143 0.0054642861 0.76500005
-0.024042858 0.0051000002 0.76500005
-0.11254128 0.018717146 0.76566672
-0.080244765 -0.05521429 0.77300006
-0.078772388 -0.05521429 0.77300006
-0.081422679 -0.052269526 0.77300006
-0.087592624 -0.047745004 0.77125001
-0.08233612 -0.047784999 0.77191675
-0.078772388 -0.047852382 0.77300012
-0.072882861 -0.046380002 0.77300006
-0.068465725 -0.046380006 0.77300012
-0.019116191 -0.046320003 0.77200001
-0.086978413 -0.042875979 0.77177775
-0.082406141 -0.042674825 0.7725625
-0.077605188 -0.042114817 0.77277786
-0.072494857 -0.042351428 0.77200001
-0.067812763 -0.043594856 0.77060002
-0.062470581 -0.042628862 0.77170008
-0.058146194 -0.041217942 0.77283335
-0.051287942 -0.040981274 0.77300012
-0.048220478 -0.040858574 0.77300006
-0.043435242 -0.040490478 0.77300012
-0.021331113 -0.041927304 0.77233338
-0.019860003 -0.041927304 0.77233338
-0.09043429 -0.038967621 0.77200001
-0.087493338 -0.037497144 0.77199996
-0.082425967 -0.037533574 0.77275008
-0.077200003 -0.037497144 0.77199996
-0.07307402 -0.037218235 0.77057147
-0.056135718 -0.038525242 0.77050006
-0.051934049 -0.037621193 0.77074999
-0.047518782 -0.037869528 0.77100009
-0.042587783 -0.037450165 0.77100009
-0.037502114 -0.037503596 0.77211112
-0.032477241 -0.037474193 0.77150005
-0.028655715 -0.038209051 0.77150005
-0.023498096 -0.038917147 0.77100003
-0.087266669 -0.034466669 0.7700001
-0.082031116 -0.033793017 0.7713334
-0.077641621 -0.032469451 0.77076936
-0.073480003 -0.033293337 0.77000004
-0.041433334 -0.034100004 0.77000004
-0.037228812 -0.033194527 0.77025002
-0.033977784 -0.033977784 0.7700001
-0.026468573 0.0066171433 0.77200001
-0.077749051 -0.056275718 0.77749997
-0.073448576 -0.055642862 0.77900004
-0.081928574 -0.051912703 0.77500004
-0.077609852 -0.052479472 0.77611113
-0.072927624 -0.052325528 0.77820009
-0.068502545 -0.051686034 0.77900004
-0.063061908 -0.051191431 0.77900004
-0.076860964 -0.047300957 0.77600002
-0.072771005 -0.04804511 0.77609092
-0.067128032 -0.048524491 0.77700007
-0.062389873 -0.047855843 0.77736372
-0.057454698 -0.047194149 0.77771443
-0.052486289 -0.047001909 0.77840006
-0.047778673 -0.046443246 0.7790001
-0.042253017 -0.045959365 0.77833337
-0.037820321 -0.045978732 0.77866668
-0.03338572 -0.045256194 0.77900004
-0.028192382 -0.045256194 0.77900004
-0.022407619 -0.046480477 0.77775007
-0.018976193 -0.04609048 0.77633345
-0.076023817 -0.043547623 0.77500004
-0.074547626 -0.043547623 0.77500004
-0.056833338 -0.042809531 0.77500004
-0.052919373 -0.042582225 0.7753334
-0.04699143 -0.042979192 0.7761429
-0.04190708 -0.042541366 0.77585721
-0.037675239 -0.042108893 0.77566671
-0.032574289 -0.042200327 0.77733344
-0.027599288 -0.042049766 0.77800006
-0.023670796 -0.042163175 0.77666664
-0.018452382 -0.043547623 0.77500004
-0.03321429 -0.03911905 0.77500004
-0.026708573 -0.039320953 0.77900004
-0.075782865 -0.056900322 0.78266668
-0.07233429 -0.056675244 0.78299999
-0.06869334 -0.056000005 0.78400004
-0.064213336 -0.056000005 0.78400004
-0.07131429 -0.054228574 0.78000003
-0.06719017 -0.053306989 0.78100002
-0.062476892 -0.053002257 0.78181821
-0.057346676 -0.052880637 0.78200012
-0.052395344 -0.052729733 0.78222227
-0.04745651 -0.051930159 0.78266668
-0.042905241 -0.051860482 0.78350008
-0.037333336 -0.052017778 0.78400004
-0.032106668 -0.050773334 0.78400004
-0.027580954 -0.051432386 0.78266668
-0.023832383 -0.051388577 0.78200006
-0.061657146 -0.049771432 0.78000003
-0.053485718 -0.049771432 0.78000003
-0.047047626 -0.049276195 0.78000009
-0.042378418 -0.049071115 0.78066671
-0.037201665 -0.049107857 0.78125012
-0.032159287 -0.047217857 0.78075004
-0.0273661 -0.048038859 0.78080004
-0.023771431 -0.049028575 0.78000003
-0.026000002 -0.043828573 0.78000003
-0.071886674 -0.065875247 0.78900003
-0.06888096 -0.067378104 0.78900003
-0.052600004 -0.065374292 0.78900003
-0.076282293 -0.06189372 0.78680009
-0.072712399 -0.06221905 0.78711116
-0.067793772 -0.062196366 0.78854555
-0.062036764 -0.061436005 0.78860009
-0.057484291 -0.061241433 0.78900003
-0.052560002 -0.062021341 0.78840011
-0.048341908 -0.061366674 0.78900003
-0.076354295 -0.059137147 0.78600001
-0.072282389 -0.058800481 0.78650004
-0.06734477 -0.058189206 0.78666669
-0.062004052 -0.057883099 0.78675008
-0.057688899 -0.057690162 0.78666675
-0.052454762 -0.057701752 0.78683347
-0.0473 -0.057811745 0.78833342
-0.043132003 -0.056958288 0.78900003
-0.037247714 -0.057523336 0.78850007
-0.032777619 -0.057298254 0.7881667
-0.0524 -0.054645717 0.78600001
-0.047160003 -0.05427143 0.78600001
-0.042390097 -0.054074671 0.78640002
-0.037445404 -0.054169845 0.78633344
-0.032243177 -0.053989213 0.78733343
-0.028695241 -0.053647622 0.78600001
-0.0090171434 -0.0082657151 0.78900003
-0.06657207 -0.066573337 0.79133338
-0.062684759 -0.067216195 0.7930001
-0.057383813 -0.067199625 0.79280013
-0.052233573 -0.067321196 0.79200006
-0.047753334 -0.067384288 0.79275006
-0.037761904 -0.065705717 0.79300004
-0.065540001 -0.064033337 0.79100001
-0.062903337 -0.063656665 0.79100001
-0.058308005 -0.063430667 0.79100001
-0.052733336 -0.064033337 0.79100001
-0.046996512 -0.063082233 0.79166669
-0.04229334 -0.061677784 0.7930001
-0.037160479 -0.062438104 0.79224998
-0.033900004 -0.061020005 0.79100001
-0.042563334 -0.059136666 0.79100001
-0.039173335 -0.059513338 0.79100001
-0.0060419049 -0.016615238 0.79300004
-0.0098180957 -0.0067971433 0.79300004
-0.062066674 -0.07760445 0.79799998
-0.05766407 -0.07672555 0.79763639
-0.052657142 -0.076325715 0.79800004
-0.049400002 -0.075240009 0.79800004
-0.065871432 -0.07041429 0.79500002
-0.06255538 -0.071880557 0.79685718
-0.057645168 -0.072058186 0.7964167
-0.052352384 -0.072081275 0.79666674
-0.048054289 -0.071702458 0.7972858
-0.044783812 -0.070591435 0.79700005
-0.059814289 -0.068900004 0.79500002
-0.046185717 -0.065871432 0.79500002
-0.042683385 -0.067370653 0.79645455
-0.038711432 -0.067555241 0.79700005
-0.0424181 -0.063879371 0.79533339
-0.0059205717 -0.021708764 0.79700005
-0.0027125173 -0.021810478 0.79757142
-0.0060638096 -0.018952381 0.796
-0.0022771431 -0.018976193 0.79700011
-0.0068280287 -0.012895783 0.79657143
-0.0038000003 -0.012920001 0.79800004
-0.06069842 -0.081015877 0.80000007
-0.057142861 -0.080914296 0.80000001
-0.052902479 -0.080650292 0.80039996
-0.049647622 -0.080200002 0.80200005
-0.05561905 -0.078476198 0.80000001
-0.051809527 -0.078476198 0.80000001
-0.048000004 -0.077387765 0.80000007
-0.047238097 -0.073904768 0.80000001
