# .PCD v0.7 - Point Cloud Data file format
VERSION 0.7
FIELDS x y z
SIZE 4 4 4
TYPE F F F
COUNT 1 1 1
WIDTH 986
HEIGHT 1
VIEWPOINT 0 0 0 1 0 0 0
POINTS 986
DATA ascii
-0.13610667 0.018773334 0.70400006
-0.13230945 0.017975798 0.70341676
-0.12725422 0.018082779 0.70325005
-0.1240381 0.01944381 0.70400006
-0.13610667 0.02145524 0.70400006
-0.13260148 0.022770295 0.70318753
-0.12742147 0.022874508 0.70161551
-0.12282281 0.022590058 0.70281261
-0.11785704 0.024107024 0.703125
-0.1124793 0.024102382 0.70300001
-0.10913239 0.024102859 0.70300001
-0.13224509 0.026583178 0.70366669
-0.12724002 0.027457302 0.70316672
-0.12252287 0.027450476 0.70300001
-0.11783621 0.027450476 0.70300001
-0.11231811 0.027411429 0.70200008
-0.10928763 0.027489524 0.70400006
-0.12601987 0.031505238 0.70383346
-0.12234201 0.031624671 0.70350003
-0.11781738 0.031036403 0.70333338
-0.11304966 0.030919047 0.7035715
-0.10633752 0.039021716 0.70400006
-0.10285106 0.039021716 0.70400006
-0.096757844 0.03799456 0.70342863
-0.093179412 0.038210362 0.70387506
-0.10593525 0.042240005 0.70400012
-0.10257056 0.042905316 0.70391673
-0.09758947 0.042634439 0.70369244
-0.09307342 0.043240398 0.70391673
-0.10224763 0.046598099 0.70400006
-0.098113023 0.04626286 0.70400012
-0.094537146 0.04626286 0.70400006
-0.10124191 0.050285719 0.70400006
-0.15396193 0.0083161918 0.70800006
-0.15441144 0.010114286 0.708
-0.14901716 0.014160001 0.708
-0.13553144 0.014160001 0.708
-0.13270985 0.013473018 0.70733333
-0.12937096 0.014150001 0.70749998
-0.14265959 0.018976327 0.70800006
-0.13764834 0.017499764 0.70675004
-0.1336143 0.015890477 0.7050001
-0.12770501 0.015459287 0.70574999
-0.12281091 0.01855973 0.70685714
-0.11934858 0.019554287 0.708
-0.1428737 0.02291381 0.70762503
-0.13810819 0.023130098 0.70599997
-0.12018573 0.020814287 0.70500004
-0.11728082 0.021419324 0.70600003
-0.11418732 0.021760002 0.70666671
-0.14137524 0.026746668 0.70800006
-0.13769251 0.027628785 0.70755559
-0.13326591 0.028375238 0.70600003
-0.10815253 0.027640142 0.70785725
-0.14092572 0.030342858 0.708
-0.13204789 0.03216996 0.70772737
-0.12834835 0.03246548 0.70649993
-0.12220001 0.034242861 0.70500004
-0.11721779 0.033843812 0.70600003
-0.11216787 0.033080004 0.70525002
-0.10785664 0.032451943 0.70693332
-0.10274696 0.033170003 0.70790005
-0.097051434 0.033698097 0.70766675
-0.13013715 0.035737146 0.708
-0.12715557 0.036619369 0.70766675
-0.1228863 0.036785718 0.70740002
-0.11683857 0.036925431 0.7075001
-0.11242112 0.037697464 0.7068333
-0.10796668 0.036965284 0.70572728
-0.10177489 0.036979049 0.70600003
-0.097950302 0.036948767 0.70539999
-0.092377149 0.037085716 0.708
-0.11530288 0.042480003 0.70800006
-0.11248244 0.042433336 0.70722222
-0.1082343 0.043374293 0.70499998
-0.10004286 0.04364286 0.70500004
-0.098700009 0.044314288 0.70500004
-0.091090485 0.042300008 0.7050001
-0.08877477 0.043713495 0.70616668
-0.11530287 0.045851432 0.708
-0.11239706 0.04698009 0.7074545
-0.10748 0.047694605 0.70533335
-0.10215308 0.04843878 0.70500004
-0.097593881 0.04817266 0.70671427
-0.092712298 0.047917146 0.7068181
-0.088111863 0.048136827 0.70744449
-0.11125715 0.05057143 0.708
-0.10764965 0.052411173 0.70733339
-0.10229569 0.052606288 0.70633328
-0.097257227 0.052718982 0.70707148
-0.092687361 0.05236027 0.70742863
-0.087758988 0.052440133 0.70773339
-0.083757475 0.050973337 0.70733333
-0.10195122 0.057005823 0.70788896
-0.097085491 0.057307713 0.70791674
-0.092362642 0.057305086 0.7078889
-0.089230478 0.056864768 0.70800006
-0.10046858 0.060011432 0.708
-0.097771436 0.060011432 0.708
-0.092377149 0.060011432 0.708
-0.18020001 -0.00068000006 0.71400005
-0.17884001 -0.00068000006 0.71400005
-0.18065333 0.0011333334 0.71400011
-0.17714003 0.0020400002 0.71400011
-0.17270505 0.0027195839 0.71393752
-0.16731055 0.0031876189 0.7134617
-0.16224745 0.0031245716 0.71340007
-0.15803209 0.002826191 0.71266669
-0.15286879 0.0041437042 0.71200007
-0.17154686 0.0070252381 0.71383345
-0.16704574 0.0074695246 0.71300018
-0.16191368 0.0074510062 0.71133333
-0.15772603 0.0074456097 0.71077782
-0.15194695 0.0070769708 0.71081829
-0.14762324 0.0076036192 0.71300012
-0.14416 0.0088400003 0.71400005
-0.16676295 0.011554286 0.71363652
-0.16200867 0.012203095 0.71175003
-0.15734009 0.012379387 0.71078581
-0.15236728 0.012120513 0.71007693
-0.14741184 0.012046096 0.71066678
-0.14256138 0.012217916 0.7128126
-0.13813668 0.013110953 0.71216673
-0.13124001 0.012920001 0.71400005
-0.12766096 0.013580001 0.71300006
-0.12444001 0.014280001 0.71400005
-0.16199112 0.016539365 0.7136668
-0.15755376 0.017658154 0.71306264
-0.15239367 0.017610952 0.71116674
-0.14757259 0.017449018 0.71013337
-0.14274287 0.016235873 0.71033335
-0.13952065 0.016003177 0.71000004
-0.12562382 0.015618096 0.71300006
-0.12242556 0.016971271 0.71283334
-0.11747883 0.018645953 0.71200001
-0.11397524 0.018882288 0.71320003
-0.10608001 0.019720001 0.71400005
-0.10404 0.019720001 0.71400005
-0.15572001 0.021080002 0.71400005
-0.15233387 0.02240942 0.713
-0.14796905 0.022153335 0.71025002
-0.11280096 0.021744289 0.71350008
-0.10710365 0.022530824 0.71300012
-0.10279537 0.022598216 0.71362507
-0.15078191 0.026240954 0.71380001
-0.14710592 0.027118096 0.71180004
-0.14326192 0.028201906 0.71066666
-0.13997144 0.029076193 0.71000004
-0.1068381 0.026371431 0.71000004
-0.10306775 0.027122742 0.71200013
-0.099960007 0.029240001 0.71400005
-0.087720007 0.029240001 0.71400005
-0.14620002 0.030600002 0.71400005
-0.14272039 0.032350101 0.7136001
-0.13792089 0.032409236 0.71230781
-0.13417429 0.03405048 0.71033335
-0.10616191 0.030428573 0.71000004
-0.10235383 0.031111907 0.71016669
-0.097900368 0.032010362 0.71137506
-0.092576541 0.032764971 0.71250021
-0.087914303 0.033320006 0.71400011
-0.13532001 0.036040001 0.71400005
-0.13233471 0.037326261 0.71257144
-0.12765853 0.039138507 0.71028578
-0.12215449 0.039365526 0.71020001
-0.11833334 0.039219052 0.71000004
-0.095477149 0.035888575 0.71100003
-0.09163361 0.036751162 0.71271437
-0.087560579 0.037544001 0.71160001
-0.082962863 0.037538826 0.71269244
-0.079220004 0.037740003 0.71400005
-0.12673144 0.041790955 0.71350008
-0.12249231 0.042931262 0.71345466
-0.11830246 0.042535111 0.71214288
-0.091399819 0.04060705 0.71300006
-0.087089419 0.041998837 0.71255571
-0.082692146 0.042229015 0.7128669
-0.078866534 0.041809935 0.71300006
-0.12075716 0.047123812 0.71366668
-0.11769897 0.047783908 0.71270007
-0.1142762 0.049361907 0.71000004
-0.08646553 0.046412576 0.71040004
-0.082869664 0.047333777 0.71206689
-0.079448573 0.046854287 0.71300006
0.067320004 0.048960004 0.71400005
-0.11657929 0.052002143 0.71375
-0.11281353 0.052817143 0.71100008
-0.11628 0.055080004 0.71400005
-0.11255187 0.056985982 0.71309096
-0.10766635 0.05755863 0.71100008
-0.10435873 0.058377784 0.71000004
-0.089933336 0.057476193 0.71000004
-0.11084001 0.060520004 0.71400005
-0.10717597 0.062311985 0.71375012
-0.10269628 0.062364526 0.71175003
-0.09732388 0.062531501 0.71035725
-0.092956208 0.062334862 0.71140003
-0.089933336 0.060180955 0.71000004
-0.18725759 -0.002054014 0.71871436
-0.18249503 -0.0022197622 0.71700001
-0.17719932 -0.0021714289 0.71636367
-0.17302655 -0.0016605445 0.71728581
-0.16798048 -0.00068285718 0.71700007
-0.16263193 -0.00068333338 0.71750003
-0.15954953 -0.00068476197 0.71900004
-0.15407144 -0.00068476197 0.71900004
-0.14859334 -0.00068476197 0.71900004
-0.18683639 0.0027382863 0.71859998
-0.18274203 0.0030035242 0.71650004
-0.17865905 0.0040914286 0.71600002
-0.16706668 0.00068190478 0.71600002
-0.16365716 0.00068190478 0.71600002
-0.15553525 0.0011384129 0.71733344
-0.15223293 0.001659048 0.71771437
-0.14765981 0.0032048353 0.71753848
-0.14448479 0.00342381 0.71900004
-0.18557049 0.0061628576 0.71900004
-0.18234889 0.0070673022 0.71800005
-0.17726897 0.0072398097 0.71700001
-0.17367399 0.0084225405 0.71700001
-0.14534715 0.0068233339 0.71650004
-0.14297795 0.0075119059 0.71716678
-0.17252156 0.011799167 0.71812505
-0.16870324 0.013774477 0.71600002
-0.1382243 0.011291429 0.71850008
-0.13284382 0.011640953 0.71900004
-0.12696342 0.01141728 0.71728575
-0.12264545 0.013562177 0.71714294
-0.11757477 0.013670241 0.71775001
-0.11435524 0.014380001 0.71900004
-0.17050573 0.015749525 0.71900004
-0.1669163 0.017500477 0.7177
-0.16333945 0.018694859 0.71640009
-0.12206095 0.015683811 0.71600002
-0.11777001 0.016142067 0.71616673
-0.11278227 0.017575121 0.71662503
-0.10837892 0.018631158 0.71700007
-0.10227702 0.019048436 0.71800011
-0.099290483 0.019858096 0.71900004
-0.16502763 0.021227621 0.71900004
-0.16166548 0.021533096 0.71775001
-0.15804917 0.022726074 0.71762508
-0.1547924 0.023866668 0.71600002
-0.11130572 0.02185143 0.71700001
-0.10978667 0.02113905 0.71600002
-0.10068595 0.022185478 0.71675003
-0.098331444 0.023042543 0.71866673
-0.086573489 0.022792794 0.71900004
-0.083027385 0.022768334 0.71899998
-0.15598097 0.027366353 0.71833342
-0.15307716 0.027647622 0.71675003
-0.14933716 0.029321907 0.71600002
-0.10028668 0.02660667 0.71633339
-0.097402528 0.027158713 0.71807152
-0.093342774 0.027604098 0.71750003
-0.087157764 0.027309613 0.71854544
-0.082551859 0.026705716 0.71899998
0.036977142 0.029444763 0.71900004
0.043140005 0.028896956 0.71900004
0.047775317 0.027864547 0.71899998
0.052502096 0.02775448 0.71780002
0.056955241 0.028933655 0.71766675
0.060774289 0.029362859 0.71700001
-0.15164858 0.031242225 0.71833342
-0.14781201 0.033024684 0.7174167
-0.1425181 0.034777146 0.71600002
-0.096898578 0.030707143 0.71650004
-0.086721383 0.032245189 0.71700007
-0.082793333 0.033277839 0.71845454
0.029444763 0.030814288 0.71900004
0.037319526 0.031841431 0.71900004
0.042929307 0.033026598 0.71899998
0.047857977 0.03281536 0.717875
0.052579999 0.032777149 0.71700001
0.057360012 0.032777146 0.71700001
0.062627755 0.033069801 0.71700007
0.067462184 0.033876874 0.7175715
0.072093152 0.034610864 0.71820003
-0.14135143 0.03619143 0.71700001
-0.13778123 0.037205175 0.71771437
-0.13452287 0.038922861 0.71700001
-0.078583337 0.036898576 0.71750003
0.043112915 0.037639473 0.71855557
0.047810644 0.037566196 0.71716666
0.052580003 0.037557144 0.71700001
0.057360008 0.037557147 0.71700001
0.062822856 0.037557147 0.71700001
0.067582123 0.037545081 0.7167778
0.072484456 0.037608251 0.71800005
0.077330686 0.037638623 0.71855557
0.081600003 0.037725147 0.71759999
-0.13626763 0.040400956 0.71900004
-0.13212806 0.04186498 0.71799999
-0.12793298 0.043827433 0.71680003
0.039031431 0.044509526 0.71900004
0.042718615 0.042297218 0.71899998
0.047840837 0.042374644 0.71762502
0.052604448 0.042357784 0.71733332
0.057420004 0.042383097 0.71774995
0.062822856 0.042337146 0.71700001
0.067508578 0.042278096 0.71600002
0.072376728 0.042333279 0.71693754
0.077767305 0.042504452 0.71753341
0.082396723 0.04217004 0.71684623
0.086848222 0.043509647 0.71662503
0.090820007 0.044385716 0.71700001
-0.13078953 0.045879051 0.71900004
-0.1274761 0.04766212 0.71833336
-0.12376707 0.048033338 0.71640009
0.039031431 0.045879051 0.71900004
0.042683497 0.046563815 0.71900004
0.047522478 0.046152957 0.71900004
0.053240243 0.047419764 0.71899998
0.057520002 0.04793334 0.71899992
0.062822856 0.047800001 0.71700001
0.067357041 0.047202963 0.71600002
0.072401121 0.04712826 0.71716666
0.078052975 0.047358468 0.71746159
0.082596593 0.047783569 0.71675003
0.087452278 0.047825836 0.71737504
0.092379697 0.047443386 0.71733338
-0.1259962 0.051357146 0.71900004
-0.12245937 0.05199429 0.71833342
-0.11906525 0.052690957 0.71850008
0.054096196 0.052041911 0.71900004
0.057748258 0.052270163 0.71899998
-0.11728023 0.058069844 0.71733338
-0.1138781 0.059325717 0.71600002
-0.19417715 -0.010328572 0.72300005
-0.1964778 -0.0075587309 0.72133338
-0.19262478 -0.0076899054 0.7208001
-0.18843959 -0.006769116 0.72100002
-0.18309596 -0.0061950004 0.72275007
-0.17765145 -0.0061971433 0.72300005
-0.17214286 -0.0061971433 0.72300005
-0.19652334 -0.0041223811 0.7215001
-0.19286478 -0.0027441271 0.72066683
-0.18811429 -0.0032761905 0.72000009
-0.1824 -0.0048000002 0.72000003
-0.17709644 -0.0048050005 0.72075003
-0.17207643 -0.0037828574 0.72200006
-0.16716479 -0.0025200003 0.72133338
-0.16313978 -0.0024050002 0.72125006
-0.15666857 -0.0013757143 0.72150004
-0.15197834 -0.0017185715 0.72125006
-0.14733467 -0.0022303574 0.72037506
-0.14381933 -0.0018617689 0.72057158
-0.19173011 0.0023400001 0.7226001
-0.18948571 0.002514286 0.72000003
-0.15884002 0.00068761909 0.72200006
-0.15017144 0.0006857143 0.72000003
-0.14674288 0.0006857143 0.72000003
-0.14249849 0.0027462698 0.72108352
-0.13978001 0.0048200004 0.72300005
-0.18713373 0.0072769532 0.7208001
-0.18274286 0.0085714292 0.72000003
-0.17897144 0.0089142863 0.72000003
-0.1412762 0.0072761909 0.7208001
-0.13834792 0.0081609534 0.72271436
-0.13220572 0.0089514293 0.72300005
-0.18522573 0.010328572 0.72300005
-0.18209544 0.010873715 0.7226001
-0.1773648 0.012376192 0.72183341
-0.17417145 0.013028572 0.72000003
-0.13714287 0.010285715 0.72000003
-0.13246541 0.010295239 0.72066677
-0.12754285 0.010285715 0.72000003
-0.12251934 0.010887756 0.72100002
-0.11816033 0.011219683 0.72133338
-0.1136682 0.013332191 0.72160006
-0.17558573 0.015837144 0.72300005
-0.17239133 0.017532026 0.72187507
-0.1689143 0.019428574 0.72000003
-0.11116239 0.016468097 0.72050005
-0.1070103 0.016346289 0.72120005
-0.10254095 0.016707622 0.72100008
-0.097595565 0.018212382 0.72166675
-0.092705876 0.019504923 0.7228334
-0.1714543 0.021345716 0.72300005
-0.16745077 0.022295376 0.72185725
-0.16287963 0.023464764 0.72040004
-0.096228585 0.02217143 0.72000003
-0.092292562 0.022556454 0.72172737
-0.088914298 0.022628574 0.72000003
-0.080228575 0.024000002 0.72000003
0.01859143 0.024100002 0.72300005
0.024100002 0.02341143 0.72300005
0.027070478 0.023629844 0.72266674
-0.16184679 0.026831312 0.72237504
-0.15854669 0.02745524 0.72066677
-0.091200009 0.026057145 0.72000003
-0.088457152 0.026742859 0.72000003
-0.081795923 0.028310206 0.72000003
-0.077735767 0.02820519 0.72233337
0.018591432 0.028231433 0.72300005
0.023400638 0.028217778 0.72266674
0.027470358 0.027470354 0.72112513
0.032914288 0.028114285 0.72000015
0.037941229 0.027744222 0.72057158
0.042438097 0.027047621 0.72000009
0.048000004 0.02537143 0.72000003
0.050057147 0.02537143 0.72000003
0.05554286 0.026742859 0.72000003
-0.15697065 0.031853497 0.72183341
-0.15303676 0.03303837 0.72057158
-0.080777146 0.031954288 0.72000003
-0.077837154 0.032592006 0.72200006
0.019624287 0.032018572 0.72300005
0.022687303 0.032313336 0.72188896
0.027291428 0.033051431 0.72000015
0.032921746 0.032236353 0.7201668
0.037885718 0.033428572 0.72000003
0.040457144 0.032228574 0.72000003
-0.15275715 0.035437148 0.72250009
-0.14683227 0.037654407 0.72212505
-0.14250693 0.037899289 0.72025013
-0.13851428 0.039085716 0.72000003
-0.077066198 0.03509286 0.72250009
0.019968573 0.03718286 0.72300005
0.022706827 0.037157781 0.72250009
0.027401388 0.037638623 0.72090924
0.0323181 0.037131432 0.72200006
0.036947988 0.037583884 0.72153854
0.040494606 0.037750479 0.72066677
-0.14574763 0.041084766 0.72300005
-0.14221266 0.042446408 0.72200012
-0.13752967 0.042869251 0.72100013
-0.13325715 0.044114288 0.72000003
0.024100002 0.040625717 0.72300005
0.029608574 0.040625717 0.72300005
0.032539867 0.041585039 0.72257155
0.036989655 0.042491753 0.72193348
0.041465081 0.043298732 0.72166675
-0.14184573 0.046134289 0.72300005
-0.13734467 0.04720334 0.72250009
-0.13274549 0.047568336 0.72125006
-0.1296 0.048000004 0.72000003
0.036441907 0.046070483 0.72200006
0.042857144 0.047657147 0.72000003
0.047614861 0.048164196 0.72040004
0.050742861 0.048000004 0.72000003
-0.13564858 0.05095429 0.72300005
-0.13240245 0.052098881 0.72236377
-0.12792364 0.052707624 0.72060013
-0.12274286 0.054171436 0.72000003
-0.12 0.054171432 0.72000003
0.048200004 0.050265718 0.72300005
0.051920526 0.052047629 0.72163647
0.05577429 0.054397147 0.72300005
0.08434286 0.052114289 0.72000003
0.087394409 0.052712265 0.72112507
0.092131644 0.052255318 0.72192872
0.096126363 0.050700959 0.72266674
-0.20203716 -0.015968572 0.72900003
-0.20622908 -0.011290636 0.72583336
-0.20212662 -0.012339129 0.72641671
-0.19766249 -0.012468437 0.72714293
-0.19222206 -0.01118041 0.72714293
-0.18711258 -0.010680573 0.72820008
-0.18227594 -0.011387213 0.72771436
-0.17807797 -0.010870001 0.72850007
-0.17426573 -0.010414287 0.72900003
-0.21106288 -0.0069428575 0.72900003
-0.2070161 -0.0081275012 0.72637498
-0.20261958 -0.0076062446 0.72611111
-0.19954763 -0.0075952387 0.72500008
-0.18743491 -0.0085200006 0.72533339
-0.18247476 -0.0082945256 0.72574997
-0.17761526 -0.008293651 0.7256667
-0.17302182 -0.0078911437 0.72670007
-0.16880326 -0.0067963819 0.72820008
-0.20259285 -0.0034680958 0.72850007
-0.19871764 -0.0020728575 0.72575003
-0.17054763 -0.0048333337 0.72500002
-0.16755506 -0.0045584766 0.7252
-0.16230072 -0.0039852387 0.72750002
-0.15804434 -0.0034625402 0.72677785
-0.15379907 -0.0039209528 0.72633332
-0.2010197 0.0011568256 0.72866672
-0.19697943 0.0022539287 0.72762501
-0.19357851 0.0037308575 0.72540009
-0.14065692 0.0017269049 0.72574997
-0.13740021 0.0025693201 0.72707152
-0.13314822 0.0034645891 0.72781819
-0.12792128 0.0043949215 0.72866672
-0.12205545 0.0045822863 0.72900003
-0.19648287 0.0062485719 0.72900003
-0.19245893 0.0074227219 0.72728574
-0.18919049 0.0082857152 0.72500002
-0.13720401 0.0067700953 0.72540009
-0.13275315 0.0073280009 0.72600001
-0.12730874 0.0076095248 0.72650003
-0.122458 0.0076086777 0.72644448
-0.11778147 0.0077411272 0.72709101
-0.11297937 0.0079431748 0.72877783
-0.10900287 0.0090257153 0.72900003
-0.19139144 0.010877144 0.72900003
-0.18778566 0.01265576 0.72709095
-0.18257239 0.013583599 0.72522223
-0.11600001 0.010357143 0.72500002
-0.11221029 0.011758859 0.72640002
-0.10797859 0.012753403 0.72678578
-0.10262355 0.013274635 0.72672731
-0.097256549 0.013347976 0.72812504
-0.092888936 0.013863691 0.72787505
-0.089059055 0.014110479 0.72866672
-0.060347628 0.013178731 0.72833335
-0.057550915 0.012639396 0.72645456
-0.053440839 0.013315597 0.72637498
-0.18638305 0.017070288 0.72860003
-0.18219802 0.017155526 0.7263
-0.17768644 0.017440954 0.72525001
-0.17469049 0.018642858 0.72500002
-0.10840477 0.015880954 0.72500002
-0.10426191 0.015880954 0.72500002
-0.097401917 0.015888255 0.72533339
-0.09232267 0.016999049 0.72559994
-0.089235246 0.017291747 0.72633332
-0.05644032 0.016356509 0.7256667
-0.053240009 0.016594289 0.72600001
0.0069428575 0.018745715 0.72900003
-0.1853743 0.020134287 0.72900003
-0.18205112 0.021050796 0.72866672
-0.17791684 0.022341615 0.72776932
-0.17308487 0.022429787 0.72563636
-0.16847619 0.024166668 0.72500002
-0.089071438 0.020023812 0.72500002
-0.08192572 0.021522859 0.72900003
-0.077575035 0.022415876 0.72799999
-0.072131671 0.024275001 0.72825003
-0.00069428579 0.022911429 0.72900003
0.0029755109 0.022514695 0.72900003
0.0076273819 0.022188973 0.72808337
0.012467085 0.022164106 0.72731251
0.016682588 0.02260422 0.72557139
0.021404764 0.023476191 0.72500002
-0.17565429 0.025688574 0.72900003
-0.17175063 0.027057009 0.7284286
-0.16739717 0.027643884 0.72700006
-0.16300882 0.02901024 0.72525001
-0.076595522 0.026783269 0.72642863
-0.072440229 0.027515827 0.72653848
-0.068062574 0.028083146 0.7263
-0.064568579 0.027077144 0.72900003
-0.0076371431 0.028465714 0.72900003
-0.0026169233 0.027931653 0.72900003
0.0028211437 0.027617339 0.72860008
0.0076190489 0.027707942 0.72733343
0.012440716 0.027646549 0.72575003
0.016744049 0.02744643 0.72499996
0.021404764 0.026928574 0.72499996
-0.16732287 0.031242859 0.72900003
-0.16283536 0.032568254 0.72755557
-0.15911303 0.033388574 0.72533339
-0.075331122 0.032482862 0.7256667
-0.072588682 0.032492381 0.72588885
-0.069142863 0.032497145 0.72600001
-0.0076371431 0.031937145 0.72900003
-0.0032400002 0.031705715 0.72900003
0.0031937144 0.031520575 0.72900003
0.0076322756 0.032612171 0.72855562
0.012440398 0.032486744 0.72574997
0.017094763 0.03263643 0.72524995
-0.16131096 0.035731427 0.72850007
-0.15707798 0.037063692 0.72737503
-0.15267588 0.038342964 0.72611105
-0.14914286 0.038666669 0.72500002
-0.076567434 0.037731238 0.72559994
-0.072600007 0.037337143 0.72599995
-0.069557719 0.036922287 0.72600001
0.0083314292 0.035408575 0.72900003
0.012458256 0.036686987 0.72683334
0.017401734 0.037129354 0.7256363
0.028309526 0.039357144 0.72500002
-0.15249375 0.042595159 0.72725004
-0.14782469 0.043248922 0.72499996
-0.14430954 0.044880956 0.72500002
-0.076057151 0.040794287 0.72600001
-0.073291436 0.040794287 0.72600001
0.024266668 0.043680001 0.72800004
0.02746433 0.042298794 0.72590905
0.032193717 0.044353336 0.72540009
-0.15163335 0.045696191 0.727
-0.14732002 0.047724444 0.72622222
-0.14278084 0.04816917 0.72512496
-0.13878572 0.049023814 0.72500002
0.024266668 0.04506667 0.72800004
0.028035784 0.045670077 0.72814298
0.032481588 0.046304446 0.7256667
0.037323575 0.047692146 0.72574997
0.04911397 0.053266358 0.72633332
0.05109524 0.054547623 0.72500002
0.073234409 0.05258346 0.72887504
0.077651784 0.052693579 0.72799993
0.082431749 0.053339053 0.72733331
-0.2010524 -0.020244762 0.73300004
-0.19868572 -0.020217145 0.73200005
-0.20161462 -0.017885715 0.73166674
-0.19747698 -0.017425716 0.7318334
-0.19241145 -0.016731432 0.73199999
-0.18757781 -0.016078096 0.73400009
-0.19562954 -0.01462 0.73100001
-0.19203356 -0.013700425 0.73144442
-0.18749896 -0.013418692 0.731875
-0.1831684 -0.013811431 0.73240006
-0.1772555 -0.012213096 0.73275
-0.1721943 -0.010457143 0.73200005
-0.16986859 -0.010485715 0.73400003
-0.21600573 -0.006291429 0.73400003
-0.21292096 -0.0062828576 0.73300004
-0.20885715 -0.0062657148 0.73100001
-0.17056668 -0.0090504764 0.73100001
-0.16702193 -0.0078461915 0.73225003
-0.16228846 -0.0070829941 0.73314291
-0.1574392 -0.0068808175 0.73285717
-0.15312077 -0.0068403818 0.73280007
-0.21131717 -0.0027928571 0.7335
-0.20728248 -0.0027867462 0.73158336
-0.20398383 -0.0020885717 0.73100007
-0.15246573 -0.0048733335 0.73100007
-0.14158255 -0.0011634922 0.73233336
-0.13766202 -0.001569405 0.73187506
-0.13245739 -0.0013947621 0.73199999
-0.12757589 -0.0011644445 0.73333347
-0.21181144 0.0013980954 0.73400003
-0.20674026 0.002269286 0.73275006
-0.20275775 0.0034843811 0.73159999
-0.19934255 0.0034809529 0.73100007
-0.13130154 0.001253143 0.73100001
-0.12718859 0.0017798945 0.73155558
-0.12260734 0.0020905717 0.73229998
-0.11735386 0.0029491582 0.73246157
-0.11310165 0.0040844902 0.73242861
-0.10975049 0.0048933337 0.73400003
-0.20621906 0.006291429 0.73400003
-0.20213926 0.0075445711 0.73340005
-0.19729839 0.0080591841 0.73128575
-0.19423716 0.0090504764 0.73100001
-0.1176562 0.0062657148 0.73100001
-0.1112089 0.0067326985 0.73133337
-0.10740361 0.0078209527 0.73177779
-0.1041581 0.0090876194 0.73400003
-0.090643182 0.0076895244 0.73400009
-0.088633917 0.0082339048 0.73280007
-0.066287629 0.0086050797 0.73266673
-0.063483343 0.0087195234 0.73250008
-0.057321906 0.0090876194 0.73400003
-0.20128416 0.011401589 0.73300004
-0.19738208 0.012555875 0.73233336
-0.19324253 0.013079365 0.73133332
-0.10582096 0.010442858 0.73100001
-0.10248002 0.010921906 0.73200005
-0.097733334 0.011169525 0.73300004
-0.092434771 0.011510953 0.73250008
-0.087636277 0.012203414 0.73225009
-0.083920285 0.012871021 0.73342866
-0.070760012 0.013594287 0.73200005
-0.067641728 0.012552192 0.73220003
-0.063199565 0.012382858 0.73169231
-0.056391433 0.010442858 0.73100001
-0.05430286 0.010442858 0.73100001
-0.048243601 0.013240424 0.73177779
-0.042486351 0.014626667 0.73133337
-0.036948577 0.014640002 0.73200005
-0.19657622 0.017468892 0.73366666
-0.19215024 0.017295673 0.7317273
-0.1882035 0.018333018 0.73100007
-0.087300323 0.01746032 0.73333341
-0.082556203 0.017868303 0.73371434
-0.077383816 0.018125083 0.73200005
-0.072104573 0.017572764 0.73219997
-0.067900144 0.017449526 0.73285729
-0.062705904 0.01717905 0.73320001
-0.050891433 0.01673143 0.73200005
-0.04739508 0.017425401 0.7318334
-0.042492807 0.017415559 0.73144442
-0.037670322 0.017440796 0.73250002
-0.032786459 0.017438734 0.73244447
-0.027628362 0.017877039 0.73133337
-0.022483723 0.017544851 0.73154545
-0.017476192 0.018175241 0.73400009
-0.01304889 0.018408258 0.73400009
-0.0090876194 0.018874288 0.73400003
-0.0020885717 0.018797144 0.73100007
0.0027847621 0.018797144 0.73100001
-0.1950343 0.020272382 0.73400003
-0.19189018 0.020235557 0.73266673
-0.18749103 0.022245718 0.73244447
-0.1836043 0.023443971 0.73116672
-0.08714287 0.020217147 0.73200005
-0.081550889 0.021207759 0.73185712
-0.076606907 0.022285953 0.73124999
-0.072445326 0.021593576 0.7314167
-0.067964353 0.022703597 0.73233336
-0.064790003 0.023686193 0.73150003
-0.041828573 0.020217145 0.73200005
-0.035952382 0.021290477 0.73300004
-0.032765713 0.02161143 0.73199999
-0.027881311 0.022304643 0.73187512
-0.022310356 0.022312382 0.73212504
-0.017471051 0.022084003 0.73380011
-0.01257256 0.02234756 0.73331261
-0.0076611908 0.022285476 0.73124999
-0.0030831296 0.022178642 0.73100007
0.001392381 0.020189526 0.73100001
-0.1861797 0.026796829 0.73400009
-0.18205914 0.027312646 0.73190916
-0.17766352 0.027637251 0.73155558
-0.17361866 0.028953064 0.73128575
-0.067530483 0.025759049 0.73100007
-0.064745717 0.025759049 0.73100001
-0.020914286 0.025794288 0.73200005
-0.016078096 0.026563812 0.73400003
-0.012087699 0.027422622 0.73208344
-0.0076580956 0.025759049 0.73100007
-0.0034809527 0.027151432 0.73100007
0.0020885717 0.029936193 0.73100001
-0.18175238 0.030758098 0.73400003
-0.17769793 0.031177526 0.73400003
-0.17237924 0.032608956 0.73159999
-0.16778193 0.033417147 0.73100007
-0.011139048 0.032024764 0.73100001
-0.0076580956 0.032024764 0.73100001
-0.001392381 0.033417143 0.73100001
0.0024863947 0.033516601 0.73100007
-0.17219858 0.035976671 0.7335
-0.16738839 0.036828574 0.73266673
-0.16289905 0.038189635 0.73199999
-0.1590362 0.039236829 0.73133337
0.0036577382 0.036755122 0.73162502
0.0071028578 0.036908194 0.73120004
-0.16117367 0.042623177 0.73366666
-0.15773034 0.042293604 0.73142868
0.029280003 0.048102859 0.73200005
0.033054288 0.048675239 0.73220003
-0.18715429 -0.016121905 0.73600006
-0.18133619 -0.016165715 0.73800004
-0.17806382 -0.017595241 0.73899996
-0.10838667 -0.016891429 0.73900002
-0.18187366 -0.014746669 0.73733342
-0.17766795 -0.013829525 0.7383334
-0.17247257 -0.012404287 0.73716676
-0.16758755 -0.012082954 0.73750001
-0.1630623 -0.011668572 0.73800004
-0.15884477 -0.010542858 0.73800004
-0.15413429 -0.010557144 0.73900002
-0.11612858 -0.010557144 0.73900002
-0.112423 -0.011152246 0.73842865
-0.10761001 -0.01266143 0.7385
-0.1032289 -0.011237144 0.73733342
-0.16612573 -0.0091123814 0.73600006
-0.16262096 -0.0091123814 0.73600006
-0.15738405 -0.0091340486 0.73775005
-0.15413429 -0.0091495244 0.73900002
-0.14920762 -0.0063342862 0.73900002
-0.14146572 -0.0063342862 0.73900002
-0.11612859 -0.0077419057 0.73900002
-0.11235556 -0.0077244462 0.73733342
-0.10734329 -0.0077172485 0.73666668
-0.10241961 -0.0077167465 0.73658341
-0.098834291 -0.0070095244 0.73600006
-0.21633786 -0.0029097961 0.73785722
-0.21398413 -0.0021053969 0.73666668
-0.15131906 -0.0049266671 0.73900002
-0.14693192 -0.0042198417 0.73816675
-0.14237325 -0.0038242333 0.73722225
-0.13747048 -0.0040735244 0.73720008
-0.13231221 -0.0037967623 0.73820001
-0.12634286 -0.0021057145 0.73700005
-0.12236083 -0.0015036737 0.73657149
-0.11741398 -0.0024609526 0.73750007
-0.11243917 -0.0028115478 0.7378751
-0.10741573 -0.0028080954 0.73716676
-0.10247812 -0.0028076188 0.73700017
-0.21634382 0.001172381 0.7383334
-0.21264887 0.0030892382 0.73690003
-0.2092343 0.0038552384 0.73600006
-0.11776 0.00070095243 0.73600006
-0.1116911 0.0017922755 0.73655558
-0.1075239 0.0028099208 0.73791671
-0.10270489 0.0028146426 0.73862511
-0.098595522 0.0031165988 0.73871434
-0.065247625 0.0035073019 0.73666668
-0.062797152 0.0037059868 0.73614293
-0.05966191 0.0049133338 0.73700005
-0.21170333 0.0073857149 0.7385
-0.20774856 0.0078730164 0.73666668
-0.10654477 0.0063085719 0.73600006
-0.10236148 0.0075978362 0.73754549
-0.097416386 0.0078714294 0.73800004
-0.0932815 0.0073141502 0.73642862
-0.065188579 0.0063085719 0.73600006
-0.061945081 0.0072463504 0.73633337
-0.058726676 0.0074860323 0.73699999
-0.20649938 0.011016826 0.7383334
-0.20329717 0.013628572 0.73760003
-0.10093715 0.010514286 0.73600006
-0.098834291 0.010514286 0.73600006
-0.093927622 0.010514286 0.73600006
-0.08621715 0.011916191 0.73600006
-0.066590481 0.014720001 0.73600006
-0.20115381 0.017583335 0.7385
-0.19907048 0.01752381 0.73600006
-0.08268439 0.016984953 0.73700005
-0.066065527 0.017532572 0.73640007
-0.063786671 0.018925715 0.73600006
-0.21184668 0.020410478 0.73900002
-0.19750288 0.020852065 0.73800009
-0.1929162 0.02318836 0.73777777
-0.18995811 0.02313143 0.73600006
-0.06641753 0.021201907 0.73720008
-0.064046673 0.021114286 0.73900002
-0.057192385 0.024141906 0.7383334
-0.054046672 0.024566669 0.73700005
-0.01752381 0.023832383 0.73600006
-0.19095525 0.027079049 0.73850006
-0.18781716 0.027913526 0.73640007
-0.057660639 0.027423812 0.7383334
-0.05419334 0.027448576 0.73900002
-0.01752381 0.026636193 0.73600006
-0.18580572 0.030967621 0.73900002
-0.18212323 0.032667745 0.737625
-0.17771812 0.033804577 0.73640007
-0.057008576 0.030263811 0.73900002
-0.17755376 0.036836736 0.73771441
-0.17301986 0.038110957 0.73650002
-0.16752765 0.039486989 0.73600006
-0.00070190482 0.03649905 0.73700005
0.0011698414 0.037200958 0.73700011
-0.12524858 -0.026181906 0.74300003
-0.12383334 -0.026181906 0.74300003
-0.12556024 -0.023343574 0.74275005
-0.12286621 -0.022097383 0.74250007
-0.11958763 -0.020520953 0.74300003
-0.17548573 -0.017619049 0.74000001
-0.17263958 -0.017540175 0.742091
-0.16763049 -0.016267937 0.74266672
-0.16405764 -0.016264286 0.74250007
-0.12631002 -0.016629048 0.74300003
-0.11675715 -0.016982859 0.74300003
-0.11231144 -0.016952384 0.74166673
-0.1761905 -0.014800001 0.74000001
-0.17266667 -0.01444762 0.74000001
-0.16773336 -0.014800001 0.74000001
-0.16187827 -0.01388143 0.74116677
-0.15730363 -0.011448763 0.74200004
-0.15233886 -0.011174287 0.74260008
-0.14930762 -0.010614286 0.74300003
-0.13090953 -0.012029525 0.74300003
-0.12831494 -0.012737146 0.74300003
-0.12100287 -0.010614286 0.74300003
-0.11738625 -0.012955556 0.74199998
-0.11270025 -0.013757382 0.74075007
-0.15193415 -0.0081776874 0.74200004
-0.14715526 -0.0080853971 0.74166667
-0.14243172 -0.0077652386 0.74110001
-0.13744818 -0.0071711577 0.74228579
-0.13273619 -0.0068374611 0.74266672
-0.1276747 -0.0069751018 0.74300009
-0.12191921 -0.0073106359 0.74283338
-0.11861398 -0.0077669844 0.74133337
-0.21777144 -0.0021142859 0.74000001
-0.13601905 -0.0049333335 0.74000001
-0.13255525 -0.0049444451 0.74166673
-0.12745307 -0.0043406812 0.74171436
-0.12256274 -0.0041368711 0.74142867
-0.11942668 -0.0049466668 0.74200004
-0.21732096 0.0044746036 0.74166673
-0.21600446 0.0077733337 0.74200004
-0.21382955 0.0077647632 0.74100006
-0.21582383 0.014860001 0.74300003
-0.21154964 0.013018764 0.74290007
-0.20774218 0.013418642 0.74157149
-0.21633182 0.017968383 0.74280006
-0.21315888 0.018220574 0.74160004
-0.20681445 0.017215081 0.74283338
-0.20366693 0.018003572 0.74125004
-0.21624002 0.020493334 0.74200004
-0.21412002 0.020493334 0.74200004
-0.20055668 0.021894764 0.74150002
-0.19811541 0.023294762 0.74116677
-0.19380954 0.024666669 0.74000001
-0.061683286 0.022550583 0.74255562
-0.059200004 0.023257144 0.74000001
-0.19658619 0.026164288 0.74250007
-0.19343072 0.027533572 0.74125004
-0.062132068 0.027535237 0.74133337
-0.19073525 0.031829208 0.74266672
-0.18778136 0.032782104 0.74180007
-0.18394287 0.034533337 0.74000001
-0.17900953 0.038761906 0.74000001
-0.013426668 0.036040001 0.74200004
0.00070476194 0.038761906 0.74000001
-0.14033906 -0.032057144 0.74800003
-0.17025906 -0.026358098 0.74800003
-0.13019143 -0.027034286 0.74700004
-0.12780049 -0.026979525 0.74550009
-0.17130002 -0.020613018 0.74633336
-0.1688343 -0.020659048 0.74800003
-0.13019143 -0.020631431 0.74700004
-0.12770928 -0.022381667 0.74600005
-0.17099525 -0.019157143 0.74500006
-0.16764227 -0.018469406 0.74587506
-0.13606477 -0.016384764 0.74800003
-0.13185239 -0.017311431 0.74699998
-0.12771431 -0.018211113 0.74500006
-0.12274764 -0.017738096 0.745
-0.16089001 -0.014950002 0.74750006
-0.15748082 -0.014114831 0.7462858
-0.15278137 -0.013503266 0.74614298
-0.14734104 -0.012427701 0.74558342
-0.14233164 -0.012304543 0.74638462
-0.13726041 -0.012803255 0.74675
-0.13292415 -0.012848311 0.74563646
-0.12714666 -0.012771429 0.745
-0.1226562 -0.013129524 0.74516666
-0.11990953 -0.012771429 0.74500006
-0.13764763 -0.0092238104 0.74500006
-0.13268097 -0.0088690491 0.74500006
-0.12728858 -0.0089400019 0.74500006
-0.12369366 -0.0087507954 0.74500006
-0.21498573 0.0092238104 0.74500006
-0.21764645 0.013126192 0.745
-0.21470192 0.012629524 0.74500006
-0.21782382 0.01631905 0.74500006
-0.21202572 0.017340003 0.74528581
-0.20902382 0.01870127 0.74566674
-0.21157716 0.02113397 0.74800003
-0.2073103 0.021912765 0.7470001
-0.2031218 0.023279885 0.74637508
-0.063147627 0.020576192 0.74500006
-0.20126496 0.02749086 0.74779999
-0.197557 0.028189367 0.74616671
-0.19642231 0.031764001 0.74780005
-0.19304013 0.033210598 0.745875
-0.062689528 0.030632382 0.74800003
-0.14265601 -0.031334858 0.75120008
-0.13822478 -0.030796193 0.75200003
-0.17142859 -0.025000002 0.75000006
-0.16896002 -0.025974605 0.75066674
-0.15753239 -0.025578097 0.75300002
-0.15254655 -0.026124496 0.75300002
-0.14740568 -0.027074989 0.75206667
-0.14249064 -0.027208736 0.75183332
-0.13834105 -0.02691178 0.75263649
-0.13282982 -0.026280141 0.75157154
-0.17194819 -0.022726858 0.75040007
-0.16973716 -0.022918098 0.75200003
-0.15705431 -0.022231432 0.75300008
-0.15263897 -0.022215663 0.75244457
-0.14737287 -0.022178255 0.7511667
-0.14247938 -0.022195768 0.75177777
-0.13756891 -0.022212064 0.75233334
-0.13254312 -0.022357859 0.75124997
-0.16544001 -0.017904762 0.75200003
-0.16250351 -0.017181907 0.75166672
-0.15723284 -0.017760953 0.75136369
-0.15236743 -0.017884446 0.75111109
-0.14734095 -0.017880956 0.75100005
-0.14222711 -0.017868148 0.75044447
-0.13746458 -0.018148003 0.75020003
-0.13309525 -0.018809525 0.75000012
-0.15500002 -0.015000001 0.75000006
-0.15071429 -0.015000001 0.75000006
-0.14857143 -0.015000001 0.75000006
-0.14214286 -0.015000001 0.75000012
-0.21500002 0.022142859 0.75000006
-0.21265565 0.023025146 0.75080007
-0.21155715 0.025100002 0.75300002
-0.2073393 0.027136637 0.75130773
-0.20309524 0.028809525 0.75000012
-0.065889522 0.029363811 0.75200003
-0.042857148 0.029285716 0.75000006
-0.15665334 -0.031041907 0.75800002
-0.15216975 -0.03209905 0.75644445
-0.14787883 -0.032242857 0.75650001
-0.16677874 -0.025713969 0.75699997
-0.16228801 -0.026784001 0.75600004
-0.15712015 -0.027437415 0.75528586
-0.15295161 -0.029008096 0.75516677
-0.13647525 -0.028042858 0.75500005
-0.13446191 -0.029480955 0.75500005
-0.16768561 -0.022310585 0.75566667
-0.1626489 -0.02231048 0.75566673
-0.16610001 -0.019414287 0.75500005
-0.1625593 -0.019420715 0.7552501
