# .PCD v0.7 - Point Cloud Data file format
VERSION 0.7
FIELDS x y z
SIZE 4 4 4
TYPE F F F
COUNT 1 1 1
WIDTH 686
HEIGHT 1
VIEWPOINT 0 0 0 1 0 0 0
POINTS 686
DATA ascii
-0.016453333 0.069926672 0.61700004
-0.013195648 0.069502324 0.61771435
-0.0099733341 0.069813341 0.61600006
-0.020633334 0.073690481 0.61900002
-0.017674116 0.072732605 0.6173529
-0.012968826 0.072763748 0.61713338
-0.017195845 0.077301301 0.61872733
-0.014060955 0.077546947 0.6188572
-0.016211906 0.083122864 0.61900002
-0.013344677 0.082694113 0.61900002
-0.015917145 0.085480958 0.61900002
-0.012576509 0.086856514 0.61900002
-0.013668573 0.064777151 0.62400001
-0.01760635 0.068640217 0.62311113
-0.013653969 0.067081489 0.62333339
-0.030308573 0.073691428 0.62400001
-0.027322223 0.073057786 0.62366676
-0.022370955 0.073036946 0.62278575
-0.019485716 0.070266671 0.62
-0.010825397 0.074596837 0.62
-0.0088571431 0.074400008 0.62
-0.030308573 0.075474292 0.62400001
-0.027308259 0.075789846 0.62333339
-0.022287274 0.077329703 0.62327284
-0.018777145 0.079005718 0.62
-0.011667187 0.077918969 0.62109095
-0.0088571431 0.07735239 0.62
-0.021185081 0.082561597 0.6236667
-0.018229607 0.082569137 0.62075007
-0.011595648 0.081360012 0.62228572
-0.021304628 0.088019468 0.6238572
-0.017864637 0.087659694 0.62106669
-0.01417143 0.088571437 0.62
-0.017560858 0.09171515 0.62290007
-0.013027383 0.091784224 0.62175
-0.021565717 0.05930572 0.62900001
-0.017763179 0.059274293 0.6286667
-0.013756191 0.059211433 0.62800002
-0.026957145 0.064098105 0.62900007
-0.022335399 0.062616199 0.62816668
-0.017878715 0.062574051 0.62575012
-0.013077595 0.062441405 0.62568426
-0.078075878 0.06689366 0.62900007
-0.071735956 0.066793814 0.62900001
-0.068149529 0.06707219 0.62880009
-0.036184765 0.069677621 0.62800002
-0.032084845 0.068651997 0.62775004
-0.027471576 0.067480244 0.62705004
-0.022674 0.067421719 0.62650007
-0.018112248 0.066581644 0.625
-0.011309525 0.066071436 0.625
-0.040335875 0.072484761 0.62900001
-0.03720656 0.072825618 0.62829417
-0.032439396 0.07253968 0.62578571
-0.027380954 0.07083334 0.625
-0.023214288 0.07083334 0.625
-0.036541909 0.076079056 0.62900007
-0.032081589 0.077513024 0.62766671
-0.02741229 0.078302585 0.62569994
-0.024430797 0.078060009 0.62566674
-0.031132262 0.082619637 0.62862504
-0.027469765 0.08240667 0.62700003
-0.023134446 0.082406834 0.62550002
-0.03079105 0.087341152 0.62900001
-0.027511135 0.087313391 0.6279375
-0.023587048 0.087317519 0.62540001
-0.02633762 0.09038429 0.62849998
-0.022467831 0.091797568 0.62633336
-0.018481271 0.094000004 0.62600005
-0.017508574 0.096220724 0.62850004
-0.012695389 0.097059913 0.62847376
-0.011381906 0.1007256 0.62900001
-0.008985715 0.10243715 0.62900001
-0.025963811 0.059777148 0.634
-0.022927145 0.059127145 0.63350004
-0.018217335 0.058754481 0.63340002
-0.037033658 0.06420508 0.63400006
-0.032560837 0.063914649 0.63312501
-0.027438095 0.062456962 0.63180006
-0.024047857 0.061321195 0.63125002
-0.076094396 0.067809954 0.63133335
-0.072543547 0.067907624 0.63100004
-0.065904453 0.068708897 0.63100004
-0.06460762 0.0694381 0.634
-0.045889527 0.0694381 0.634
-0.041637149 0.068186872 0.63359994
-0.037466988 0.067341149 0.63246673
-0.032765239 0.066280954 0.63125002
-0.077037975 0.072215885 0.63293338
-0.072278991 0.072280541 0.63243747
-0.067589976 0.072251573 0.63253331
-0.064505719 0.072345719 0.63300002
-0.046744902 0.072309941 0.63271427
-0.04279533 0.072090052 0.63127279
-0.080306672 0.076683812 0.634
-0.077287622 0.075476192 0.634
-0.07245715 0.075476192 0.634
-0.04683926 0.076188259 0.63322222
-0.042267494 0.077190675 0.6322
-0.037466247 0.077937357 0.63111115
-0.033853654 0.079526037 0.63100004
-0.041345004 0.080576912 0.63375002
-0.0372581 0.082135856 0.6327647
-0.033653334 0.082931437 0.63100004
-0.035856429 0.086776435 0.63275003
-0.033073336 0.087675437 0.63140005
-0.031349525 0.091031432 0.63300002
-0.027725359 0.092220128 0.63287503
-0.023803573 0.094310246 0.63275003
-0.021932859 0.096785568 0.63383335
-0.018647214 0.098559871 0.63157153
-0.016830541 0.1021409 0.63260007
-0.012504235 0.10317599 0.63188887
-0.01509524 0.10566667 0.634
-0.027359167 0.058212265 0.63837498
-0.021769118 0.057509258 0.63757151
-0.016826741 0.056536783 0.63623089
-0.012988254 0.057127304 0.63588893
-0.0420109 0.063855343 0.63722223
-0.037820194 0.06218363 0.6364001
-0.032617144 0.061425466 0.63745463
-0.029241716 0.061028767 0.63700002
-0.062277149 0.069985718 0.63900006
-0.057205718 0.069985718 0.63900006
-0.052053053 0.068957441 0.63850003
-0.04737613 0.067520253 0.63720006
-0.043505859 0.066510752 0.63571435
-0.080433339 0.074385718 0.63500005
-0.079223812 0.074385718 0.63500005
-0.065919049 0.073176198 0.63500005
-0.062698551 0.072613269 0.6382308
-0.057084013 0.072906867 0.63900006
-0.052129347 0.072735891 0.63643754
-0.048985716 0.072571434 0.63500005
-0.080735721 0.078014284 0.63500005
-0.077521041 0.078128174 0.63591677
-0.07268545 0.077792123 0.6360001
-0.067886502 0.077587567 0.63643765
-0.064304769 0.075833336 0.63700008
-0.055988576 0.076680005 0.63900006
-0.052207027 0.077699892 0.637375
-0.047441639 0.078723274 0.63514292
-0.081354409 0.082566671 0.63588893
-0.077530235 0.082378104 0.6360001
-0.073420167 0.082333818 0.63800001
-0.069377147 0.080940008 0.63900006
-0.055988576 0.080940008 0.63900006
-0.051453143 0.081376195 0.63860005
-0.047087006 0.082382254 0.63735718
-0.042710081 0.082894057 0.63608342
-0.081623495 0.086485408 0.63800001
-0.078316092 0.086695351 0.63855559
-0.074854292 0.085808575 0.63900006
-0.04564286 0.086417146 0.63900006
-0.042434998 0.087422557 0.63833338
-0.038352467 0.087577932 0.63736373
-0.036476828 0.091799371 0.63833344
-0.03316598 0.092874736 0.63736373
-0.028020635 0.094141275 0.63500011
-0.031943932 0.09674418 0.63887501
-0.028061589 0.097301215 0.63773334
-0.02346413 0.098493554 0.63533342
-0.026890669 0.10111316 0.63880008
-0.023087701 0.10237153 0.63791668
-0.019485906 0.10372173 0.6354
-0.021287432 0.10691907 0.63860005
-0.017247077 0.1079887 0.63700008
-0.012495715 0.10724449 0.63690007
-0.020557145 0.11178534 0.63860005
-0.016773269 0.11254785 0.63878572
-0.013084288 0.11136857 0.639
-0.020082859 0.11502001 0.63900006
-0.016826909 0.11656645 0.63858336
-0.01373181 0.11654019 0.63800001
-0.021120716 0.054175004 0.64275002
-0.017100001 0.053742144 0.64125001
-0.046000004 0.059493337 0.64400005
-0.042868577 0.059400953 0.64300001
-0.036186669 0.059493337 0.64400005
-0.032823902 0.058146674 0.64145452
-0.027811432 0.057632659 0.64085722
-0.022623178 0.0566581 0.64200008
-0.068897784 0.063582227 0.64400005
-0.056862861 0.064200006 0.64200008
-0.052215397 0.063841119 0.64250004
-0.047357295 0.062685065 0.64192313
-0.042964578 0.061393913 0.6408
-0.037834048 0.060413577 0.64075005
-0.034742858 0.060342859 0.64000005
-0.065967627 0.068417154 0.64333338
-0.062198967 0.067977846 0.64200002
-0.057233404 0.067238241 0.64066666
-0.052704483 0.06624563 0.64050001
-0.048152387 0.06521906 0.64000005
-0.061561909 0.073346041 0.6400001
-0.059123814 0.07497143 0.64000005
-0.06521906 0.078628585 0.64000005
-0.062228493 0.077785954 0.64058334
-0.057724532 0.078456439 0.64024997
-0.070997283 0.083716474 0.64028579
-0.067592286 0.082750387 0.64170003
-0.062134296 0.081498481 0.64340013
-0.057501595 0.082623705 0.64155561
-0.052695241 0.08335048 0.64088899
-0.049410004 0.084180482 0.64050007
-0.077134289 0.089025483 0.64025009
-0.072580785 0.087898202 0.64170605
-0.06869334 0.085866675 0.64400005
-0.051611055 0.086916953 0.64360005
-0.047777295 0.087987408 0.64123082
-0.04449524 0.089600004 0.64000005
-0.081164449 0.093022227 0.64400005
-0.077458836 0.09174265 0.6426667
-0.072317146 0.09162239 0.64350003
-0.047600258 0.092135847 0.64300007
-0.042572387 0.092326231 0.64069235
-0.038534097 0.093042858 0.64020002
-0.067926675 0.097366668 0.64400005
-0.046000004 0.095066674 0.64400005
-0.042933337 0.09537334 0.64400005
-0.037632383 0.097610883 0.64171433
-0.033828571 0.09813334 0.64000005
-0.03657683 0.10257873 0.64366674
-0.033043575 0.10280275 0.6425001
-0.028577665 0.10304608 0.64090914
-0.024990479 0.10422858 0.64000005
-0.03066667 0.10610668 0.64400005
-0.026977675 0.10728963 0.64211112
-0.023635982 0.10775027 0.64000005
-0.025690716 0.11132406 0.64225
-0.022711325 0.11233862 0.64066666
-0.012190477 0.11337143 0.64000005
-0.020334287 0.049911432 0.64700001
-0.017673653 0.049525719 0.64733338
-0.035177145 0.054925717 0.648
-0.032431811 0.054628003 0.64740008
-0.026768003 0.054644953 0.64760005
-0.022471828 0.052430566 0.64641666
-0.017228454 0.051689409 0.64612502
-0.053034287 0.05981667 0.64750004
-0.047600958 0.058862999 0.64671439
-0.042053573 0.058075242 0.64699996
-0.03735378 0.057804175 0.64623082
-0.031966668 0.055943336 0.64550006
-0.027103096 0.056051672 0.64675003
-0.023957144 0.055900004 0.64500004
-0.070642859 0.063885719 0.64500004
-0.067635596 0.063179649 0.645625
-0.062764101 0.063624099 0.64609998
-0.057869446 0.062485002 0.6464166
-0.053140577 0.061872959 0.64579999
-0.04934762 0.061223816 0.6450001
-0.070642859 0.065728575 0.64500004
-0.067610122 0.066381313 0.64537501
-0.06302572 0.065974288 0.64500004
-0.059585717 0.065728575 0.64500004
-0.065728575 0.083542861 0.64500004
-0.06302572 0.083911434 0.64500004
-0.059585717 0.084157147 0.64500004
-0.06731993 0.087664701 0.64576924
-0.062837288 0.087217428 0.64685708
-0.057757836 0.087314174 0.64653343
-0.053725298 0.087721705 0.64511114
-0.080596194 0.094131432 0.64600003
-0.077581428 0.094204292 0.64649999
-0.072117142 0.093740009 0.64500004
-0.068092525 0.09213195 0.64592314
-0.064800002 0.090720005 0.648
-0.056733813 0.090650007 0.64750004
-0.052617736 0.09202154 0.64646149
-0.049795717 0.093444288 0.64550006
-0.080596194 0.09597715 0.64600003
-0.077685364 0.097415596 0.64737499
-0.072626784 0.09724655 0.64625007
-0.068546668 0.096212387 0.64550006
-0.051222861 0.095657147 0.648
-0.047327109 0.097290576 0.64690906
-0.043087531 0.097869053 0.64630002
-0.039928574 0.098900005 0.64500004
-0.076525718 0.10059429 0.648
-0.0734016 0.10054255 0.64766669
-0.041898184 0.10224885 0.64781815
-0.038955081 0.10230906 0.64583337
-0.040114287 0.10553144 0.648
-0.036846116 0.10725167 0.64658326
-0.032017231 0.10800805 0.64536363
-0.028257145 0.10934287 0.64500004
-0.020522859 0.042911433 0.65300006
-0.032339051 0.049130481 0.65300006
-0.021211158 0.047833752 0.65228581
-0.017338097 0.047380004 0.65227276
-0.014303811 0.046642859 0.65300006
-0.045399051 0.054105718 0.65300006
-0.041843019 0.053649686 0.65250003
-0.037071981 0.052412793 0.6518572
-0.032123368 0.051964644 0.65113342
-0.027404638 0.051954355 0.65100008
-0.022991907 0.050335716 0.65250003
-0.055906907 0.058391191 0.65225005
-0.05197715 0.057844333 0.65181822
-0.047082443 0.056595027 0.65144444
-0.042374391 0.056015663 0.65111113
-0.038086429 0.055425953 0.65025002
-0.066975251 0.061650891 0.65200007
-0.062305339 0.061186671 0.65160006
-0.057601593 0.06007842 0.6503334
-0.062111117 0.089761913 0.65000004
-0.065744527 0.093035959 0.65125
-0.06200818 0.0923931 0.65108335
-0.057119906 0.09317705 0.65050006
-0.053857148 0.094714291 0.65000004
-0.065736763 0.096058682 0.65240002
-0.062347967 0.096719407 0.65278572
-0.05717897 0.096955806 0.65258336
-0.052160002 0.098161325 0.65138465
-0.048904765 0.099047624 0.65000004
-0.081095241 0.10090477 0.65000004
-0.078171819 0.10171049 0.6504001
-0.07490477 0.10214286 0.65000004
-0.055971432 0.10012668 0.65300006
-0.051563002 0.10179158 0.65228575
-0.047075476 0.1028219 0.65037495
-0.043539684 0.10420635 0.65000004
-0.050374288 0.10510191 0.65300006
-0.046145879 0.1069843 0.65183342
-0.042144053 0.1075296 0.65075004
-0.032586671 0.039480001 0.65800005
-0.031709339 0.042613339 0.65800005
-0.027699489 0.043016858 0.65753853
-0.023105079 0.04308667 0.65566671
-0.017645802 0.043180529 0.65536374
-0.013723811 0.044290479 0.65500003
-0.036804765 0.049280956 0.65500009
-0.032523271 0.04726354 0.65671432
-0.027500598 0.047498215 0.65625
-0.023370372 0.046947729 0.6553334
-0.016842861 0.045538098 0.65500009
-0.01434762 0.045538098 0.65500003
-0.069560006 0.054520003 0.65800005
-0.056400001 0.054520003 0.65800005
-0.052121315 0.053684883 0.65737504
-0.047541749 0.052857466 0.65683341
-0.043142624 0.051893577 0.65650004
-0.038676195 0.050528575 0.65500003
-0.023080954 0.050528575 0.65500003
-0.071249336 0.05747601 0.65740007
-0.06802088 0.057795316 0.65725005
-0.062595606 0.057585593 0.65724999
-0.057931989 0.057096273 0.65641677
-0.052807052 0.055802483 0.65540004
-0.048657149 0.055519052 0.65500003
-0.070705719 0.060694288 0.65700001
-0.067649849 0.060571115 0.65566671
-0.06118048 0.099261433 0.65550005
-0.058638096 0.09918572 0.65500003
-0.060956195 0.10090096 0.6553334
-0.057542942 0.10230641 0.65609103
-0.05349461 0.10345016 0.65566671
-0.034571432 0.039600004 0.66000003
-0.036604766 0.043546349 0.66266674
-0.034152385 0.04274286 0.66000009
-0.052382864 0.04985778 0.66266674
-0.047893338 0.049361594 0.66166675
-0.042454671 0.049509909 0.66140002
-0.037824526 0.047593735 0.66191679
-0.067073658 0.054247618 0.66233343
-0.062687814 0.05373143 0.66220009
-0.057950106 0.052909341 0.66140002
-0.053332143 0.051758096 0.66075003
-0.048425086 0.050940003 0.6603334
-0.041485716 0.050914288 0.66000003
-0.071657151 0.059085719 0.66000003
-0.066628575 0.057200003 0.66000003
-0.072285719 0.061600003 0.66000003
-0.046256572 0.043453146 0.66900009
-0.042560957 0.04383143 0.66700006
-0.038633335 0.044966668 0.66500002
-0.06116572 0.049060002 0.66900003
-0.056848418 0.048574131 0.66816676
-0.05189218 0.047262244 0.66678578
-0.047042705 0.046407148 0.66600001
-0.042727012 0.046800341 0.66535723
-0.039900001 0.046233337 0.66500002
-0.066391192 0.051812623 0.66549999
-0.062114045 0.050862625 0.66549999
-0.057670482 0.050970349 0.66542858
-0.057687625 0.044225719 0.67300004
-0.05179565 0.043390486 0.67142862
-0.04785715 0.042205445 0.67000002
-0.042158104 0.042793658 0.67066669
-0.038923811 0.043390479 0.67000002
-0.072902046 0.048326265 0.67400008
-0.066847235 0.048627052 0.67360008
-0.062590249 0.047234055 0.67175001
-0.057735812 0.046366483 0.67060006
-0.053600006 0.045304764 0.67000002
-0.07125143 0.050710481 0.67400002
-0.068683811 0.050710481 0.67400002
-0.020693336 0.033626668 0.67900002
-0.042680003 0.039446671 0.67900002
-0.03750667 0.039446671 0.67900002
-0.034273334 0.039446671 0.67900002
-0.025220001 0.036860004 0.67900002
-0.020689644 0.037499644 0.67887497
-0.017747412 0.038009636 0.67899996
-0.07108143 0.044587146 0.67850006
-0.06680648 0.044322293 0.67840004
-0.06249572 0.043810006 0.67650002
-0.057624768 0.042927627 0.67680001
-0.05378858 0.042436194 0.67720002
-0.047818098 0.040710002 0.67850006
-0.042207763 0.041102454 0.67585725
-0.03795667 0.041172862 0.67550009
-0.026772002 0.041774672 0.67900002
-0.021315619 0.041208576 0.67820001
-0.01808 0.041325718 0.67800003
-0.071018457 0.047184169 0.67637503
-0.067649767 0.046709049 0.67650008
-0.064928576 0.046928573 0.67500001
-0.070175245 0.050860956 0.67600006
-0.025405716 0.029314287 0.68400002
-0.021751812 0.029045144 0.68380004
-0.018439367 0.028851431 0.6833334
-0.036480002 0.034525715 0.68400002
-0.0321104 0.032977063 0.68341672
-0.027286667 0.032480597 0.68212503
-0.022491826 0.032007385 0.68125004
-0.017647708 0.032639571 0.68172741
-0.056902099 0.039453339 0.68360007
-0.052057859 0.039042387 0.68325007
-0.047219194 0.038682863 0.68185723
-0.042950999 0.037159141 0.68236369
-0.037690006 0.037038736 0.68233335
-0.032286923 0.037471052 0.68073338
-0.02733524 0.037612066 0.6801334
-0.023314286 0.037561908 0.67999995
-0.016838096 0.03561905 0.68000001
-0.070590481 0.043390479 0.68000001
-0.068164773 0.043496829 0.68166673
-0.061553527 0.041772194 0.68320006
-0.057619687 0.041372389 0.68233341
-0.052509844 0.040840007 0.68066669
-0.031085715 0.040800001 0.68000001
-0.027847623 0.040800001 0.68000001
-0.023098415 0.041663494 0.68000001
-0.036090478 0.029528573 0.68900001
-0.032433856 0.028147623 0.68736374
-0.027742863 0.028676739 0.68657148
-0.022878416 0.028106986 0.68633336
-0.047212858 0.034752857 0.68850005
-0.041933335 0.034399524 0.68800008
-0.03758315 0.032736283 0.6875
-0.033985481 0.031371191 0.68625009
-0.061255243 0.039455876 0.68666673
-0.057309121 0.037675645 0.68714297
-0.05237107 0.036659405 0.68737507
-0.047968958 0.036466476 0.68620008
-0.04246667 0.035933334 0.68600005
-0.071852863 0.042980477 0.68900001
-0.067522869 0.04195492 0.68833339
-0.064431123 0.041715559 0.68800008
-0.030930478 0.024349526 0.69100004
-0.027629763 0.024340715 0.69075
-0.024349526 0.024349526 0.69100004
-0.04020191 0.028997146 0.69200003
-0.037797526 0.028840572 0.69140005
-0.030930478 0.025665715 0.69100004
-0.027614882 0.026299646 0.69037509
-0.023296574 0.026192192 0.69100004
-0.057283815 0.034895878 0.69133341
-0.052453049 0.033868097 0.69190007
-0.047443219 0.032944884 0.69187504
-0.042155433 0.032272957 0.69160002
-0.038771432 0.030885717 0.69000006
-0.071870804 0.038243182 0.6923334
-0.067271434 0.038250953 0.6925
-0.062279522 0.03739905 0.69200003
-0.058513977 0.036598414 0.69033337
-0.071645878 0.040752545 0.69016671
-0.067052148 0.040100243 0.69025004
-0.063742861 0.040085718 0.69000006
-0.05118667 0.029914288 0.69800001
-0.047165241 0.029892858 0.69749999
-0.042705078 0.02854233 0.69700003
-0.062487621 0.033902861 0.69800001
-0.056791026 0.032897964 0.69685721
-0.052697621 0.031485241 0.6960001
-0.047726672 0.03115429 0.69600004
-0.044347622 0.031109527 0.69500005
-0.071691431 0.036509525 0.69700003
-0.067369394 0.03591007 0.69642866
-0.062688574 0.035386097 0.69580001
-0.050214291 0.024102859 0.70300001
-0.048944764 0.024807621 0.70400006
-0.044921909 0.024807621 0.70400006
-0.056575719 0.028454289 0.70300001
-0.051859912 0.027665621 0.70170009
-0.047468096 0.027576432 0.70200002
-0.044794291 0.026740953 0.70200002
-0.03888762 0.027489526 0.70400006
-0.07170058 0.033638477 0.70360005
-0.067547731 0.032768045 0.70222229
-0.062498864 0.032520194 0.7026
-0.057760548 0.031026939 0.70171434
-0.05222223 0.030000001 0.70000005
-0.047333337 0.030000001 0.70000005
-0.071401916 0.03536699 0.70066667
-0.047133338 0.024015559 0.70700002
-0.035737146 0.024274286 0.708
-0.03281524 0.024049524 0.70800006
-0.061331116 0.028531112 0.70766664
-0.059294768 0.028299525 0.70749998
-0.047671434 0.026185716 0.70500004
-0.037055053 0.026813526 0.70740002
-0.034340002 0.026933335 0.70700002
-0.072875656 0.031914398 0.7063334
-0.067560956 0.030747622 0.70700002
-0.062888958 0.030837907 0.70699996
-0.059757147 0.030214287 0.70500004
-0.074528575 0.035585716 0.70500004
-0.042276431 0.023336431 0.71025002
-0.038659845 0.023061112 0.71216673
-0.032490715 0.022337859 0.71075004
-0.029117145 0.023022858 0.71100003
-0.075374298 0.02783905 0.71300006
-0.072345003 0.028869286 0.71325004
-0.06751892 0.028575512 0.71200001
-0.063515872 0.027573969 0.71200007
-0.042619687 0.025706988 0.71033335
-0.038610719 0.025401194 0.71125001
-0.075057149 0.030428573 0.71000004
-0.072454289 0.030471431 0.71100003
-0.066266671 0.030428573 0.71000004
-0.072527982 0.026536455 0.71781826
-0.067602865 0.02663143 0.71700001
-0.070628576 0.024000002 0.72000003
-0.069257148 0.024000002 0.72000003
-0.067200005 0.02537143 0.72000003
-0.063771434 0.02537143 0.72000003
-0.091325723 0.0090628574 0.73200005
-0.091325723 0.011154287 0.73200005
-0.089808576 0.011139048 0.73100001
-0.095952712 0.0086803176 0.73900002
-0.093606673 0.0091495244 0.73900002
-0.097038738 0.011953334 0.7383334
-0.094144955 0.011645525 0.73660004
-0.099000484 0.0077776201 0.74250001
-0.10239381 0.012202146 0.74275005
-0.099371433 0.011980954 0.74000001
-0.11398096 0.0035619049 0.74800003
-0.10275824 0.0082167359 0.74557149
-0.10430001 0.010642858 0.74500006
-0.11642858 0.0035714288 0.75000006
-0.10535 0.0028661906 0.75250006
-0.1034162 0.0031044446 0.75233334
-0.11515334 0.0057209525 0.75100005
-0.11260328 0.0068525188 0.75171435
-0.10716219 0.0070623131 0.75228572
-0.10337016 0.0054907943 0.75200003
-0.10671239 0.010742858 0.75200003
-0.10598001 -0.0014428573 0.75700003
-0.10338905 -0.0010814287 0.75650001
-0.11664 0.00144 0.75600004
-0.11195726 0.0023229632 0.75733334
-0.10777389 0.0019548303 0.75657147
-0.10426191 0.00071904768 0.75500005
-0.11109286 0.006111905 0.75500005
-0.10831734 0.0067603821 0.75520009
-0.11001429 0.010785715 0.75500005
-0.1085762 0.010785715 0.75500005
-0.10682001 -0.0050866669 0.76300001
-0.11592349 -0.0012104763 0.76233339
-0.11221921 -0.0016944446 0.76183343
-0.10830858 -0.0018853337 0.76120001
-0.11508572 0.00072380959 0.76000005
-0.1136381 0.00072380959 0.76000005
-0.11614572 -0.0051133335 0.76700002
-0.11278586 -0.0057393205 0.76685727
-0.10818096 -0.006579048 0.76749998
-0.1168143 -0.003157143 0.76500005
-0.11256429 -0.0032785714 0.76500005
-0.10855715 -0.0036428573 0.76500005
-0.11558191 -0.011042858 0.77300006
-0.11160763 -0.01152889 0.77266669
-0.10813601 -0.011623239 0.77240008
-0.11690232 -0.0076693879 0.77200013
-0.11232409 -0.0085118376 0.77228582
-0.1088724 -0.0090526994 0.77066672
-0.12093049 -0.015580001 0.77900004
-0.11744144 -0.015930954 0.778
-0.11298306 -0.015844764 0.77739996
-0.10805924 -0.016750289 0.77820003
-0.12538192 -0.011870477 0.77900004
-0.12200986 -0.012103493 0.77800006
-0.11784644 -0.012765952 0.77700001
-0.1130113 -0.013190614 0.77557153
-0.10828541 -0.013567938 0.77700007
-0.12538192 -0.0096447626 0.77900004
-0.12184532 -0.0085609537 0.77671438
-0.11883334 -0.008857144 0.77500004
-0.10976001 -0.020160001 0.78400004
-0.12618667 -0.01568 0.78400004
-0.12229683 -0.017152701 0.78299999
-0.11800077 -0.018051812 0.78319997
-0.11250699 -0.017883494 0.78233331
-0.10976001 -0.018666668 0.78400004
-0.12586477 -0.014150477 0.78200006
-0.12327874 -0.013643175 0.78133339
-0.12548858 -0.021040002 0.78900003
-0.12226572 -0.02205467 0.78760016
-0.11786572 -0.022293942 0.78736377
-0.11340239 -0.021557383 0.78724998
-0.1319454 -0.016775239 0.78866673
-0.12760226 -0.01726393 0.78812504
-0.12351429 -0.018714286 0.78600001
-0.1290819 -0.014259049 0.78800005
-0.12228686 -0.027930478 0.7926001
-0.11740749 -0.027061634 0.79242867
-0.11404096 -0.027188573 0.79300004
-0.13246877 -0.020995621 0.79300004
-0.12770383 -0.022447621 0.79225004
-0.12279335 -0.024860002 0.79100001
-0.11601334 -0.024860002 0.79100001
-0.11375334 -0.024860002 0.79100001
-0.13635334 -0.017326668 0.79100001
-0.13273735 -0.017929336 0.79100001
-0.12882 -0.018833335 0.79100001
-0.12540001 -0.031160003 0.79800004
-0.12230889 -0.031906985 0.79766673
-0.11932001 -0.031160003 0.79800004
-0.11476 -0.031160003 0.79800004
-0.13224 -0.025080001 0.79800004
-0.12800838 -0.027788578 0.79720002
-0.11735716 -0.029528573 0.79500002
-0.11432858 -0.029528573 0.79500002
-0.13212144 -0.023092858 0.79500002
-0.12795715 -0.024985716 0.79500002
-0.12710857 -0.035988573 0.80400002
-0.12328001 -0.035988577 0.80400008
-0.13179086 -0.032297529 0.80360001
-0.12766811 -0.03301619 0.80150008
-0.12297335 -0.034371432 0.80200005
-0.11831763 -0.032061432 0.80149996
-0.1323396 -0.028429393 0.80057156
-0.12620191 -0.040784765 0.80800003
-0.13620572 -0.036167622 0.80800003
-0.13242787 -0.037480243 0.80725008
-0.12750383 -0.03802143 0.80650014
-0.12266239 -0.037683338 0.80750006
-0.13686532 -0.0326498 0.80800003
-0.13364905 -0.033796668 0.80650008
-0.1205162 -0.034542859 0.80600005
-0.11754414 -0.033547938 0.80666673
-0.13682953 -0.04147524 0.81400001
-0.13224128 -0.041761272 0.81199998
-0.12791023 -0.043007351 0.81257147
-0.12287882 -0.042186905 0.8127501
-0.11893271 -0.041537147 0.81266677
-0.13711397 -0.03833048 0.81033343
-0.13345715 -0.039342858 0.81000006
-0.12162858 -0.038828574 0.81000012
-0.1181253 -0.037830267 0.81066674
-0.11740096 -0.034757145 0.81100005
-0.13806 -0.046800002 0.81900012
-0.1326071 -0.047492169 0.81744456
-0.12769282 -0.047293019 0.81700009
-0.12286238 -0.045879524 0.81650007
-0.11904858 -0.04590762 0.81700003
-0.13783182 -0.043665338 0.81580001
-0.13272859 -0.044242859 0.81500006
-0.12186192 -0.044242859 0.81500006
-0.13638288 -0.050947621 0.82300001
-0.13230288 -0.051669531 0.82200003
-0.12748739 -0.052288339 0.82249999
-0.12462573 -0.052515239 0.82300007
-0.13694572 -0.049300008 0.82166672
-0.12745048 -0.049260002 0.82100004
-0.12319221 -0.048369717 0.82180005
-0.11963144 -0.047696192 0.82100004
-0.13704763 -0.052770481 0.82700002
-0.13153239 -0.05434572 0.82700002
-0.12995715 -0.05434572 0.82700002
-0.12212954 -0.052005395 0.82733339
-0.12178572 -0.049500003 0.82500005
-0.1314289 -0.056855559 0.83300006
-0.12346287 -0.054608576 0.83100003
