# .PCD v0.7 - Point Cloud Data file format
VERSION 0.7
FIELDS x y z
SIZE 4 4 4
TYPE F F F
COUNT 1 1 1
WIDTH 827
HEIGHT 1
VIEWPOINT 0 0 0 1 0 0 0
POINTS 827
DATA ascii
0.0025409525 0.029856192 0.66700006
-0.00063587306 0.032428257 0.66766679
0.0022706809 0.033230957 0.66735709
0.007802858 0.03327762 0.66875011
0.012072223 0.034310956 0.66716671
-0.00063714292 0.036317147 0.66900003
0.0026632384 0.037945148 0.66626668
0.0076223221 0.03714994 0.66681248
0.012716113 0.037513256 0.66758341
0.015880954 0.03747905 0.66700006
0.002165905 0.04113543 0.66860002
0.008137038 0.041245613 0.66855556
0.012337404 0.041414291 0.66900015
0.0044666668 0.029990477 0.67000002
0.0057428577 0.029990477 0.67000002
0.0044666668 0.031904764 0.67000002
0.0063809529 0.031904764 0.67000002
-0.0077028573 0.036588576 0.67400002
-0.001917143 0.037064765 0.671
0.0031990479 0.043520004 0.67200005
0.0072377785 0.043646675 0.67066669
0.0032033338 0.04742017 0.67283332
0.0074090483 0.047215037 0.67249995
-0.020477779 0.028237781 0.67900008
-0.017708763 0.028565526 0.67860001
-0.013303651 0.028535083 0.6758334
-0.020452542 0.031863652 0.67816675
-0.017402779 0.032227386 0.67675012
-0.012867323 0.032170419 0.67556262
-0.0096642859 0.032217145 0.67650002
-0.017443812 0.037469685 0.67833328
-0.012885597 0.037376191 0.67662501
-0.0086826459 0.037815981 0.67811114
-0.017136667 0.041063335 0.67900002
-0.012277144 0.042003334 0.6785
-0.0081459051 0.041245338 0.67880005
-0.0022584922 0.043085635 0.67691678
0.00064333336 0.043746196 0.67550004
-0.0015010582 0.047388893 0.67544448
0.00064333336 0.047607623 0.67550004
-0.0012901588 0.052252702 0.67733335
0.0025781752 0.05223389 0.67708337
0.0064539686 0.052279688 0.67766666
0.0090399999 0.061342862 0.67800003
0.017873336 0.063096195 0.6783334
-0.022365715 0.02888 0.68400002
0.024102859 0.029314287 0.68400002
0.026708573 0.028793145 0.68400002
-0.022323813 0.032286987 0.68266672
0.01889143 0.033874288 0.68400002
0.022328233 0.032839932 0.68378574
0.026448002 0.03113829 0.68400002
-0.020845715 0.037131432 0.68400002
0.01889143 0.035828575 0.68400002
0.020815238 0.035776194 0.68300003
-0.020816192 0.040980004 0.68300003
-0.017266287 0.043233525 0.68160009
-0.013620476 0.04345572 0.68099999
-0.0086040823 0.043760549 0.68000001
-0.013916572 0.046690669 0.68280005
-0.011508573 0.05189715 0.68400002
-0.0084640821 0.052918781 0.68357152
-0.0032571431 0.054068577 0.68400002
-0.009771429 0.055371433 0.68400002
-0.0020726409 0.056785375 0.68390912
0.0025997623 0.057210833 0.682625
0.0071374616 0.057102542 0.68133342
0.0026014885 0.06245197 0.68306249
0.0074490122 0.062640667 0.68238473
0.013260192 0.063320391 0.68260002
0.016850002 0.063189998 0.68050003
0.020076191 0.064114287 0.68000001
0.0032571428 0.066771433 0.68400002
0.0084685721 0.065794289 0.68400002
0.01392362 0.067669146 0.68320006
0.017549843 0.067600645 0.68250006
0.021136787 0.067637511 0.68287504
0.013666033 0.070936516 0.6833334
0.017554287 0.0708673 0.68266672
0.041340001 0.019029524 0.68900001
0.024279049 0.024279049 0.68900001
0.02801024 0.023424525 0.68800008
0.032950476 0.022557283 0.68800008
0.036965404 0.022091746 0.68900007
0.041340005 0.020341907 0.68900001
-0.037350483 0.029485717 0.68800008
-0.032666668 0.029400002 0.68600005
-0.027160006 0.028840005 0.68600005
-0.024173334 0.028746668 0.68600005
0.017060954 0.029528573 0.68900001
0.022523144 0.028022572 0.6875
0.027761474 0.026810652 0.68663633
0.032716669 0.027480001 0.68700004
0.036090478 0.026903814 0.68900001
-0.03674667 0.031497143 0.68900001
-0.032510411 0.032417759 0.686643
-0.027475119 0.032708336 0.6868751
-0.023761272 0.033133972 0.68666673
0.0088585727 0.031169049 0.68900001
0.012455557 0.032120958 0.68833339
0.016732179 0.032528646 0.6870715
0.020906668 0.030706668 0.68600005
0.027882686 0.033351429 0.68663633
0.031854287 0.032510482 0.68820012
-0.031684764 0.036493018 0.68833339
-0.027218234 0.03778436 0.68742865
-0.022424223 0.038026672 0.68671435
0.027349094 0.037240349 0.68818188
0.031278417 0.036527939 0.68900001
-0.026460003 0.041486669 0.68600005
-0.022656003 0.042042669 0.68760008
0.026575714 0.041011907 0.68900001
-0.011977779 0.053791117 0.68600005
-0.006533334 0.05422667 0.68600005
-0.0045733335 0.05422667 0.68600005
-0.011106667 0.055533338 0.68600005
-0.007073767 0.057361219 0.68654549
-0.0037893336 0.05866934 0.68600005
-0.0062242858 0.061921433 0.68800008
-0.0024864133 0.062656835 0.68673348
-0.0026171431 0.066737145 0.68700004
0.0015244446 0.067728899 0.68600005
0.0076288898 0.067784242 0.68655556
0.011542223 0.067946672 0.68600005
0.0045933337 0.070868582 0.68900001
0.0078742858 0.070212387 0.68900001
0.038996194 0.01388 0.69400001
0.042789169 0.01305131 0.69387507
0.045605719 0.013219048 0.69400001
0.022896353 0.018713176 0.69350004
0.027783206 0.017941127 0.69309098
0.032980572 0.018071814 0.69260007
0.037353408 0.017077802 0.69184619
0.042145599 0.016970478 0.69073337
0.046920437 0.017675586 0.69209093
-0.00066095241 0.02445524 0.69400001
0.0028641275 0.02445524 0.69400001
0.008328001 0.02419086 0.69400001
0.012545397 0.023110054 0.69333345
0.017335581 0.022704287 0.6925
0.022242602 0.022242602 0.69100004
0.027121311 0.02120417 0.69037503
0.03154286 0.02037143 0.69000006
0.038771432 0.023000002 0.69000006
0.042256858 0.022824325 0.6907692
0.046784084 0.021180006 0.69185716
-0.04665266 0.02874599 0.69271433
-0.041904766 0.02790449 0.69057155
-0.038470954 0.027290478 0.69050002
-0.005948572 0.029742859 0.69400001
-0.0024548301 0.028037556 0.69385731
0.0026415477 0.027734526 0.69337499
0.0079162512 0.027705535 0.69268745
0.012498653 0.027628813 0.69075
0.0170877 0.026945952 0.69008338
0.021422859 0.026154285 0.69000006
0.037907515 0.027828574 0.69022226
0.041134395 0.027496511 0.69288892
-0.046729293 0.032198332 0.69350004
-0.042123154 0.032908399 0.69106251
-0.037785716 0.033514291 0.69000006
-0.021685716 0.033514287 0.69000006
-0.005948572 0.031064764 0.69400001
-0.0025116194 0.031329144 0.69400001
0.00066095241 0.031064764 0.69400001
0.034398895 0.033303335 0.69016671
0.037553262 0.032941826 0.69174999
0.040634051 0.032044999 0.69375002
-0.040801909 0.036195241 0.69100004
-0.031323813 0.038333338 0.69000006
-0.029571431 0.038771432 0.69000006
0.029571431 0.038771432 0.69000006
0.033217028 0.037655361 0.69062501
0.036766831 0.037427779 0.69350004
-0.031323813 0.040523812 0.69000006
-0.028004764 0.042513337 0.69200003
-0.022022622 0.043715954 0.69025004
-0.019057143 0.044028573 0.69000006
0.028145283 0.042486936 0.69018191
0.032262646 0.041335035 0.69133341
-0.027760001 0.045605719 0.69400001
-0.021478286 0.047047433 0.69180006
-0.019057143 0.045342859 0.69000006
-0.021150477 0.051554292 0.69400001
0.0079642339 0.072552599 0.69044447
0.011171429 0.071628578 0.69000006
0.045671433 0.0046333335 0.69500005
0.033238098 0.0099714296 0.69800001
0.038146101 0.0094367629 0.69779998
0.042624161 0.0082393885 0.69621432
0.047502179 0.0081536062 0.69685721
0.052516192 0.0099714296 0.69800001
0.057609815 0.0086269528 0.69690007
0.060607623 0.0089409528 0.69550002
0.024596192 0.013960001 0.69800001
0.027909763 0.013955001 0.69774997
0.032722022 0.012789167 0.69762498
0.036976624 0.012485715 0.69672734
0.041369051 0.011583335 0.69500005
0.048146006 0.012467525 0.69630003
0.053102385 0.012612382 0.69700003
0.057585716 0.012576192 0.69500011
0.060233336 0.012576192 0.69500005
0.0039885715 0.018613335 0.69800001
0.0084664291 0.018426429 0.69725001
0.012332002 0.018696574 0.69620001
0.017533064 0.018668845 0.69657153
0.022564646 0.016591549 0.69687504
0.027715242 0.015514857 0.69620007
0.032124765 0.015565714 0.69550002
0.035080954 0.01522381 0.69500005
0.048904955 0.01603562 0.69580001
0.052700445 0.016886378 0.69638467
0.057585504 0.016591853 0.69677782
0.060233336 0.01522381 0.69500005
-0.0071451189 0.023428455 0.69787502
-0.0028352384 0.023093423 0.69645464
0.0027619842 0.02220675 0.69608343
0.0077638966 0.02172788 0.69518197
0.012576192 0.020519052 0.69500005
0.015885714 0.02051905 0.69500005
0.047540165 0.023658892 0.69650006
0.051113337 0.020578096 0.69700003
-0.056423813 0.02987143 0.69700003
-0.053104766 0.02987143 0.69700003
-0.047657147 0.027138097 0.69500005
-0.021272384 0.027255239 0.69800001
-0.017150858 0.027521143 0.69800001
-0.012455715 0.027069051 0.69749999
-0.0080830483 0.027690159 0.69560015
-0.0039714286 0.025814287 0.69500005
0.043844089 0.02812463 0.69600004
0.046108197 0.027505908 0.69760001
-0.055565085 0.031657144 0.69733334
-0.053142861 0.03188619 0.69749999
0.042875402 0.032488734 0.69616675
0.038261592 0.038262226 0.69666672
0.041035812 0.03625524 0.6972
-0.035884526 0.043858334 0.69774997
-0.032774292 0.043918673 0.69660008
-0.029785717 0.044347622 0.69500005
0.032923177 0.043526988 0.6960001
0.035232384 0.041880004 0.69800001
-0.036904626 0.047813613 0.69728583
-0.032465398 0.047702543 0.69566679
-0.027832225 0.048377942 0.69583344
-0.023498861 0.048989147 0.69700003
0.02842788 0.047620092 0.69709092
0.031243812 0.046533339 0.69800001
-0.03250635 0.052408364 0.69655561
-0.027865715 0.052415878 0.69666672
-0.022968892 0.053443175 0.69566679
0.027900478 0.051150002 0.69749999
-0.026884288 0.055428099 0.69700003
-0.023828574 0.056261908 0.69500005
0.025925716 0.055175241 0.69800001
-0.012888762 0.062585145 0.69760001
-0.011965714 0.065811433 0.69800001
0.042759527 -0.00066809531 0.70150006
0.033916384 0.0030828575 0.70380002
0.037498817 0.0026775005 0.70312512
0.042715896 0.0026693461 0.70081264
0.047385719 0.0028915347 0.70077783
0.051913232 0.0037879364 0.70177776
0.055936515 0.0042330166 0.70200008
0.02308354 0.0081414981 0.70400012
0.027456351 0.0080353981 0.70316672
0.03226424 0.0074725552 0.70181829
0.037108388 0.0070739053 0.70080006
0.041333336 0.0060000005 0.70000005
0.052291606 0.0072258022 0.70145464
0.05588248 0.0070683816 0.70020002
-0.0010057144 0.013074286 0.70400006
0.0024520638 0.012598891 0.70250005
0.0073625864 0.013097009 0.70271438
0.012281059 0.013172911 0.70333338
0.017529398 0.01217486 0.70253342
0.022585141 0.011891558 0.70160013
0.02735048 0.011339894 0.70044446
0.030533334 0.011066668 0.70000005
0.035333335 0.010000001 0.70000005
0.052666672 0.010000001 0.70000005
-0.021440476 0.01943 0.70350003
-0.017147716 0.018351909 0.70330006
-0.012029762 0.018043574 0.70175016
-0.007354286 0.018049525 0.70200008
-0.0026751191 0.017382858 0.70212513
0.002223175 0.016900796 0.70050013
0.0071428581 0.016285716 0.70000011
0.012504762 0.016172143 0.70025003
0.017113546 0.016224656 0.70011109
0.021333335 0.015333334 0.70000005
0.054000005 0.019333335 0.70000005
0.057300579 0.019099811 0.70120001
0.061907306 0.017655876 0.70400012
-0.021375358 0.022709403 0.70137507
-0.017345715 0.022681907 0.70050001
-0.012 0.022666667 0.69999993
-0.007666667 0.021000002 0.70000005
-0.0026666669 0.020666668 0.70000005
0.00066666672 0.020666668 0.70000005
0.052245174 0.022976467 0.70071435
0.057189457 0.022494216 0.70261556
-0.02134905 0.026018575 0.70050001
-0.017333334 0.026000002 0.70000005
0.048147243 0.027608192 0.70020002
0.052175887 0.027425237 0.70233345
0.055944763 0.027135715 0.70350003
-0.060818337 0.032082144 0.70175004
-0.057889316 0.032538414 0.70044452
-0.053333338 0.034000002 0.70000005
0.04466667 0.033333335 0.70000005
0.047579397 0.032267012 0.70181823
0.051167786 0.031281751 0.70383334
-0.061460324 0.036429211 0.70400012
-0.056515481 0.037288811 0.70225
-0.053371906 0.036693811 0.70050001
0.039333336 0.039333336 0.70000005
0.043401737 0.037817318 0.70109099
0.046892028 0.037514884 0.70337504
-0.038666669 0.04466667 0.70000005
0.034000002 0.04466667 0.70000005
0.037704222 0.04295484 0.70157158
0.04251492 0.04229302 0.70300001
0.046709847 0.041346036 0.70400012
-0.04066667 0.046666671 0.70000005
-0.039333336 0.046000004 0.70000005
0.033061501 0.047543403 0.70028579
0.037486356 0.047525555 0.70283335
0.040899049 0.04626286 0.70400006
-0.036823813 0.052222859 0.70300001
0.028000001 0.053333335 0.70000005
0.032068036 0.052108634 0.70143753
0.036412068 0.05115588 0.70366669
-0.034194287 0.056990478 0.70400006
0.024690162 0.058055878 0.70066667
0.02746892 0.057545811 0.7003637
0.031314548 0.057338271 0.70227283
-0.016253969 0.063899688 0.7013334
-0.012666668 0.064666674 0.70000005
0.027412701 0.061508894 0.70200008
0.03017143 0.061013337 0.70400006
-0.016579643 0.067491077 0.70337498
-0.012914288 0.068019599 0.70314294
0.031691432 -0.00067428575 0.708
0.02343143 0.003667831 0.70744443
0.027606672 0.0033651853 0.70700008
0.03149065 0.0025060605 0.70627266
-0.0060685719 0.0087657152 0.708
-0.0026958731 0.0074095242 0.70733333
0.0026926985 0.0074025402 0.70666665
0.0074140746 0.0074132285 0.7076667
0.011608467 0.0077140746 0.70777786
0.017682945 0.0075250221 0.70672733
0.022450095 0.0063182861 0.70580006
0.027528575 0.0060428581 0.7050001
0.030214287 0.0060428577 0.70500004
-0.011462858 0.014160002 0.70800006
-0.0072868406 0.012305888 0.70718175
-0.0032482543 0.011757462 0.70550001
0.0033628573 0.010421429 0.70599997
0.0073982864 0.010625715 0.70620006
0.011811838 0.010659184 0.70585716
0.015442858 0.010071429 0.70500004
-0.030342858 0.019554287 0.708
-0.027982859 0.019217145 0.708
-0.022491241 0.018450096 0.70699996
-0.017625144 0.016010668 0.70640004
-0.012120001 0.015486668 0.70700002
-0.0073857149 0.015442858 0.7050001
0.062442865 0.018665714 0.70500004
0.066202864 0.018934287 0.70500004
-0.030882288 0.023600001 0.708
-0.027633019 0.022914289 0.70766664
-0.024223333 0.022875002 0.70650005
0.059309527 0.023947623 0.7050001
0.062457621 0.022834128 0.7051667
0.06627959 0.021773471 0.70500004
-0.026260002 0.026260002 0.70700002
-0.024171431 0.026185716 0.70500004
0.058665957 0.027736431 0.70600003
0.06215933 0.02738245 0.70614284
-0.072977789 0.034356192 0.70733333
-0.068006679 0.034340002 0.70700002
-0.059757147 0.034242861 0.70500004
0.053088766 0.032794479 0.70559996
0.057257809 0.031796094 0.70729989
0.060881592 0.031227624 0.70766664
-0.076194294 0.035737146 0.708
-0.072904088 0.036307894 0.70785719
-0.06734015 0.037584692 0.70761544
-0.062775247 0.038741779 0.70657146
-0.058800831 0.037802979 0.70562494
-0.054617148 0.039782859 0.708
0.049014289 0.037600003 0.70500004
0.052247964 0.0375266 0.70721424
-0.060974702 0.042287353 0.70800006
-0.057251744 0.042433549 0.70722228
-0.052563101 0.042454846 0.70758337
0.04364286 0.044538103 0.7050001
0.048076384 0.042689718 0.70700002
0.05057143 0.041131433 0.708
-0.060011432 0.045851432 0.708
-0.056996763 0.046890672 0.70740002
-0.052659687 0.04700293 0.7070666
0.042403683 0.047788166 0.70671427
0.045584135 0.045583498 0.70733333
-0.045177147 0.054617148 0.708
-0.042450007 0.053905245 0.70749998
-0.038123049 0.0542861 0.70719999
0.038304765 0.053088766 0.70559996
0.041102387 0.051210001 0.70749998
-0.045177147 0.055965718 0.708
-0.042480003 0.056640007 0.70800006
-0.037738658 0.057280719 0.70758337
-0.032348663 0.057297926 0.70627266
0.03393048 0.057785239 0.70550001
0.037491601 0.057059571 0.70636368
-0.037081514 0.062027078 0.70791674
-0.0338681 0.061903339 0.70650005
0.032140955 0.061360009 0.70800006
0.035737146 0.060011432 0.708
0.0047533335 -0.0074695242 0.71300006
0.0074715875 -0.0076973019 0.71316671
0.011764128 -0.00656127 0.71266669
0.017655239 -0.0061114291 0.71300006
0.021050477 -0.0061114291 0.71300006
0.0085630482 -0.0023112383 0.71360004
0.012222083 -0.0027162496 0.71293771
0.017661428 -0.0027171432 0.71325016
0.02240302 -0.0027160319 0.71283352
0.026897825 -0.0024190475 0.71114296
0.03044286 -0.0020301589 0.71033335
-0.0060942862 0.0047400002 0.71100003
-0.0020340479 0.0044116667 0.71275002
0.0029074152 0.0030021092 0.71235728
0.007450318 0.0027079368 0.71116674
0.012193097 0.0027088095 0.71125013
0.017620478 0.0027085717 0.71162516
0.021884128 0.0015787304 0.71066666
0.027047619 0.00067619054 0.71000004
-0.010880001 0.0088400003 0.71400005
-0.0076297629 0.0072885724 0.71200001
0.013749207 0.0065365089 0.71000004
0.015552382 0.0060857148 0.71000004
-0.021493336 0.013800001 0.71266669
-0.017418945 0.013344658 0.71255571
-0.012361831 0.011733115 0.71192318
-0.0087904772 0.010142858 0.71000004
-0.036040001 0.019720001 0.71400005
-0.03276442 0.018200608 0.71263647
-0.026736099 0.016962191 0.7125001
-0.022824924 0.016495399 0.71183342
-0.019609526 0.015552382 0.71000004
-0.040120002 0.023800002 0.71400005
-0.036023177 0.022430163 0.71366668
-0.033047199 0.022205928 0.71133339
-0.10132001 0.026520004 0.71400011
-0.098412514 0.027025357 0.71387511
-0.040120002 0.025160002 0.71400005
-0.11424001 0.034000002 0.71400005
0.058377784 0.033584133 0.71000004
0.060660005 0.033600319 0.71033335
-0.11415953 0.036014766 0.71350002
-0.087019846 0.037391275 0.71383333
-0.082684405 0.03795417 0.71162504
-0.077532254 0.038040549 0.7114287
-0.072122291 0.038564954 0.71040004
-0.06902048 0.039923336 0.7105
0.054771431 0.038542859 0.71000004
0.056400478 0.036694765 0.71350002
-0.086360015 0.042469095 0.71400017
-0.082279995 0.042160004 0.71400017
-0.077452384 0.042123932 0.71337515
-0.072744861 0.042265028 0.71263647
-0.06777858 0.042701595 0.71166676
-0.063733332 0.042894863 0.71040004
0.049570478 0.0441381 0.71300006
0.052001148 0.042497147 0.71280003
0.055002861 0.040063813 0.71300006
-0.076840013 0.046531431 0.71400011
-0.072061129 0.047587797 0.71381259
-0.067304596 0.047589209 0.71383345
-0.062677279 0.047661912 0.71200013
-0.058870003 0.048720479 0.7105
0.043952383 0.049361907 0.71000004
0.047548484 0.047669873 0.71227282
-0.066640005 0.051000003 0.71400005
-0.062100001 0.05218057 0.71340007
-0.057144426 0.052338015 0.71200001
-0.053342231 0.052215245 0.71200007
0.042799525 0.05261096 0.7105
0.04668548 0.052117147 0.71300006
-0.060520004 0.055080004 0.71400005
-0.046790481 0.058316827 0.71200007
-0.042600006 0.058828574 0.71000004
0.042800635 0.055481277 0.71333337
-0.039923336 0.062254287 0.7105
0.0047733337 -0.0061371434 0.71600002
0.006819048 -0.0061371434 0.71600002
0.0030753971 -0.0030776195 0.71800005
0.0067228582 -0.0030202724 0.71614295
-0.01711905 0.0047933338 0.71900004
-0.012325715 0.0047933338 0.71900004
-0.0082014296 0.0047833337 0.71750003
-0.002049905 0.0028689527 0.71760005
0.0013695239 0.00068476197 0.71900004
-0.021168573 0.0088771433 0.71700001
-0.017119048 0.0075323815 0.71899998
-0.012569143 0.0072396207 0.71720004
-0.032575108 0.013793062 0.71900004
-0.026966887 0.012666669 0.71753848
-0.022838838 0.011759472 0.71700001
-0.018032247 0.010819457 0.71642864
-0.040926289 0.018751429 0.71860003
-0.037614953 0.017779907 0.71810001
-0.032765955 0.01570024 0.71675003
-0.029321907 0.015683811 0.71600002
-0.046563815 0.022597145 0.71900004
-0.042584766 0.02244156 0.71799999
-0.038195718 0.022507779 0.71616673
-0.12722878 0.02862305 0.71900004
-0.12394191 0.029444763 0.71900004
-0.11572477 0.029444763 0.71900004
-0.11252325 0.028847812 0.71780008
-0.10772696 0.028811026 0.71785718
-0.10312826 0.028002329 0.71711111
-0.097512394 0.029321907 0.71600002
-0.046563812 0.025336193 0.71900004
-0.043101273 0.025312703 0.71833342
-0.038186669 0.025912384 0.71600002
-0.13489811 0.034922861 0.71900004
-0.1276291 0.033131946 0.71899998
-0.12240192 0.032820955 0.71800005
-0.11762227 0.032726601 0.71707702
-0.11230439 0.032476004 0.71640009
-0.10803138 0.032819584 0.71793747
-0.10251843 0.032866228 0.7179333
-0.097867429 0.032487817 0.71660006
0.062140003 0.034825716 0.71700001
-0.13489811 0.036292382 0.71900004
-0.12690923 0.036748894 0.71900004
-0.12211843 0.036840003 0.71633339
-0.11732 0.037515622 0.71620005
-0.11226731 0.037879795 0.71733332
-0.10805018 0.037131224 0.71755552
-0.1031708 0.036748894 0.71900004
-0.097236201 0.036634762 0.71900004
-0.093094535 0.037649285 0.71875
-0.08951667 0.038265239 0.71750003
0.058422048 0.03774558 0.71685725
0.062236298 0.037616618 0.71811116
0.065394767 0.038004287 0.71900004
-0.11556382 0.041029528 0.71800005
-0.11226119 0.041071668 0.71875
-0.10887715 0.04108572 0.71900004
-0.090904459 0.04169175 0.71766675
-0.088808969 0.041608196 0.71620005
0.053466037 0.043909848 0.7166667
0.056967385 0.041741908 0.71850002
0.062313341 0.04040096 0.71900004
0.065052383 0.040400956 0.71900004
-0.08581239 0.046206668 0.71700001
-0.081970006 0.047135476 0.71724999
-0.078004502 0.048523135 0.7175715
0.04977905 0.049097143 0.71600002
0.052605715 0.047823023 0.71733332
0.055465717 0.046563812 0.71900004
-0.071600005 0.051142864 0.71600002
-0.067347817 0.052595813 0.71720004
-0.064780958 0.05250667 0.71600002
0.049438097 0.052847624 0.71600002
0.052456312 0.052455358 0.71762502
-0.065052383 0.055465717 0.71900004
-0.062249433 0.057532381 0.71681821
-0.057374466 0.057376496 0.7171874
-0.052903336 0.057000004 0.71675003
-0.010328572 -0.0075742863 0.72300005
-0.0089514293 -0.0068857148 0.72300005
-0.016870001 -0.0010328572 0.72300005
-0.011953335 -0.0020655415 0.72281826
-0.0075725405 -0.0027539688 0.7228334
-0.0029125279 -0.0022766304 0.72261548
0.001714762 -0.0017147621 0.72050005
-0.026165716 0.0048200004 0.72300005
-0.022019524 0.0037842859 0.72250009
-0.018040588 0.0022738464 0.7221539
-0.012380003 0.0020625398 0.72216678
-0.0075648683 0.0020617992 0.72200012
-0.0036318372 0.0016677552 0.72142869
-0.035117146 0.0089514293 0.72300005
-0.032078478 0.0083980961 0.72280008
-0.027517941 0.0075663491 0.72233343
-0.022840241 0.0073833335 0.72125006
-0.019885715 0.0075428579 0.72000003
-0.041314289 0.014460001 0.72300005
-0.037150599 0.013071073 0.72237504
-0.032672115 0.011282178 0.72114295
-0.029028572 0.010742858 0.72000003
-0.047401752 0.017859366 0.72133344
-0.043222167 0.017400177 0.72036374
-0.039085716 0.01577143 0.72000003
-0.048685722 0.022628574 0.72000003
-0.14255214 0.027709179 0.72245467
-0.13761321 0.027775917 0.72142869
-0.1327347 0.028310206 0.72000003
-0.11725715 0.029485716 0.72000003
-0.048685718 0.02537143 0.72000003
-0.1424471 0.032343388 0.72255564
-0.13722572 0.0326396 0.72042876
-0.13240476 0.032929529 0.72033346
-0.12640002 0.031771433 0.72000003
-0.12 0.030857146 0.72000003
-0.10354286 0.032228574 0.72000003
-0.14221983 0.035657909 0.72280008
-0.13745785 0.037067384 0.72075009
-0.13218573 0.037390616 0.72128576
-0.12886383 0.038225718 0.72100008
-0.10697144 0.039085716 0.72000003
-0.10249397 0.038664766 0.72066677
-0.097704776 0.038513474 0.72028583
-0.14096192 0.042632386 0.72200006
-0.13752382 0.042219818 0.72200006
-0.13408573 0.042632386 0.72200006
-0.10673715 0.041349716 0.72120005
-0.10363747 0.040494606 0.72066677
-0.097142853 0.041371431 0.72000009
-0.093257152 0.041142859 0.72000003
0.058528982 0.04362667 0.72057158
0.062535033 0.04329503 0.72155565
0.065965138 0.043655436 0.72300005
-0.082285717 0.048685718 0.72000003
0.058140576 0.047557719 0.72160012
0.062463272 0.047117963 0.72300011
0.066791438 0.046134289 0.72300005
-0.078497142 0.051642861 0.72300005
-0.071931191 0.05334596 0.72275007
-0.067981914 0.054246671 0.72100008
0.054171432 0.054171432 0.72000003
0.056983814 0.052104514 0.72245467
-0.016662858 -0.010414287 0.72900003
-0.020814763 -0.006244286 0.72850001
-0.017331112 -0.0076269847 0.72788894
-0.012827726 -0.0072969324 0.72577775
-0.020782741 -0.0027734528 0.72737497
-0.017453097 -0.0036297622 0.72575003
-0.013399239 -0.0042822859 0.7252
-0.036173336 0.0040186672 0.72760004
-0.03249757 0.0034558736 0.72600007
-0.027658811 0.0027638895 0.72608328
-0.023175597 0.0022463098 0.72637498
-0.041495811 0.007910287 0.72860003
-0.037589002 0.0074915164 0.72718185
-0.03279762 0.0065595247 0.72500002
-0.051377147 0.014580001 0.72900003
-0.047342543 0.013162011 0.72744447
-0.042768341 0.01233278 0.72625005
-0.037985243 0.011050001 0.72516668
-0.061380722 0.018379286 0.72825003
-0.057555035 0.017334923 0.72811115
-0.052368678 0.016839579 0.72666669
-0.16732287 0.022911431 0.72900003
-0.16229646 0.022887859 0.72825003
-0.1573635 0.022875242 0.72788888
-0.15243918 0.023291642 0.72644448
-0.14776191 0.024166668 0.72500002
-0.066998571 0.023605715 0.72900003
-0.062175982 0.022004692 0.72723079
-0.057388574 0.020742858 0.72600001
-0.17079431 0.028465716 0.72900003
-0.16746558 0.027919048 0.72869235
-0.162514 0.027536703 0.72707695
-0.15750782 0.027794791 0.72599995
-0.15211432 0.027657138 0.72599989
-0.1470885 0.027622461 0.72508329
-0.067345724 0.025688574 0.72900003
-0.18259716 0.034020003 0.72900003
-0.17805544 0.033723623 0.72860003
-0.17010002 0.032631431 0.72900003
-0.16714478 0.032596827 0.72822231
-0.16248572 0.032497142 0.72599995
-0.15750144 0.032467458 0.72533333
-0.15230288 0.032497142 0.72599995
-0.14740907 0.032465812 0.72529995
-0.18251429 0.036086351 0.72866672
-0.1767454 0.036918256 0.72683328
-0.17426573 0.038880002 0.72900003
-0.16640002 0.035360001 0.72800004
-0.16223173 0.037066571 0.72609997
-0.15759084 0.037324645 0.72574991
-0.15233673 0.037393868 0.72706246
-0.14742756 0.037376907 0.72675002
-0.1425344 0.038454186 0.72533333
-0.13740477 0.039357144 0.72500002
-0.13326192 0.039357148 0.72500008
-0.16248572 0.040794291 0.72600001
-0.15797001 0.040878572 0.72750008
-0.15274286 0.04096286 0.72900003
-0.1471324 0.041195713 0.727
-0.14273161 0.041207783 0.72516668
-0.13602382 0.040738098 0.72500002
-0.13215715 0.041014291 0.72500002
-0.12842858 0.041428573 0.72500002
-0.086666673 0.049226671 0.72800004
-0.08492858 0.049023814 0.72500002
0.063523814 0.049023814 0.72500002
0.066146038 0.048170798 0.72600001
-0.020893097 -0.011143096 0.73125005
-0.018797144 -0.010442858 0.73100001
-0.02184635 -0.0076666675 0.73200005
-0.038447622 -0.00069904764 0.73400003
-0.026760956 -0.0016295239 0.73300004
-0.023695003 -0.002789286 0.73174995
-0.045862861 0.0039568259 0.73333335
-0.04233012 0.0036577382 0.73162502
-0.03820217 0.0022161906 0.73172736
-0.032808572 0.0006980953 0.73300004
-0.029240001 0.00069619052 0.73100001
-0.046558928 0.0078460714 0.73237503
-0.043511909 0.0073100002 0.73100001
-0.061940003 0.012972954 0.73240006
-0.057491913 0.012353403 0.73235732
-0.05300371 0.013076508 0.73122221
-0.047772195 0.010724191 0.73120004
-0.19084001 0.018175241 0.73400003
-0.1876605 0.018137304 0.73250002
-0.18258834 0.018118812 0.73175001
-0.17805144 0.018264381 0.73200005
-0.17498288 0.018822858 0.73200005
-0.067272864 0.018473335 0.73200005
-0.062992662 0.017016601 0.73142856
-0.19163892 0.022868847 0.73400009
-0.18744668 0.022298416 0.73166668
-0.18240191 0.022278097 0.73100001
-0.1775286 0.022278097 0.73100007
-0.17290527 0.022582792 0.73121428
-0.071060479 0.024383334 0.73150003
-0.067704529 0.021581907 0.73100001
-0.064745717 0.020189526 0.73100001
-0.19251774 0.027822096 0.73400003
-0.18748972 0.027879208 0.7318334
-0.18240191 0.027847622 0.73100001
-0.1775286 0.027847622 0.73100007
-0.17308529 0.027588425 0.73123074
-0.071060479 0.025776669 0.73150003
-0.19131593 0.032566532 0.73200005
-0.18730374 0.03272593 0.73111111
-0.18270029 0.031925309 0.73100007
-0.17752859 0.032024764 0.73100007
-0.17309685 0.032725435 0.73110002
-0.19032001 0.03555429 0.73200005
-0.18727526 0.035505719 0.73100007
-0.1723737 0.037398983 0.73107141
-0.16792117 0.038012009 0.73100001
-0.16499716 0.038986668 0.73100001
-0.17223753 0.041353717 0.73100001
-0.16093001 0.04319381 0.73150003
-0.15744667 0.043193813 0.73149997
-0.15295279 0.043084193 0.73200005
-0.14898476 0.04246762 0.73100001
-0.16008191 0.0454381 0.73400003
-0.15868382 0.0454381 0.73400003
-0.023898097 -0.010542858 0.73800004
-0.03589429 -0.0063342862 0.73900002
-0.032140639 -0.0063342862 0.73900002
-0.026937619 -0.0072620637 0.73783338
-0.023840716 -0.0084145246 0.73625004
-0.036077529 -0.0023887621 0.73700005
-0.032309767 -0.0028117858 0.73750013
-0.027836669 -0.003977302 0.73683345
-0.047697619 0.0049100006 0.73650002
-0.032944765 0.00070095243 0.73600006
-0.061521195 0.0080845244 0.73825008
-0.057760783 0.0078492649 0.73718184
-0.052737467 0.0084374612 0.7383334
-0.049501196 0.0073711909 0.73725003
-0.21043906 0.014780001 0.73900002
-0.20664001 0.014058096 0.73800004
-0.20415461 0.013829525 0.7383334
-0.19777051 0.014780002 0.73900002
-0.19495524 0.014780001 0.73900002
-0.062384766 0.010514286 0.73600006
-0.052571431 0.010514287 0.73600006
-0.21175115 0.017821271 0.73866671
-0.20752963 0.017885186 0.73811114
-0.20276113 0.017723203 0.73900002
-0.19741365 0.017562224 0.73766667
-0.19323757 0.017329797 0.73628581
-0.18995811 0.016121905 0.73600006
-0.065277144 0.01614381 0.73700005
-0.21226382 0.020382859 0.73800004
-0.20771588 0.021310795 0.73766667
-0.20225112 0.022472505 0.73737514
-0.19721311 0.022458335 0.73691678
-0.19360307 0.021729527 0.73600006
-0.20164144 0.026744764 0.73900002
-0.19735503 0.027391218 0.73744446
-0.19241145 0.026636193 0.73600006
-0.19653335 0.030181907 0.73700005
-0.19284986 0.030154606 0.73633337
-0.15171286 0.044250004 0.73750007
-0.10696857 0.043839529 0.73650002
-0.10285919 0.04336749 0.73614293
-0.027549526 -0.01059524 0.74166673
-0.03599143 -0.0084695239 0.74100006
-0.032546245 -0.0082355561 0.74111116
-0.028451432 -0.0087003186 0.74066675
-0.050038099 0.0049333335 0.74000001
-0.051447622 0.0063428576 0.74000001
-0.2093143 0.014800001 0.74000001
-0.20226669 0.014800001 0.74000001
-0.21283811 0.016209524 0.74000001
-0.2093143 0.016209524 0.74000001
-0.20226668 0.016209524 0.74000001
-0.20226669 0.027485717 0.74000001
-0.03121905 -0.010642858 0.74500006
-0.20267119 0.032560002 0.7476365
-0.19852656 0.033443812 0.74714297
-0.19724762 0.037604764 0.74500006
-0.20642859 0.029285718 0.75000012
-0.21213382 0.033683337 0.75250006
-0.20774832 0.032332145 0.75025004
-0.21224001 0.029598096 0.75800002
-0.23762001 0.023980001 0.76300001
-0.23616669 0.025433335 0.76300001
-0.24188572 0.024042858 0.76500005
-0.23605716 0.024042858 0.76500005
