# .PCD v0.7 - Point Cloud Data file format
VERSION 0.7
FIELDS x y z
SIZE 4 4 4
TYPE F F F
COUNT 1 1 1
WIDTH 755
HEIGHT 1
VIEWPOINT 0 0 0 1 0 0 0
POINTS 755
DATA ascii
-0.1581981 0.10928953 0.634
-0.16000953 0.11110096 0.634
-0.15683861 0.11137006 0.63272727
-0.15534669 0.099040017 0.63800007
-0.15357944 0.098859437 0.63840008
-0.15641896 0.10331545 0.63522232
-0.15236612 0.10248949 0.63642877
-0.14757511 0.10301579 0.63842857
-0.14283395 0.10313252 0.63887501
-0.16026191 0.10946191 0.63500005
-0.1571003 0.10741238 0.63514304
-0.15248953 0.10780135 0.6361177
-0.14788142 0.10683253 0.63760012
-0.14339811 0.10572572 0.63800001
-0.15324573 0.11084573 0.63600004
-0.14536001 0.093840003 0.64400005
-0.14045334 0.092613339 0.64400005
-0.13922668 0.092613339 0.64400005
-0.15120144 0.098159216 0.64016676
-0.14738575 0.097849526 0.64100003
-0.14252853 0.098124921 0.64261115
-0.13892001 0.096600011 0.64400005
-0.15055239 0.10057144 0.64000005
-0.14750476 0.10057144 0.64000005
-0.14265129 0.10129647 0.64128578
-0.1362343 0.087942861 0.648
-0.13248165 0.087498382 0.64700001
-0.12789859 0.087578729 0.64564288
-0.12468144 0.08835572 0.64649999
-0.14547525 0.091715872 0.6463334
-0.14257745 0.092270754 0.64528579
-0.13764769 0.092214674 0.64580011
-0.13276298 0.092196323 0.64537507
-0.12744002 0.092158101 0.6457895
-0.12404572 0.091954291 0.648
-0.14292382 0.095623821 0.64500004
-0.13711803 0.097457223 0.64607686
-0.13265871 0.096187979 0.64637494
-0.12843476 0.096172623 0.64525002
-0.14063548 0.10309406 0.64625001
-0.13761258 0.10172282 0.64679998
-0.15120001 0.11417144 0.648
-0.14873144 0.11417144 0.648
-0.15256384 0.11794502 0.64742851
-0.14847095 0.11762769 0.64769226
-0.13742858 0.084809527 0.65000004
-0.13274153 0.083748311 0.65000004
-0.14052382 0.08852382 0.65000004
-0.13857825 0.08728572 0.65000004
-0.13102096 0.085070483 0.65200001
-0.1264208 0.086837634 0.6528334
-0.12313715 0.08768858 0.65300012
-0.12293773 0.091114864 0.65260005
-0.13557144 0.098428577 0.65000004
-0.13400267 0.098798096 0.65080005
-0.1367612 0.10450929 0.65125006
-0.13474667 0.10431905 0.65200007
-0.14187446 0.10754547 0.6500001
-0.13767394 0.1070426 0.65036374
-0.13443667 0.10655762 0.65050006
-0.15352383 0.11452382 0.65000004
-0.14646497 0.1139164 0.6522001
-0.14210525 0.11101 0.65300006
-0.15414287 0.11638096 0.65000004
-0.11593334 0.069560006 0.65800005
-0.11468001 0.069560006 0.65800005
-0.1222 0.074573338 0.65800005
-0.11593334 0.070813335 0.65800005
-0.12629762 0.079405241 0.65649998
-0.12254756 0.077993855 0.65676934
-0.11861906 0.078333348 0.65800011
-0.13115026 0.083685957 0.65575004
-0.12736744 0.082413875 0.65556252
-0.12232482 0.082381383 0.65531248
-0.11773431 0.082617968 0.65686673
-0.11420413 0.083303809 0.65766668
-0.10152 0.084600009 0.65800005
-0.12725714 0.085461907 0.65500003
-0.12151811 0.086959057 0.65500009
-0.11767443 0.087578557 0.65653342
-0.11433144 0.089340955 0.65600002
-0.10152 0.085853338 0.65800005
-0.12101906 0.09170001 0.65500003
-0.11756287 0.091345936 0.6554445
-0.11433144 0.090590484 0.65600002
-0.12708573 0.10413017 0.65733337
-0.12275984 0.10331395 0.65672731
-0.1185103 0.10399373 0.65700001
-0.13599049 0.10916667 0.65500003
-0.12207683 0.10579938 0.65733337
-0.11969334 0.10590667 0.65800005
-0.11377144 0.069771431 0.66000003
-0.1204762 0.074380964 0.66000003
-0.11700357 0.073069602 0.6602667
-0.11305283 0.073056452 0.66181827
-0.12068573 0.076057151 0.66000003
-0.11649525 0.077733338 0.65999997
-0.11212979 0.077622361 0.66120017
-0.10860571 0.078297146 0.66300005
-0.10166001 0.078928575 0.66300005
-0.11544763 0.081923813 0.66000003
-0.11198414 0.08250846 0.66133344
-0.10715603 0.082212396 0.66252947
-0.1026836 0.081845067 0.66146165
-0.11534286 0.087371439 0.66000003
-0.11211667 0.087552033 0.66137505
-0.10781576 0.086699918 0.66272736
-0.10371429 0.086114295 0.66000003
-0.11096381 0.090158097 0.66200006
-0.12822857 0.10497144 0.66000003
-0.11022572 0.068811432 0.66900003
-0.11108106 0.07198143 0.66650003
-0.10759525 0.073321916 0.66850007
-0.10720478 0.076853119 0.66607696
-0.10289923 0.077186838 0.66581821
-0.10716233 0.068814605 0.67111111
-0.1027962 0.068743899 0.67345458
-0.09718439 0.069710866 0.67400002
-0.093932077 0.069539689 0.67400002
-0.1063381 0.071360193 0.67020005
-0.10217144 0.072796315 0.67050004
-0.097581409 0.072632529 0.67307687
-0.094360016 0.072535247 0.67400002
-0.1008562 0.076548897 0.67166674
-0.09745881 0.075980008 0.67325008
-0.094039053 0.077349529 0.67400002
-0.095643818 0.080880009 0.67400002
-0.094360009 0.080238104 0.67400002
-0.091180004 0.058846671 0.67900002
-0.089240007 0.058846671 0.67900002
-0.10153905 0.063891761 0.67766666
-0.097491115 0.062156521 0.67866671
-0.092684262 0.062319312 0.67740005
-0.088521644 0.06197134 0.67845458
-0.10177536 0.066186555 0.67637497
-0.097699426 0.06699641 0.67592323
-0.092484497 0.066927083 0.67571437
-0.089240007 0.065313339 0.67900002
-0.091873087 0.072224081 0.67545462
-0.088952951 0.072943054 0.6778
-0.097071432 0.078428581 0.67500007
-0.092387207 0.076524772 0.67522228
-0.097215243 0.081119999 0.67600006
-0.086433023 0.058127623 0.68066669
-0.0848381 0.056990482 0.68000001
-0.095847622 0.060228575 0.68000001
-0.08605472 0.062396724 0.68166667
-0.083829522 0.063035242 0.68233341
-0.090019062 0.068000004 0.68000001
-0.086972333 0.067733586 0.68253338
-0.083475932 0.067469396 0.68400007
-0.090019055 0.070590481 0.68000001
-0.087203279 0.071264222 0.68114293
-0.07245905 0.036561906 0.69800001
-0.070746355 0.033699371 0.70300001
-0.067430288 0.03391638 0.70380008
-0.076138422 0.039074287 0.70333338
-0.072014146 0.037633747 0.70200008
-0.067311868 0.03713356 0.70300007
-0.077401824 0.042013943 0.70227283
-0.07431715 0.042180002 0.70300001
-0.060685717 0.028994288 0.708
-0.058662862 0.028994288 0.708
-0.066471435 0.032900002 0.7050001
-0.061881341 0.032490861 0.70779997
-0.058662862 0.030342858 0.708
-0.065938577 0.039698575 0.70650005
-0.063674763 0.036722861 0.70749998
-0.072012708 0.04240191 0.70666677
-0.067782231 0.042075139 0.70622224
-0.072148576 0.045851432 0.70800006
-0.065960005 0.023800002 0.71400005
-0.062407054 0.023249334 0.71380007
-0.057926673 0.023196762 0.71220005
-0.065960005 0.025160002 0.71400005
-0.062360317 0.026820956 0.71300006
-0.057298422 0.027122226 0.71200007
-0.054284289 0.027821429 0.71250004
-0.067225724 0.031236192 0.71300006
-0.062327713 0.032423988 0.71063644
-0.057550047 0.032754898 0.71245462
-0.065590478 0.038542859 0.71000004
-0.061919652 0.038137842 0.71163636
-0.057772387 0.037382543 0.71366674
-0.065775245 0.043399051 0.71200001
-0.062274214 0.042543963 0.71253866
-0.057436194 0.041861691 0.71338481
-0.065867625 0.045496192 0.71300006
-0.062501907 0.045970481 0.71333337
-0.058398098 0.045496192 0.71300006
-0.062962547 0.022957463 0.71600002
-0.067169718 0.026949143 0.71820009
-0.064780958 0.027276192 0.71600002
-0.052305717 0.028816193 0.71700007
-0.049987622 0.029444763 0.71900004
-0.055272862 0.032754287 0.71650004
-0.052701592 0.032852702 0.71866667
-0.049987622 0.030814288 0.71900004
-0.055311434 0.037557147 0.71700001
-0.053336196 0.037609529 0.71800005
-0.055234291 0.041596193 0.71600002
-0.053465404 0.040724449 0.7166667
-0.028920002 0.022722859 0.72300005
-0.069257148 0.027428573 0.72000003
-0.050196193 0.028192382 0.72200006
-0.04842953 0.028690478 0.72300005
-0.050149843 0.033660956 0.72133338
-0.048888575 0.030985717 0.72300005
-0.05081239 0.037766673 0.72100008
-0.050918575 0.040597621 0.72250009
-0.048888575 0.040625717 0.72300005
-0.010414287 -0.010414287 0.72900003
-0.0083314292 -0.011802859 0.72900003
-0.011326826 -0.0071665086 0.72816676
-0.0084558101 -0.0079038106 0.72780007
-0.020134287 -0.0041657146 0.72900003
-0.017588573 -0.0039342861 0.72900003
-0.012965349 -0.0029323816 0.72823089
-0.0089761913 -0.0048333337 0.72500002
-0.014580001 0.0020828573 0.72900003
-0.04077556 0.017277779 0.7256667
-0.037484523 0.017792145 0.72549993
-0.033188574 0.018668573 0.72600001
-0.071000166 0.023357939 0.72850007
-0.068316907 0.022887383 0.72825003
-0.063642867 0.020597145 0.72900003
-0.042302858 0.022691434 0.72599995
-0.037368931 0.022145357 0.72662497
-0.032644417 0.022328747 0.72645456
-0.029000003 0.022785716 0.72500002
-0.076371431 0.02777143 0.72900003
-0.072566554 0.027189884 0.72737503
-0.069834292 0.025582859 0.72600001
-0.046732858 0.027855083 0.72516668
-0.042853221 0.027647737 0.72574997
-0.03743482 0.027730778 0.72793752
-0.032584049 0.027731355 0.72791672
-0.02901 0.027628336 0.72524995
-0.047224447 0.032789737 0.72566658
-0.042722255 0.032405023 0.72672731
-0.037564158 0.032404676 0.72672725
-0.033302382 0.031221431 0.72850001
-0.047525011 0.036914684 0.72675008
-0.042351436 0.035408579 0.72900003
-0.038173094 0.035743572 0.72875005
-0.051785719 0.042119049 0.72500008
-0.048212703 0.041754924 0.72666669
-0.0083542857 -0.01462 0.73100001
-0.022278097 -0.0041771429 0.73100001
-0.01684781 -0.0018100955 0.73100001
-0.01047143 -0.0020961908 0.73300004
-0.0090669841 -0.002094286 0.73233336
-0.0454381 0.0048933337 0.73400003
-0.042565715 0.0048844451 0.73266673
-0.039737146 0.0048800004 0.73200005
-0.016612247 0.0024873475 0.73114288
-0.012724416 0.0022160171 0.73118186
-0.0090752384 0.001397143 0.73300004
-0.047274712 0.007218414 0.73355561
-0.042700004 0.0074942862 0.73199999
-0.039737146 0.0069714291 0.73200005
-0.016034286 0.0062742862 0.73200005
-0.071302861 0.014680001 0.73400003
-0.061817337 0.014092763 0.73260003
-0.057836197 0.013936191 0.73166674
-0.076593019 0.018392384 0.73333335
-0.072295062 0.017550653 0.7318182
-0.067592062 0.017420003 0.73166662
-0.063092582 0.017270098 0.73119998
-0.058480002 0.016012382 0.73100001
-0.080949716 0.023348192 0.73400003
-0.077348419 0.022297462 0.73166668
-0.073120192 0.021587431 0.73119998
-0.067252003 0.020746479 0.73100001
-0.063353337 0.020885717 0.73100001
-0.081397846 0.027597006 0.7322858
-0.077941723 0.026630858 0.73200005
-0.074492387 0.025759049 0.73100001
-0.046010956 0.039040953 0.73199999
-0.042874292 0.037297145 0.73200005
-0.039737146 0.036948573 0.73200005
-0.055074289 0.043920003 0.73200005
-0.052238733 0.043880008 0.73133337
0.0021114289 -0.020410478 0.73900002
0.006897334 -0.02209962 0.73900002
0.0011730159 -0.018533653 0.73900002
-0.0070190481 -0.0063171433 0.73700005
-0.0023398416 -0.0067893653 0.73750007
0.0014076191 -0.0077419053 0.73900002
-0.041524764 -0.00070380955 0.73900002
-0.037020382 -0.0021114287 0.73900002
-0.0071148304 -0.003106395 0.73657149
-0.0035120242 -0.0038648811 0.73787498
-0.062357534 0.0043636193 0.73900002
-0.057492036 0.0036445889 0.73863637
-0.054193337 0.003519048 0.73900002
-0.047706496 0.0029991344 0.73763639
-0.043283954 0.0019062586 0.73814291
-0.038005717 0.00070380955 0.73900002
-0.011576906 0.0045607146 0.73675001
-0.0091247624 0.003509524 0.73700005
-0.067565724 0.0086803185 0.73900002
-0.062460747 0.0077189421 0.73688889
-0.057510719 0.0077145249 0.73641676
-0.053556956 0.0074491436 0.73800009
-0.014310795 0.006803493 0.73900002
-0.077075243 0.013641908 0.73839998
-0.072394297 0.013119048 0.73800009
-0.067417979 0.012638693 0.73737514
-0.062609792 0.011520001 0.73628581
-0.057286669 0.011457673 0.73655558
-0.054046672 0.011230476 0.73700005
-0.0028152382 0.011964763 0.73900002
-0.085864767 0.017595239 0.73900002
-0.082059771 0.017747382 0.73799998
-0.077821098 0.016926123 0.73614293
-0.087104365 0.022001227 0.73842865
-0.082972623 0.021926191 0.73675001
-0.082769051 0.025952859 0.73650002
-0.041410483 0.038604766 0.73700011
0.0049333335 -0.020438097 0.74000001
0.0084800003 -0.020493334 0.74200004
0.010600001 -0.020493334 0.74200004
0.0033674077 -0.017310688 0.74022222
0.0077709001 -0.017658731 0.74166667
0.011460572 -0.018252192 0.74280006
-0.00070666673 -0.010600001 0.74200004
0.0029687618 -0.012671875 0.74199998
0.0071748309 -0.013439321 0.74271435
-0.047115054 -0.0069329529 0.74280006
-0.042449646 -0.0070751202 0.74287504
-0.037495084 -0.0070747621 0.74283338
-0.033965718 -0.0070761913 0.74300003
-0.00070666673 -0.0091866674 0.74200004
0.0029708573 -0.0083422875 0.74220008
-0.061562862 -0.00070761907 0.74300003
-0.057317149 -0.00070761907 0.74300003
-0.051862936 -0.0023581751 0.74258339
-0.047363415 -0.0028286506 0.74225008
-0.042443246 -0.0029686987 0.74193335
-0.037872702 -0.0037653972 0.74100006
-0.033965718 -0.0049533336 0.74300003
-0.0063428576 -0.00070476194 0.74000001
-0.002351905 -0.0021201589 0.74150008
0.00070619048 -0.0042357147 0.74150002
-0.085621908 0.00070761907 0.74300003
-0.082634188 0.0029091008 0.74300003
-0.078537077 0.002829921 0.74291676
-0.07146953 0.0035380956 0.74300003
-0.067655325 0.0036610393 0.742091
-0.062441364 0.0017137417 0.74142867
-0.057906196 0.0010585715 0.74150008
-0.05216461 0.0025842858 0.74016666
-0.047219049 0.0014095239 0.74000001
-0.04017143 0.00070476194 0.74000001
-0.0073004235 0.0030612699 0.74188888
-0.003818667 0.0028293335 0.74260008
-0.082083814 0.0077838106 0.74300003
-0.077755071 0.0077815591 0.74281824
-0.072598696 0.0079477383 0.74187505
-0.067687303 0.006815556 0.74033344
-0.051447622 0.0063428576 0.74000001
-0.011840477 0.0079526203 0.74225003
-0.0076069059 0.0077838106 0.74300003
-0.0045995242 0.0074300002 0.74300003
-0.086164951 0.013723812 0.74280006
-0.082615964 0.012708018 0.74141669
-0.07806477 0.011050794 0.74066675
-0.072992861 0.010930954 0.74050003
-0.01132012 0.012734644 0.74287504
-0.0079859877 0.012433878 0.74300009
-0.0049533336 0.011321906 0.74300003
-0.091282859 0.017690478 0.74300003
-0.087654822 0.017812911 0.74155551
-0.083866671 0.016209524 0.74000001
-0.010600001 0.016253334 0.74200004
-0.087865397 0.020493336 0.74200004
0.012771429 -0.017028574 0.74500006
-0.061264768 -0.010685715 0.74800003
-0.057327859 -0.011038334 0.74775004
-0.052929528 -0.011155875 0.74766678
-0.047729529 -0.010685715 0.74800003
-0.04271429 -0.010678573 0.74750006
-0.037471239 -0.011255621 0.74800009
-0.033481911 -0.011160636 0.74800003
-0.029207621 -0.010685715 0.74800003
0.0086561916 -0.011778096 0.74500006
0.011778096 -0.01248762 0.745
-0.076224767 -0.006411429 0.74800003
-0.07266286 -0.006411429 0.74800003
-0.068626039 -0.0068863495 0.74800003
-0.062293757 -0.0075195772 0.74800009
-0.057609845 -0.0078240214 0.74677783
-0.052565239 -0.0078138094 0.74583334
-0.047925718 -0.0088752396 0.74550009
-0.042571433 -0.0092238104 0.74500006
-0.037604764 -0.0092238104 0.74500006
-0.032572191 -0.0089611439 0.74680007
-0.029207621 -0.0092609534 0.74800003
0.0032668572 -0.0072455243 0.74580008
0.0074140145 -0.0080213612 0.74642867
0.012105716 -0.0092568267 0.74766672
-0.086768009 -0.0024220953 0.74800009
-0.083259054 -0.0015664764 0.74720007
-0.07673277 -0.0024211432 0.74739999
-0.072578214 -0.0028482147 0.74712509
-0.067707017 -0.0026536798 0.74690926
-0.062743373 -0.0033391211 0.74669242
-0.057558205 -0.0035541803 0.74611115
-0.053960476 -0.0042604762 0.74550009
-0.0014200001 -0.00071047625 0.74600005
0.0023730162 -0.0035590478 0.74733341
0.006411429 -0.0049866671 0.74800003
-0.090472385 0.0030869842 0.74800003
-0.087551259 0.0030364504 0.7462728
-0.083487317 0.0026015877 0.74500006
-0.075970009 0.0028404763 0.74550003
-0.073100962 0.0022714285 0.74520004
-0.067404769 0.00070952385 0.74500006
-0.064566672 0.00070952385 0.74500006
-0.0011828573 0.002838413 0.74533343
0.0013216329 0.0031485718 0.7465716
-0.090472385 0.007836191 0.74800003
-0.087402858 0.0078159794 0.74611121
-0.08443334 0.0078047626 0.74500006
-0.078757145 0.0078047626 0.74500006
-0.074500002 0.0063857147 0.74500006
-0.0092238104 0.0078047626 0.74500006
-0.0019530954 0.0079935724 0.74600005
0.0011869842 0.0073571438 0.74766672
-0.091416962 0.012794097 0.74640006
-0.087913617 0.012065988 0.74528581
-0.007815239 0.012080002 0.74600005
-0.0021285717 0.010642859 0.74500006
0.00070952385 0.010642858 0.74500006
-0.090819053 0.01631905 0.74500006
-0.018521905 0.020659048 0.74800003
-0.0078885723 -0.025100002 0.75300002
-0.06239143 -0.020797145 0.75300002
-0.058088578 -0.020797145 0.75300002
-0.036287434 -0.021370858 0.75300002
-0.032558288 -0.021370862 0.75300002
-0.066365935 -0.016651431 0.75288898
-0.062468387 -0.01762343 0.75220001
-0.057159055 -0.01769414 0.7523846
-0.053785719 -0.015777145 0.75300002
-0.045180004 -0.015060001 0.75300002
-0.042098779 -0.016081635 0.75285727
-0.037258416 -0.01755508 0.75233334
-0.032219477 -0.017899895 0.75177777
-0.028414449 -0.017192859 0.75216675
-0.075992152 -0.011470716 0.75275004
-0.072335243 -0.011459049 0.75200003
-0.067037843 -0.01203039 0.75100011
-0.062161691 -0.01309926 0.75022227
-0.057698421 -0.013730158 0.75000006
-0.052239813 -0.013025335 0.75140005
-0.047576327 -0.012994288 0.75200003
-0.04259919 -0.012770614 0.75085717
-0.037142862 -0.013928573 0.75000006
-0.03227273 -0.013051949 0.75000012
-0.027492473 -0.013064416 0.75072736
-0.086234294 -0.0055782865 0.75080007
-0.082342707 -0.0057287305 0.75183338
-0.077618718 -0.0074829441 0.75145453
-0.072142869 -0.0085714292 0.75000012
-0.066964291 -0.0080357147 0.75000006
-0.063571431 -0.0085714292 0.75000006
0.0085899998 -0.0050100004 0.75150001
-0.082377695 -0.0025523813 0.7502858
-0.078470871 -0.0024304762 0.75040007
0.0030047621 -0.0018588573 0.75100005
0.0058735246 -0.002720762 0.75200003
-0.095815882 0.0016730161 0.75266671
-0.092566833 0.0019090477 0.75150007
0.0032178573 0.0017864286 0.75075001
0.005020001 0.0021514287 0.75300002
-0.095348343 0.0071683335 0.75275004
-0.093090132 0.0071594049 0.75187504
0.0035857146 0.0057371436 0.75300002
-0.093820959 0.010742858 0.75200003
-0.025800478 0.01935 0.75250006
-0.022918098 0.019337144 0.75200003
-0.0082440479 0.016130239 0.75275004
-0.026319867 0.022633063 0.75271434
-0.022518286 0.021944573 0.75300002
-0.017193811 0.022925954 0.75224996
-0.026534287 0.025100004 0.75300002
-0.021061525 0.027651621 0.75220007
-0.017690992 0.027060665 0.75230771
-0.010828572 -0.031041907 0.75800002
-0.0079409527 -0.031041909 0.75800008
-0.076275378 -0.027072111 0.75657147
-0.073201194 -0.026685478 0.75724995
-0.067680009 -0.025200002 0.75600004
-0.062640004 -0.025200002 0.75600004
-0.057650801 -0.025703495 0.75666666
-0.054142863 -0.025266668 0.75800002
-0.042111114 -0.027191747 0.75800002
-0.037496787 -0.027402025 0.75712514
-0.03279262 -0.026667859 0.75674999
-0.027404524 -0.025963575 0.75725001
-0.022004288 -0.025610955 0.75750005
-0.01730651 -0.026682384 0.75716674
-0.012113854 -0.027175328 0.75627279
-0.0073017692 -0.027361363 0.75600016
-0.0025235715 -0.026685003 0.75725001
0.0036095241 -0.027432382 0.75800002
0.0050533335 -0.027432382 0.75800002
-0.086160004 -0.021840002 0.75600004
-0.08262001 -0.022140002 0.75600004
-0.077776998 -0.02232524 0.75616682
-0.072719999 -0.022320002 0.75600004
-0.067643262 -0.022308178 0.75558347
-0.062584773 -0.023020003 0.75533342
-0.057317786 -0.022783602 0.75544453
-0.05262053 -0.022346668 0.75688887
-0.047645718 -0.021657143 0.75799996
-0.042342145 -0.022163097 0.75674999
-0.038146131 -0.022929257 0.75571436
-0.032018572 -0.023384763 0.75550008
-0.027347304 -0.02231048 0.75566673
-0.022333547 -0.02233397 0.75644445
-0.017267065 -0.022303101 0.75541675
-0.012228996 -0.02230032 0.75533342
-0.0077497354 -0.022610057 0.75500005
-0.00288 -0.023760002 0.75600004
-0.085906669 -0.018769525 0.75800002
-0.0823543 -0.017594287 0.75719994
-0.077616006 -0.017424002 0.75600016
-0.072672218 -0.017269369 0.75550002
-0.068952255 -0.017983267 0.75528586
-0.052230101 -0.017554289 0.75540012
-0.047659498 -0.017423812 0.75593346
-0.042745143 -0.018854478 0.75560009
-0.039547622 -0.019414287 0.75500005
-0.026069645 -0.017799644 0.75512505
-0.022302782 -0.017267384 0.75541675
-0.017986096 -0.017985715 0.75540012
-0.013661906 -0.019414287 0.75500005
-0.082466044 -0.011780953 0.7573334
-0.078414887 -0.012590121 0.75537509
-0.072623812 -0.013661906 0.75500005
-0.069747627 -0.013661906 0.75500005
-0.023009526 -0.013661906 0.75500005
-0.08573667 -0.0086471438 0.75650001
-0.082745567 -0.0086344462 0.75550008
-0.079814292 -0.0093476195 0.75500005
0.0093476195 -0.0071904766 0.75500005
0.011840953 -0.0064853071 0.7567144
0.017758859 -0.0070746667 0.75800002
0.0081182318 -0.001746531 0.75528586
0.011841906 -0.0023670751 0.75685716
-0.095633343 0.0035952383 0.75500005
-0.094195247 0.0035952383 0.75500005
0.007914816 0.0021582013 0.75544453
0.012091906 0.0023461906 0.75799996
0.015160001 0.0028876192 0.75800002
0.0024462861 0.0084897159 0.75540012
0.0072014886 0.0072025601 0.75606257
0.01153016 0.0069682542 0.75666666
0.00288 0.0108 0.75600004
0.0050400002 0.0108 0.75600004
0.012272382 0.010828572 0.75800002
-0.031680003 0.019440001 0.75600004
-0.0093476195 0.019414287 0.75500005
-0.0021657145 0.01804762 0.75800002
-0.031680003 0.020880001 0.75600004
-0.028068256 0.020870795 0.75566673
-0.023009526 0.023728574 0.75500005
-0.01152 0.023760002 0.75600004
-0.0093476195 0.020852383 0.75500005
-0.022769844 0.025646035 0.75500005
-0.045780003 -0.035606667 0.76300001
-0.042636432 -0.036830716 0.76200008
-0.038068708 -0.036202863 0.76242864
-0.034153335 -0.035606667 0.76300001
-0.017440002 -0.035606667 0.76300001
-0.012343811 -0.035575558 0.76233339
-0.0072539691 -0.036028892 0.76166677
-0.0021768254 -0.035575558 0.76233339
0.0014533334 -0.035606667 0.76300001
-0.066126674 -0.03124667 0.76300001
-0.062493332 -0.03124667 0.76300001
-0.058860004 -0.03124667 0.76300001
-0.046143338 -0.032700002 0.76300001
-0.042755347 -0.032610163 0.76088899
-0.037675165 -0.032603577 0.76075006
-0.032651961 -0.03265281 0.76188892
-0.028294047 -0.032285001 0.7617501
-0.022323811 -0.032487147 0.76225007
-0.017415956 -0.032655004 0.76191664
-0.012494048 -0.032774527 0.76050013
-0.007000424 -0.033073653 0.76044452
-0.0021734394 -0.03260519 0.76077789
0.0021739686 -0.032609738 0.76088899
0.0065157679 -0.032581169 0.76022232
-0.071543545 -0.028680956 0.7610001
-0.067432381 -0.028280003 0.76133341
-0.062321991 -0.028263889 0.76091671
-0.057281911 -0.028521273 0.76133341
-0.052040003 -0.026978185 0.76181829
-0.047056895 -0.027389871 0.76227278
-0.043196987 -0.027752545 0.76016676
-0.031868573 -0.028971907 0.76050001
-0.027517978 -0.028967027 0.76037508
-0.022630597 -0.028423928 0.76037508
-0.017371429 -0.029676192 0.76000005
-0.013752382 -0.029676192 0.76000005
-0.0050666672 -0.029676192 0.76000005
-0.0014476191 -0.028952383 0.76000005
0.0016893124 -0.027754495 0.76022232
0.006031747 -0.029193653 0.76000011
-0.047786433 -0.023893574 0.76025009
-0.044152383 -0.023885716 0.76000005
-0.084203184 -0.015682541 0.76000011
-0.086133339 -0.010857143 0.76000005
-0.084203184 -0.013269842 0.76000011
0.013752382 -0.0065142866 0.76000005
0.016651908 -0.0057915878 0.76016676
0.021018097 -0.0050733336 0.76100004
0.013761429 -0.0014480953 0.76050007
0.017393891 -0.0021734131 0.76091671
0.013770477 0.00072476198 0.76100004
0.017407143 0.00072523818 0.7615
0.011580953 0.0079619056 0.76000005
-0.0050733336 0.013770477 0.76100004
-0.00181 0.013399049 0.76050007
0.0021742859 0.013045715 0.7610001
0.0074503906 0.012461646 0.76145458
0.010878572 0.011605239 0.7615
-0.0063878098 0.017858097 0.76220006
-0.0021737665 0.017324591 0.76081824
0.0021784129 0.017425716 0.76233339
0.0050866669 0.015260001 0.76300001
-0.047289051 -0.041682702 0.76783341
-0.04229502 -0.041846819 0.76669234
-0.037391342 -0.042175245 0.76709098
-0.03406667 -0.041962672 0.76760006
-0.029988574 -0.040228575 0.76800001
-0.02121143 -0.040228575 0.76800001
-0.017473018 -0.041366354 0.76800007
-0.012434287 -0.040960006 0.76800007
-0.0076262592 -0.040848035 0.76785725
-0.0021942859 -0.040228575 0.76800001
0.00073142862 -0.040228575 0.76800001
-0.059245717 -0.035840001 0.76800001
-0.051432859 -0.036807463 0.76783335
-0.04760262 -0.037389051 0.76600009
-0.042257145 -0.038614288 0.76500005
-0.036816191 -0.038275242 0.76550001
-0.032678336 -0.037426189 0.7667501
-0.027712937 -0.037195005 0.76575005
-0.022618311 -0.037212808 0.7661112
-0.017530715 -0.037985243 0.76700002
-0.012401907 -0.037936196 0.76600003
-0.0072949207 -0.038179051 0.76600003
-0.0021912702 -0.037993815 0.76716673
0.0024006804 -0.037686944 0.76728576
0.0063903579 -0.037250359 0.76687497
-0.071469292 -0.032089289 0.76575005
-0.067846537 -0.032829117 0.76600003
-0.062676907 -0.033525482 0.76524997
-0.057486434 -0.033033576 0.7665
-0.052577224 -0.032861989 0.76675004
-0.048231434 -0.032785721 0.76500005
-0.026228573 -0.033514287 0.76500005
-0.024042858 -0.034242861 0.76500005
-0.056100003 -0.02987143 0.76500005
-0.052457146 -0.02987143 0.76500005
-0.048814289 -0.02987143 0.76500005
0.023375239 -0.0058438098 0.76700002
0.022651533 -0.0021916402 0.76722234
0.025566671 -0.0021914288 0.76700008
0.018261906 0.0029219049 0.76700008
0.022650901 0.0021922751 0.76722229
0.025566671 0.0021914288 0.76700008
0.019017145 0.005851429 0.76800001
0.022308573 0.0054857149 0.76800001
0.010971429 0.013897143 0.76800001
-0.030183811 -0.059631433 0.77300006
-0.028711431 -0.059631433 0.77300006
-0.039018098 -0.050797146 0.77300006
-0.04708524 -0.046350002 0.77250004
-0.042644441 -0.047791746 0.77200001
-0.037459157 -0.047743816 0.77122223
-0.032565374 -0.047680005 0.77236366
-0.022085715 -0.046380002 0.77300006
-0.017211717 -0.047662955 0.77229995
-0.012506457 -0.047818627 0.77244455
-0.0075569702 -0.047685284 0.77245462
0.0022085716 -0.046380006 0.77300012
0.0051533338 -0.046380002 0.77300006
-0.058139764 -0.04084548 0.77275002
-0.052011069 -0.041717261 0.77187496
-0.047715433 -0.043019813 0.77080005
-0.042777777 -0.044733338 0.7700001
-0.035933334 -0.044733338 0.77000004
-0.031590667 -0.043052759 0.77139997
-0.027340287 -0.042188287 0.77170008
-0.022905109 -0.042805891 0.77127278
-0.017704764 -0.043895248 0.7700001
-0.012466668 -0.044000007 0.7700001
-0.0070988364 -0.043819685 0.77111107
-0.0022042859 -0.043059338 0.77150005
0.0023371431 -0.042806238 0.77127278
0.006471429 -0.042369958 0.77063638
-0.06156477 -0.037175812 0.77140003
-0.057100527 -0.037601124 0.77136362
-0.053159051 -0.038461909 0.77166671
0.0080666672 -0.037400004 0.77000004
-0.026461272 -0.060588896 0.77900004
-0.023889337 -0.061281335 0.77900004
-0.018547621 -0.060094289 0.77900004
-0.0056879371 -0.060588896 0.77900004
0.0019289525 -0.060687818 0.77900004
-0.037024286 -0.056275718 0.77750003
-0.032504767 -0.056881279 0.77566683
-0.027387412 -0.056995876 0.77722222
-0.022535432 -0.056785535 0.77840006
-0.017269528 -0.056682322 0.77871436
-0.012612382 -0.056236386 0.77900004
-0.0074084131 -0.05704239 0.7778334
-0.0022219047 -0.05703016 0.77766675
0.0020350001 -0.056980006 0.77700001
-0.041333336 -0.050928574 0.77500004
-0.037555955 -0.052726902 0.77700001
-0.032503817 -0.052450798 0.77566683
-0.02739482 -0.052570477 0.77744442
-0.02267867 -0.052770671 0.77820009
-0.017550565 -0.052381556 0.77663642
-0.012566032 -0.052481163 0.77611113
-0.0073873019 -0.052451111 0.77566683
-0.0022200004 -0.052539997 0.77700001
0.0022200004 -0.052539997 0.77700001
-0.030261906 -0.049452383 0.77500004
-0.027219484 -0.047518533 0.77627277
-0.023117146 -0.048452657 0.77585721
-0.019928573 -0.048714288 0.77500004
-0.005166667 -0.049452383 0.77500004
-0.002214286 -0.047976192 0.77500004
0.002214286 -0.048714288 0.77500004
0.00605581 -0.048296195 0.7754001
-0.055849209 -0.041579369 0.77500004
-0.017828573 -0.066114292 0.78000003
-0.021166261 -0.062007625 0.78171432
-0.01695827 -0.062632039 0.78036374
-0.012641747 -0.062468104 0.78083342
-0.0080657154 -0.062782548 0.78166676
-0.0022342857 -0.062535882 0.78166676
0.0014857143 -0.063142858 0.78000003
-0.020800002 -0.05868572 0.78000003
-0.01634286 -0.05868572 0.78000003
-0.012628572 -0.05831429 0.78000003
-0.0052400003 -0.065125719 0.78600001
