# .PCD v0.7 - Point Cloud Data file format
VERSION 0.7
FIELDS x y z
SIZE 4 4 4
TYPE F F F
COUNT 1 1 1
WIDTH 625
HEIGHT 1
VIEWPOINT 0 0 0 1 0 0 0
POINTS 625
DATA ascii
-0.058599621 0.024003049 0.70400006
-0.05919715 0.026582543 0.70366669
-0.065036193 0.031512383 0.70400006
-0.061273336 0.024913335 0.70700002
-0.065313339 0.028953334 0.70700002
-0.062591329 0.027594287 0.70666665
-0.059294768 0.028299525 0.70749998
-0.067229897 0.032604106 0.70753849
-0.062504768 0.032018531 0.70709085
-0.05992667 0.030973336 0.70700002
-0.071654283 0.037642669 0.7058
-0.067850411 0.037579492 0.70753855
-0.02099143 -0.00067714287 0.71100003
-0.019158732 -0.0011269844 0.71000004
-0.021050477 0.00067904766 0.71300006
-0.018974762 0.00067761913 0.71150005
-0.02139 0.0078090476 0.71300006
-0.019692382 0.0074695246 0.71300006
-0.045560002 0.013600001 0.71400005
-0.041888002 0.013192001 0.71400017
-0.038216006 0.013192 0.71400005
-0.02169905 0.01220762 0.71200001
-0.018295133 0.011670372 0.71144444
-0.046574768 0.01765286 0.71290004
-0.04238667 0.016697781 0.71400011
-0.038760003 0.017680001 0.71400005
-0.046854287 0.021050477 0.71300006
-0.05675213 0.02754641 0.71172732
-0.054071113 0.027829841 0.71266669
-0.061561592 0.034501906 0.71033335
-0.057483304 0.032736927 0.71269238
-0.065744452 0.038632069 0.7116667
-0.062471583 0.037348256 0.71300018
-0.057970617 0.037191026 0.71371442
-0.06667874 0.043170802 0.71200007
-0.063067995 0.041456766 0.7136001
-0.058480002 0.040120002 0.71400005
-0.066766284 0.045910288 0.71100003
-0.064509526 0.046175241 0.71300006
-0.015705716 -0.0061457148 0.71700001
-0.012306668 -0.0061542862 0.71800005
-0.016777048 -0.002728286 0.71610004
-0.012288216 -0.0027322618 0.71687496
-0.0086180959 -0.0026005718 0.71820009
-0.02120794 0.0034193655 0.71833342
-0.017787304 0.0027365079 0.71833336
-0.012314286 0.0020536508 0.71833336
-0.0089019053 0.0013695239 0.71900004
-0.042027079 0.019015104 0.71671432
-0.037959367 0.016138414 0.71600002
-0.045751434 0.022536192 0.71700001
-0.042581476 0.022442425 0.71800005
-0.039031431 0.021912381 0.71900004
-0.051717147 0.028934924 0.71766675
-0.047540244 0.027532859 0.71825004
-0.042748712 0.026118778 0.71900004
-0.055234294 0.032049526 0.71600002
-0.052609444 0.032796431 0.7174167
-0.049987622 0.030814288 0.71900004
-0.056083437 0.037798859 0.71640009
-0.053311747 0.037592702 0.71766675
-0.061826035 0.043414608 0.71600002
-0.057324402 0.042509157 0.71723074
-0.052707858 0.042098809 0.71875
-0.062408458 0.047021549 0.71812499
-0.058478672 0.046426859 0.71900004
-0.0078497147 -0.0067480006 0.72300005
-0.0026165717 -0.0067480006 0.72300005
0.0012394286 -0.0078497147 0.72300005
-0.0067776875 -0.002851157 0.72200006
-0.0034428574 -0.0044757146 0.72300005
0.00068857148 -0.0048200004 0.72300005
-0.016457144 0.0048000002 0.72000003
-0.012350001 0.0048033334 0.72050005
-0.0073927389 0.002579405 0.72212505
-0.0048133335 0.0013752382 0.72200006
-0.016755242 0.0071152388 0.72300005
-0.013255 0.0074021434 0.72300005
-0.0075742863 0.010328572 0.72300005
-0.040457144 0.024000002 0.72000003
-0.038400002 0.024000002 0.72000003
-0.047314294 0.029485716 0.72000003
-0.042285718 0.028419048 0.72000009
-0.037405927 0.027492588 0.72164291
-0.05005715 0.033600003 0.72000003
-0.047462173 0.032743208 0.7203638
-0.042666592 0.032344364 0.72258347
-0.039248575 0.031674288 0.72300005
-0.050812386 0.037766669 0.72100008
-0.047467619 0.03737852 0.72233343
-0.042966861 0.036218863 0.72300005
-0.037871432 0.036494289 0.72300005
-0.05554286 0.044571433 0.72000003
-0.051932074 0.042552389 0.72066677
-0.048166193 0.040597621 0.72250009
-0.05554286 0.045942862 0.72000003
-0.054171432 0.045942862 0.72000003
0.013885716 -0.015968572 0.72900003
0.017061144 -0.016505716 0.72820008
0.013951157 -0.012766125 0.72728574
0.017306829 -0.012459526 0.72683334
0.020134287 -0.012497144 0.72900003
-0.00069047621 -0.0062142862 0.72500002
0.00391381 -0.0071369852 0.72516668
0.0072202729 -0.0074200006 0.72700012
0.011516572 -0.0067988574 0.72840005
0.017070288 -0.0084653338 0.72860003
0.020134287 -0.0083314292 0.72900003
-0.0025345243 -0.0021886514 0.72624993
0.0029104128 -0.002630413 0.7275334
0.0075080525 -0.0029646759 0.72872734
-0.0069047622 0.0048333337 0.72500002
-0.00265381 0.00265381 0.72766674
0.0026035716 0.0015621429 0.72900003
0.0062485719 0.00069428579 0.72900003
-0.018182542 0.0085158739 0.72500008
-0.010702381 0.0079404768 0.72500002
-0.0076004234 0.0076008472 0.72555554
-0.0029564507 0.0074890922 0.72700006
-0.016862541 0.013172382 0.72766674
-0.012102125 0.012102859 0.72769243
-0.0076184422 0.012657751 0.72718185
-0.0043855561 0.012930319 0.72716665
-0.016662858 0.015968572 0.72900003
-0.014580001 0.015968572 0.72900003
-0.0069428575 0.017357145 0.72900003
-0.0043971431 0.018282859 0.72900003
-0.071413338 0.023573335 0.72800004
-0.068199746 0.021850133 0.72736371
-0.018398572 0.023258572 0.72900003
-0.0034714288 0.020134287 0.72900003
-0.035408575 0.029854288 0.72900003
-0.018051431 0.025688574 0.72900003
-0.036939815 0.032653335 0.72640002
-0.032881524 0.033437338 0.72840005
-0.046261907 0.039357144 0.72500002
-0.042349212 0.038896829 0.72500002
-0.037635416 0.03675697 0.72572726
-0.032933336 0.035706669 0.72800004
-0.029813336 0.036053337 0.72800004
-0.047642861 0.042119052 0.72500002
-0.043105446 0.041329939 0.72500002
0.018333018 -0.018333018 0.73100007
0.021049717 -0.016865334 0.73180002
0.027262859 -0.016078096 0.73400003
0.022722095 -0.012545143 0.73180002
0.026952172 -0.01312656 0.73400009
0.030408572 -0.012932382 0.73400003
0.014063048 -0.0079365717 0.73100001
0.017758811 -0.0066159531 0.73124999
0.021979731 -0.0074591842 0.73100007
0.012538573 -0.0027851192 0.73137498
0.017126668 -0.0045438097 0.73400003
0.012811111 0.0019414814 0.73366672
-0.066409528 0.014680001 0.73400009
-0.061813459 0.013094644 0.73337501
-0.05720048 0.013251905 0.73250002
-0.053826671 0.01188381 0.73400009
-0.013942858 0.014640001 0.73200005
-0.070603818 0.018874288 0.73400003
-0.067263812 0.017636601 0.73242861
-0.063244291 0.016899765 0.73175001
-0.059176195 0.016012382 0.73100001
-0.017606806 0.01780626 0.73114288
-0.012348141 0.017540349 0.73136365
-0.0082224766 0.017974859 0.73159999
-0.073146142 0.021330263 0.7330001
-0.064745717 0.020189526 0.73100001
-0.016621634 0.021997962 0.7315715
-0.013791192 0.021823097 0.73325002
-0.0090876194 0.020272382 0.73400003
-0.033417143 0.029936193 0.73100001
-0.032121193 0.030725954 0.73325002
-0.028660955 0.030059049 0.73400003
0.023349935 -0.017938776 0.73657149
0.026783431 -0.017248575 0.73620003
0.024533335 -0.012617144 0.73600006
0.02827175 -0.010981589 0.73600006
0.030140955 -0.010514286 0.73600006
0.024550002 -0.0084166676 0.73650002
0.02703405 -0.0087769059 0.73725003
-0.052785717 -0.00070380955 0.73900002
-0.047859054 -0.0014076191 0.73899996
-0.04328429 -0.0010557143 0.73900002
0.017711431 -0.0019285717 0.73650002
0.02061905 -0.0032251428 0.73640007
-0.06263905 0.0049266671 0.73900002
-0.057259619 0.0036571424 0.73859996
-0.05267857 0.002808095 0.73750007
-0.04772203 0.0028061909 0.73687512
-0.042630333 0.0027553116 0.73753852
-0.037952192 0.0028095241 0.73799998
0.013037716 0.004345905 0.73600006
0.017570557 0.0028123017 0.73791671
-0.071436673 0.0080938097 0.73900002
-0.067490019 0.0077319061 0.73816669
-0.062507413 0.0077239159 0.7374444
-0.057543658 0.0077182557 0.73683333
-0.052594822 0.0077135456 0.73633337
-0.047861904 0.00758381 0.73609096
-0.043194287 0.0066719055 0.73750007
0.012638572 0.006786508 0.73716676
0.017595239 0.0063342862 0.73900002
-0.076433718 0.014216954 0.73900002
-0.072395563 0.012650795 0.73800009
-0.067510344 0.012141831 0.73661548
-0.06308572 0.011565715 0.73600006
-0.057489384 0.012519729 0.73614293
-0.051870476 0.011215239 0.73600006
-0.049300324 0.010981589 0.73600006
-0.080938101 0.018299049 0.73900002
-0.077272467 0.017561033 0.7375834
-0.072422624 0.017359762 0.73650002
-0.06939429 0.016822858 0.73600006
-0.0070095244 0.016121905 0.73600006
-0.0049066669 0.016121905 0.73600006
-0.080792069 0.021777462 0.73766673
-0.077960111 0.02177196 0.73744446
-0.011396072 0.022968454 0.73637503
-0.0076025119 0.022681993 0.73790908
-0.0044530164 0.021330476 0.7383334
-0.01614381 0.027374288 0.73700011
-0.012650794 0.027412698 0.73800004
-0.0091495244 0.027448576 0.73900002
-0.030709907 0.032673337 0.73620003
-0.028186098 0.032673337 0.73620003
-0.016854169 0.032305837 0.73737502
-0.013372381 0.031108383 0.73900002
-0.0091495244 0.030263811 0.73900002
-0.02873905 0.035748575 0.73600006
-0.017595239 0.03589429 0.73900002
-0.047410481 -0.010614286 0.74300003
-0.021228572 -0.012737145 0.74300003
-0.017488301 -0.011625172 0.74300009
-0.013444763 -0.010614286 0.74300003
-0.0084914295 -0.010614286 0.74300003
-0.050948575 -0.0063685719 0.74300003
-0.047394529 -0.0067202384 0.74275005
-0.043872382 -0.0063685719 0.74300003
-0.037220765 -0.0069346665 0.74300003
-0.032610565 -0.0076543731 0.74290919
-0.027996194 -0.007984763 0.74285722
-0.022566408 -0.0079075322 0.7425456
-0.01785524 -0.0079552382 0.74250007
-0.013727811 -0.0083499057 0.74300003
-0.0084914295 -0.0091990484 0.74300003
0.024666669 -0.0063428576 0.74000001
0.027767619 -0.0069066673 0.74000001
0.031009525 -0.0077523813 0.74000001
-0.062270477 -0.00070761907 0.74300003
-0.056690861 -0.0015556191 0.74220008
-0.052251436 -0.0035318097 0.74139994
-0.047261592 -0.0042330166 0.74066675
-0.042008415 -0.0034139687 0.74133343
-0.037410956 -0.0028252385 0.74116671
-0.033410162 -0.0033801061 0.74288893
-0.028304763 -0.0049533336 0.74300003
-0.021346858 -0.0038173336 0.74220008
-0.019105716 -0.0049533336 0.74300003
0.023441732 -0.0026309958 0.74181819
0.027427968 -0.00301671 0.74190915
0.031628456 -0.0033570239 0.74212509
-0.073592387 0.0049533336 0.74300003
-0.067280747 0.0036883599 0.74188894
-0.062432829 0.002443077 0.7416923
-0.057830006 0.0014100001 0.74050003
-0.04017143 0.00070476194 0.74000001
-0.038761906 0.00070476194 0.74000001
-0.033965718 0.00070761907 0.74300003
0.022597281 0.0031274832 0.74142861
0.027008763 0.002121143 0.74240011
-0.076219812 0.0080598099 0.74240011
-0.073515438 0.0074773333 0.74080008
0.014830001 0.0084757153 0.74150002
0.017642859 0.0084695239 0.74100006
0.022631509 0.007779445 0.74258339
-0.081376195 0.014152382 0.74300003
-0.07811749 0.012001991 0.7413637
0.0091990484 0.014860001 0.74300003
0.010614286 0.014860001 0.74300003
0.017682541 0.010609525 0.74266672
0.020520953 0.010614286 0.74300003
-0.081047624 0.016209524 0.74000001
0.0049533336 0.016982857 0.74300003
0.0063685719 0.016982857 0.74300003
-0.0032917464 0.02423016 0.74100006
-0.0070476197 0.027485717 0.74000001
-0.0033726986 0.027228149 0.74155563
-0.012376796 0.033029266 0.74072725
-0.00776381 0.031052381 0.741
-0.0042400002 0.03038667 0.74200004
-0.021792954 -0.02122343 0.74780005
-0.017809525 -0.02137143 0.74800009
-0.014485082 -0.02113397 0.74800003
-0.0078361919 -0.020659048 0.74800003
0.013535239 -0.020659048 0.74800003
0.021371428 -0.021371428 0.74800003
-0.047729529 -0.016384764 0.74800003
-0.043455243 -0.016384764 0.74800003
-0.030632382 -0.016384764 0.74800003
-0.022761751 -0.01778286 0.74683344
-0.017780213 -0.017782329 0.74677777
-0.01282119 -0.0178077 0.74791682
-0.0085485727 -0.017809525 0.74800009
-0.0028495239 -0.017809525 0.74800003
0.013535239 -0.019234287 0.74800003
-0.05245598 -0.011630584 0.74766672
-0.047619659 -0.012988657 0.7462728
-0.042778164 -0.012650032 0.74613327
-0.037722543 -0.012100319 0.74733341
-0.032501705 -0.012493811 0.74650007
-0.027714765 -0.012792858 0.74616671
-0.024140002 -0.01278143 0.74550003
-0.018021906 -0.014332383 0.74500006
-0.012743938 -0.012936065 0.74620008
-0.0078258207 -0.013202964 0.74711114
-0.0035619051 -0.013179048 0.74800009
-0.067320004 -0.0071238102 0.74800003
-0.063150957 -0.0068849213 0.74783343
-0.057488035 -0.0074278917 0.74785727
-0.052854192 -0.0080985725 0.74590003
-0.047538098 -0.0086561916 0.74500006
-0.042287625 -0.0080885729 0.745
-0.037959527 -0.0088690491 0.74500006
-0.031928573 -0.0092238104 0.74500006
-0.026252383 -0.0070952387 0.74500006
-0.023414288 -0.0063857147 0.74500006
-0.011352382 -0.0092238104 0.74500006
-0.071733475 -0.0017299321 0.74785721
-0.06742382 -0.0026527275 0.74663651
-0.062494613 -0.0035517465 0.74566668
-0.057920415 -0.0037541501 0.74557149
-0.054633338 -0.0049666669 0.74500006
-0.031523135 -0.0021285715 0.74500006
-0.027671432 -0.0028380954 0.745
-0.02412381 -0.0035476196 0.74500006
0.029090479 -0.00070952385 0.74500006
0.031928577 -0.00070952385 0.74500006
-0.080499053 0.0049866671 0.74800003
-0.077282287 0.0031295239 0.74720001
-0.072429597 0.0023490114 0.74615395
-0.067759529 0.0014190477 0.74500006
-0.03121905 0.00070952385 0.74500006
0.022704763 0.00070952385 0.74500006
0.0281581 0.0033561909 0.74714297
0.03181687 0.0017284355 0.74714297
-0.081121758 0.0078268265 0.74716675
-0.07845524 0.0074542863 0.74550009
0.027919881 0.0076460722 0.74687511
0.030632382 0.0078361919 0.74800003
-0.082670644 0.012315716 0.74616671
0.01413211 0.013523947 0.74728572
0.017608335 0.013340713 0.7470001
0.022844765 0.011937462 0.7470001
0.027302068 0.011633175 0.74783343
0.0082400013 0.018006805 0.7477144
0.01169524 0.018000273 0.74742872
0.016384764 0.016384764 0.74800003
0.0016619049 0.024447303 0.74766672
0.0078361919 0.020659048 0.74800003
0.012110477 0.020659048 0.74800003
0.00071238098 0.026358098 0.74800003
-0.063045956 -0.02794024 0.75225008
-0.025100002 -0.025817145 0.75300002
-0.02199728 -0.026090614 0.75200003
-0.017472098 -0.026210193 0.75189996
-0.012386804 -0.026105175 0.75242865
-0.0073033343 -0.026210193 0.75190014
-0.0021506352 -0.02581159 0.75283337
0.0021514287 -0.02612449 0.75300002
0.0068128575 -0.02599643 0.75300002
0.01219143 -0.025100004 0.75300002
0.017742859 -0.025987862 0.75275004
0.020751113 -0.026476828 0.75133342
-0.055937149 -0.020797145 0.75300002
-0.052064575 -0.021370858 0.75300002
-0.048309531 -0.021359811 0.75260007
-0.03227143 -0.020797145 0.75300002
-0.02650905 -0.021851428 0.75225002
-0.022515714 -0.023230001 0.75050008
-0.017152859 -0.023587143 0.75050008
-0.011964286 -0.022321431 0.75000006
-0.0069047622 -0.022619048 0.75000006
-0.0021466669 -0.022183493 0.7513333
0.0021477251 -0.022190265 0.75155556
0.0071575399 -0.022191033 0.75158346
0.011975715 -0.022344999 0.75075006
0.017177701 -0.022190079 0.75158334
0.021428574 -0.02357143 0.75000006
-0.07243143 -0.015060002 0.75300002
-0.067172386 -0.015060002 0.75300002
-0.062045086 -0.016646985 0.75266677
-0.057469215 -0.017341843 0.75239998
-0.052425724 -0.017619049 0.75200003
-0.047189288 -0.018589765 0.75075001
-0.042017147 -0.018144762 0.75200003
-0.037154205 -0.017765628 0.75154549
-0.03239131 -0.018076073 0.751625
-0.027894922 -0.017882433 0.75099999
-0.0057142861 -0.017857146 0.75000012
-0.0019387758 -0.017857146 0.75000012
0.0019642857 -0.018035717 0.75000006
0.0064285719 -0.018928573 0.75000006
0.011428572 -0.019285716 0.75000006
0.015476192 -0.018809525 0.75000012
-0.080929533 -0.010742858 0.75200003
-0.076704904 -0.011777553 0.75271434
-0.072388902 -0.012184869 0.75255567
-0.067292862 -0.012171112 0.75166672
-0.062234927 -0.012162116 0.75111115
-0.05735204 -0.012535759 0.75018191
-0.052142859 -0.014285715 0.75000006
-0.04071429 -0.015000001 0.75000006
-0.037142858 -0.015000001 0.75000006
-0.03357143 -0.015000001 0.75000006
-0.0057142861 -0.013571429 0.75000006
-0.0018571429 -0.013000001 0.75000006
0.0014285715 -0.015000001 0.75000006
-0.081280582 -0.0067373337 0.75260007
-0.077329941 -0.007159702 0.75181246
-0.072142862 -0.0071428581 0.75000012
-0.067857146 -0.0080612255 0.75000012
-0.061857145 -0.0087142866 0.75000006
-0.058571436 -0.0092857145 0.75000006
-0.082264766 -0.0019711906 0.75275004
-0.077247635 -0.0021457146 0.75100005
-0.072857149 -0.0035714288 0.75000006
-0.091077149 0.00071714289 0.75300002
-0.08749143 0.00071714289 0.75300002
-0.082338847 0.0021475134 0.75177777
-0.079391435 0.0014295239 0.75100005
-0.085889667 0.0074727894 0.75242865
-0.083330296 0.0067169527 0.75040001
0.026428573 0.0092857145 0.75000006
0.031666674 0.0054761912 0.75000012
-0.085742548 0.011225081 0.75233334
0.022142859 0.013571429 0.75000006
0.027857145 0.013214286 0.75000006
0.031470478 0.012875238 0.75100005
0.013571429 0.017142858 0.75000006
0.017389527 0.017746352 0.75033343
0.022028955 0.016738666 0.75100005
0.026907811 0.016174097 0.75139999
0.031287305 0.015524763 0.75233334
0.0035714288 0.02357143 0.75000006
0.0074593201 0.022994559 0.75114292
0.012177939 0.022923335 0.75216675
0.016460139 0.021572791 0.75142866
0.020797145 0.020797145 0.75300002
0.0024661378 0.027752701 0.75144452
0.0070668035 0.025705175 0.75271434
0.010757144 0.025100002 0.75300002
-0.021657143 -0.035373334 0.75800002
-0.0007219048 -0.035373334 0.75800002
0.0014438096 -0.035373334 0.75800002
0.0072190478 -0.035373334 0.75800002
0.012272382 -0.035373338 0.75800008
0.017016329 -0.035992108 0.75800002
0.020935239 -0.035373334 0.75800002
-0.061200004 -0.030960003 0.75600004
-0.058474295 -0.031041909 0.75800008
-0.052699052 -0.031041909 0.75800008
-0.049089529 -0.031763811 0.75800002
-0.033448257 -0.032004446 0.75800008
-0.027352171 -0.032004446 0.75799996
-0.021950208 -0.032256059 0.75742859
-0.017312858 -0.031021431 0.75750005
-0.011895239 -0.031361908 0.75699997
-0.0068485723 -0.031903338 0.75699997
-0.0021619047 -0.03242984 0.75666672
0.0021594709 -0.032395452 0.75588894
0.0071949214 -0.03237921 0.75550002
0.012231005 -0.032376613 0.75544453
0.017264765 -0.032372065 0.75533342
0.021600001 -0.033840001 0.75600004
-0.066240005 -0.025200002 0.75600004
-0.061987896 -0.026624085 0.75557154
-0.057598695 -0.027360715 0.75600004
-0.052686758 -0.027229438 0.75781816
-0.048225723 -0.027060321 0.75766671
-0.042592384 -0.025266668 0.75800002
-0.035373334 -0.025266668 0.75800002
-0.032630101 -0.026999239 0.75799996
-0.027685583 -0.027582044 0.7564286
-0.022590671 -0.028920954 0.75540006
-0.016784765 -0.029014602 0.75533342
-0.011943049 -0.028921336 0.75540012
-0.0069507938 -0.02900159 0.75500005
-0.0021571433 -0.028761907 0.75500005
0.0021571431 -0.028905718 0.75500005
0.0075500002 -0.028582145 0.75500005
0.01222381 -0.02804286 0.75500005
0.016717859 -0.028582145 0.75500005
0.020852383 -0.029480955 0.75500005
-0.065693341 -0.022379048 0.75800008
-0.062687099 -0.022335982 0.75655562
-0.057827055 -0.022584384 0.75520009
-0.052850008 -0.02336905 0.75500005
-0.046755515 -0.022915786 0.75528586
-0.042461272 -0.022310797 0.75566667
-0.037423499 -0.022310797 0.75566673
-0.032392863 -0.023035718 0.75583339
-0.028771669 -0.023017382 0.7552501
-0.072405957 -0.017471431 0.75650001
-0.066780135 -0.01718422 0.75628579
-0.063543499 -0.018943492 0.75533342
-0.042423811 -0.019414287 0.75500005
-0.038109526 -0.019414287 0.75500005
-0.087004766 -0.00071904773 0.75500005
-0.091379531 0.0028785716 0.75550008
-0.087723821 0.0028761907 0.75500005
-0.091379531 0.0071942862 0.75550008
-0.088922225 0.0069507943 0.75500005
-0.08916191 0.010785715 0.75500005
0.023009526 0.019414287 0.75500005
0.027371192 0.018725477 0.75625002
0.018289145 0.023184381 0.75600004
0.022318099 0.021361273 0.75600004
0.025200002 0.020880001 0.75600004
-0.019620001 -0.050140005 0.76300001
-0.036993973 -0.045700006 0.76166672
-0.03264159 -0.045700006 0.76166672
-0.02831397 -0.045740005 0.76233339
-0.019620001 -0.047233336 0.76300001
-0.041420002 -0.041420002 0.76300001
-0.037752703 -0.042835563 0.76233339
-0.032652806 -0.042809635 0.76188898
-0.027764937 -0.04266867 0.76172733
-0.021770477 -0.042091433 0.76200008
-0.017440002 -0.041904449 0.76300001
-0.012716668 -0.041783333 0.76300001
-0.0094466675 -0.041420002 0.76300001
0.010900001 -0.041420002 0.76300001
0.017440002 -0.041420002 0.76300001
0.021073334 -0.041420002 0.76300001
-0.036919393 -0.037712123 0.76281828
-0.032622069 -0.037698098 0.76116675
-0.027536076 -0.037683457 0.76087511
-0.022479897 -0.037952706 0.76144451
-0.017422618 -0.037751198 0.76225007
-0.01234524 -0.037763339 0.76250017
-0.0076186522 -0.037122149 0.7617501
-0.002381905 -0.036978375 0.76128584
0.0023203813 -0.038154863 0.76160008
0.0072507942 -0.038431119 0.76133347
0.01232635 -0.038431115 0.76133341
0.017630585 -0.038884133 0.76077789
0.021018099 -0.038412385 0.76100004
-0.055843338 -0.031911906 0.7615
-0.05304667 -0.032700002 0.76300001
-0.046830099 -0.032332193 0.76120001
-0.042873334 -0.03124667 0.76300001
-0.037322287 -0.032529335 0.76240003
-0.032088894 -0.032812703 0.76000011
-0.027746035 -0.034019049 0.76000011
-0.023901429 -0.033317622 0.76050007
-0.017382858 -0.033317622 0.76050007
-0.012597525 -0.033448957 0.76020008
-0.0079619056 -0.033657145 0.76000005
-0.052838098 -0.029676192 0.76000005
-0.045961909 -0.028590478 0.76000005
-0.042741217 -0.027726498 0.76063645
-0.037809782 -0.027669592 0.76053345
-0.031847622 -0.029676192 0.76000005
-0.07078509 -0.021501271 0.76100004
-0.068098105 -0.022457462 0.76066673
-0.070722871 -0.019068889 0.76033342
-0.068309531 -0.019068889 0.76033342
0.028971907 0.019555714 0.76050007
0.031205717 0.018869525 0.76200002
0.0014623811 -0.05628334 0.76750004
-0.017554287 -0.050468575 0.76800001
-0.00073142862 -0.053394288 0.76800001
0.0013583676 -0.052976329 0.76800007
0.0065828576 -0.050468575 0.76800001
-0.022419289 -0.047205478 0.76550001
-0.017316017 -0.047442086 0.76636368
-0.012426879 -0.047515981 0.76755565
-0.0073142862 -0.047542863 0.76800007
-0.0021942861 -0.047542859 0.76800007
0.0021942861 -0.047542863 0.76800007
0.0073142867 -0.047542863 0.76800007
0.012068572 -0.04644572 0.76800001
0.01682286 -0.046080004 0.76800001
-0.040800005 -0.040071432 0.76500005
-0.023460003 -0.042694289 0.76500005
-0.017493017 -0.043976512 0.76533341
-0.012106477 -0.04390648 0.76580006
-0.0069838786 -0.042534772 0.76621443
-0.002189762 -0.042337861 0.76641673
0.0021899471 -0.04307482 0.76655555
0.0072931754 -0.043033816 0.76583338
0.01258 -0.043211434 0.76575005
0.017508572 -0.043772381 0.76599997
0.021128573 -0.042985719 0.76500005
-0.046628572 -0.036428574 0.76500005
-0.042100005 -0.037060004 0.76572734
-0.038614288 -0.038614288 0.76500005
-0.0051000002 -0.038614288 0.76500005
-0.0021857144 -0.038614288 0.76500005
-0.046628572 -0.034242861 0.76500005
-0.042257145 -0.033514291 0.76499999
0.0080822222 -0.060998417 0.77166671
-0.0058819051 -0.055142861 0.77200001
-0.0019066669 -0.055586673 0.77000004
0.0036666668 -0.056466669 0.7700001
0.0075563947 -0.056986608 0.7713573
0.0133566 -0.057738375 0.77300012
0.015950795 -0.055705082 0.77300012
-0.015400001 -0.050600003 0.77000004
-0.012107143 -0.05100048 0.7705
-0.0071434639 -0.052001826 0.77100003
-0.0023833334 -0.051883332 0.77000004
0.0033 -0.051700003 0.77000004
0.007410909 -0.052261993 0.77090913
0.012697024 -0.05207726 0.77287513
0.017215906 -0.052089047 0.7725001
0.012767239 -0.048572194 0.77040005
0.017850162 -0.04816889 0.77022225
0.021349525 -0.047852382 0.77300012
0.021349525 -0.044907622 0.77300006
0.0059047621 -0.05978572 0.77500004
0.011366668 -0.057128575 0.77500004
0.017976193 -0.056390163 0.77566671
0.01107143 -0.053880956 0.77500004
