# .PCD v0.7 - Point Cloud Data file format
VERSION 0.7
FIELDS x y z
SIZE 4 4 4
TYPE F F F
COUNT 1 1 1
WIDTH 754
HEIGHT 1
VIEWPOINT 0 0 0 1 0 0 0
POINTS 754
DATA ascii
0.0032809526 0.024279049 0.68900001
0.0065619056 0.023622859 0.68900001
0.0067806356 0.026028892 0.68900001
-0.00066095241 0.019167621 0.69400001
0.0032917007 0.017973607 0.69171441
0.0059142862 0.019057143 0.69000006
-0.0063849217 0.022896349 0.69350004
-0.002641225 0.022731159 0.69328576
0.0025899049 0.022281716 0.69220006
0.0059142862 0.02037143 0.69000006
-0.005948572 0.026438097 0.69400001
-0.0026418453 0.027738396 0.69343752
0.0026363691 0.027699823 0.69243753
0.0059142862 0.027600002 0.69000006
-0.00066095241 0.031064764 0.69400001
0.0039657145 0.031725716 0.69400001
0.011897143 0.035691433 0.69400001
-0.0026501589 0.01855048 0.69566673
0.0011031748 0.0183127 0.69500005
-0.0086047621 0.023828574 0.69500005
-0.0026476192 0.02051905 0.69500005
-0.0074546435 0.028654169 0.69562507
-0.0076078312 0.032721061 0.69800001
-0.0028356712 0.032626841 0.69654554
0.0019895239 0.03281286 0.69600004
-0.001994286 0.035897143 0.69800007
0.0024655103 0.037255991 0.69678581
0.0075079366 0.036660954 0.69566679
0.0026547618 0.041126668 0.69650006
0.0066380957 0.041156195 0.69700003
-0.0033406352 0.017150795 0.70166671
0.028830478 0.018773334 0.70400006
-0.05066064 0.028343176 0.70300001
-0.048137143 0.02807905 0.70200002
-0.055991113 0.033684447 0.7026667
-0.052035172 0.032428097 0.70307142
-0.048622102 0.031746287 0.70320004
-0.042190321 0.031251907 0.70316672
-0.017217383 0.033261672 0.70200002
-0.01257516 0.032273572 0.70108342
-0.0086666672 0.032000002 0.70000005
-0.18102857 0.038217146 0.70400006
-0.14086764 0.039389525 0.70100003
-0.050285719 0.035535239 0.70400006
-0.048944764 0.035535239 0.70400006
-0.020770002 0.036180481 0.70350003
-0.017286383 0.036582384 0.70350003
-0.01228561 0.036412172 0.70366675
-0.0070531229 0.037048049 0.70155561
-0.0030678099 0.03814457 0.70020008
0.0040057148 0.03671905 0.70100003
-0.14228347 0.043238454 0.70387501
-0.11465143 0.040899049 0.70400006
-0.0026759524 0.041436668 0.70175004
-0.18169905 0.048274286 0.70400006
-0.16560763 0.048274286 0.70400006
-0.16292572 0.048609525 0.70400006
-0.14120232 0.047067434 0.70400006
-0.13878858 0.047603812 0.70400006
0.016091431 0.047603816 0.70400012
0.024137145 0.048944764 0.70400006
-0.16560763 0.051626675 0.70400012
-0.16235873 0.052153405 0.70386684
0.018102858 0.050732702 0.70400012
0.022979051 0.051504765 0.70400006
0.027982859 0.0084285727 0.708
0.031343576 0.008425477 0.70774996
-0.0033714287 0.014160002 0.70800006
0.0080914292 0.014160001 0.708
0.013342857 0.013343239 0.7076
0.017431974 0.012616192 0.70785719
0.023099186 0.012415647 0.70742863
0.027586352 0.012109685 0.70649999
0.03219283 0.012166286 0.70713341
0.036411431 0.012361906 0.70800006
-0.003701905 0.015812382 0.70650005
0.0037011909 0.015816906 0.70674998
0.0075165373 0.017292297 0.70581818
0.01211881 0.017505717 0.70699996
0.01707221 0.017315328 0.70672721
0.023040192 0.01738178 0.70740002
0.02726743 0.017192952 0.70520002
0.032020546 0.017307214 0.70671433
0.036411431 0.016182858 0.708
-0.10653715 0.034388572 0.708
-0.10384001 0.034388572 0.708
-0.059170477 0.034291431 0.70600003
-0.046628334 0.033161666 0.70700002
-0.043423053 0.033207428 0.70580006
-0.20116192 0.038883813 0.70800006
-0.19738035 0.03907175 0.70733333
-0.19313471 0.039204903 0.70800006
-0.18745145 0.03933334 0.70800006
-0.18274596 0.03937548 0.70675004
-0.17769738 0.039039765 0.70675004
-0.17249429 0.039080955 0.70750004
-0.16683279 0.038411301 0.70757145
-0.16339897 0.038169872 0.70763636
-0.15772763 0.03909453 0.70775002
-0.15228119 0.03908072 0.70749998
-0.14746001 0.039726671 0.70700002
-0.14319557 0.039053336 0.70700002
-0.13707145 0.03914953 0.70700008
-0.13312405 0.039431669 0.70774996
-0.12744001 0.039782859 0.70800006
-0.1225893 0.039740719 0.70725
-0.11800002 0.039108574 0.70800006
-0.11125715 0.039108574 0.708
-0.10769989 0.037786737 0.70766675
-0.10257015 0.038006328 0.70721424
-0.099120006 0.039108574 0.708
-0.080240004 0.036411431 0.708
-0.061809532 0.036186669 0.70800006
-0.057224765 0.037028998 0.70688897
-0.052519593 0.037708711 0.70700008
-0.047180962 0.03774504 0.70771438
-0.043093339 0.035686668 0.70700002
-0.037085719 0.039782859 0.70800006
-0.033489525 0.039333336 0.70800006
-0.021539286 0.039040241 0.70675004
-0.017690159 0.039185401 0.70533341
-0.011806669 0.039070889 0.70557147
-0.0082809534 0.038719051 0.7050001
-0.21509716 0.042480003 0.708
-0.21195051 0.04337905 0.70800006
-0.20633143 0.043828573 0.708
-0.20246963 0.042357404 0.70800012
-0.19739923 0.042979531 0.70699996
-0.19253905 0.043083455 0.70687497
-0.18728566 0.042948641 0.70686668
-0.18232316 0.043163009 0.70561534
-0.17784368 0.042777967 0.70657134
-0.17249432 0.042450003 0.70749998
-0.16727793 0.042569876 0.7074545
-0.16235507 0.042530306 0.70681816
-0.15762396 0.042768851 0.70642847
-0.15222676 0.042435162 0.70725
-0.14746001 0.042420004 0.70700002
-0.1424018 0.042701546 0.70612502
-0.13731025 0.042404689 0.70675004
-0.1323439 0.042357404 0.70800012
-0.12765497 0.042596485 0.70770007
-0.12254573 0.04242 0.70700002
-0.11750962 0.042602602 0.70800012
-0.10748114 0.041401148 0.708
-0.10267468 0.042175051 0.70739996
-0.04697524 0.04203048 0.70800006
-0.041131433 0.042480003 0.70800006
-0.037984766 0.04203048 0.70800006
-0.032330714 0.041761432 0.70725
-0.028994288 0.041805718 0.708
-0.020888098 0.041776672 0.70749998
-0.017304072 0.042249877 0.70618182
-0.01210778 0.042381279 0.70633328
-0.0073939688 0.041667946 0.70566672
0.0033571431 0.044985723 0.7050001
0.0077214288 0.044650007 0.70500004
0.012192518 0.044445585 0.70557147
0.016785717 0.044314291 0.70500004
-0.21240002 0.046525717 0.70800006
-0.2068762 0.046496086 0.70755559
-0.20257716 0.046307862 0.70725
-0.19810736 0.047236416 0.70623076
-0.1924088 0.047373019 0.70722222
-0.18759069 0.047941335 0.70699996
-0.18287091 0.047134019 0.70557141
-0.17731608 0.047353748 0.70599997
-0.17251915 0.046889238 0.70569229
-0.16817614 0.046992823 0.70569229
-0.16271925 0.046655674 0.70627266
-0.15725464 0.047388513 0.70649999
-0.15235272 0.046514772 0.70783347
-0.14735667 0.047099531 0.70649999
-0.14352891 0.047918417 0.70533335
-0.13717639 0.046337578 0.70699996
-0.13240349 0.047166832 0.70749998
-0.12774941 0.046980128 0.70673335
-0.12224355 0.046508145 0.70772737
-0.11783144 0.047368579 0.70800006
-0.11395429 0.046525717 0.708
-0.041131433 0.045851432 0.708
-0.039782859 0.045851432 0.708
-0.015958097 0.04562667 0.70800006
-0.013148572 0.045514289 0.708
-0.0020228573 0.045177147 0.708
0.0020203178 0.046032384 0.70733333
0.0082961917 0.046865083 0.70633334
0.012280953 0.04759923 0.70572728
0.018128572 0.046328574 0.70500004
0.028240001 0.048412383 0.70600003
0.030257145 0.048412383 0.70600003
-0.19082287 0.05057143 0.708
-0.18684231 0.052399781 0.70746154
-0.18199532 0.052495446 0.70664293
-0.17728287 0.052209049 0.70733333
-0.17235893 0.052376781 0.7071538
-0.16839842 0.052247941 0.70633328
-0.15762804 0.052543871 0.70731252
-0.15171431 0.052819055 0.70800006
-0.14742588 0.052508891 0.70683336
-0.14300478 0.052365791 0.70700002
-0.13957715 0.054617148 0.708
-0.13148572 0.050908573 0.708
-0.12793335 0.050500002 0.70700002
-0.12069715 0.051245719 0.708
-0.11826972 0.051110864 0.708
0.0020228573 0.051920004 0.708
0.0087657152 0.053268574 0.708
0.012408029 0.052712794 0.70699996
0.016920779 0.052840788 0.70554543
0.020814287 0.053042859 0.70500004
0.027453123 0.052437887 0.70688885
0.03032143 0.051210001 0.70749998
-0.18644002 0.05630286 0.708
-0.18214668 0.057407625 0.70763642
-0.17760688 0.057044577 0.708
-0.17126858 0.055965718 0.708
-0.16845286 0.055926196 0.70749998
-0.15677144 0.05630286 0.708
-0.15441144 0.056640003 0.708
0.014160001 0.055965718 0.708
0.016857145 0.055965718 0.70800006
-0.18138286 0.060685717 0.70800006
-0.17760688 0.060550865 0.708
0.041480001 -0.00068000006 0.71400005
0.018632002 0.0042160004 0.71400005
0.022258215 0.0035675 0.71362507
0.026727781 0.0043033338 0.71350002
0.033039432 0.004486667 0.71380001
0.037499655 0.0029027711 0.71354556
0.041455962 0.0027176987 0.71358347
-0.010880001 0.0088400003 0.71400005
-0.0061200005 0.0088400003 0.71400005
-0.0036720005 0.0082960008 0.71400005
0.002905455 0.0076036374 0.71400017
0.007474524 0.007644048 0.71350008
0.012226112 0.0074713505 0.7132501
0.017630478 0.0074577788 0.71200007
0.022362966 0.0074529103 0.71155566
0.026587384 0.0069416668 0.71125007
0.033022147 0.0069416678 0.71125007
0.037745025 0.0075725554 0.71118182
0.041668259 0.0070200004 0.71333337
-0.015640002 0.013600001 0.71400005
-0.012095492 0.012366222 0.71346676
-0.0074719056 0.012224603 0.71316683
-0.0031220005 0.011813238 0.7129001
0.0027116076 0.012209346 0.71231264
0.0073087625 0.011775049 0.71060002
0.011627187 0.011626323 0.71054548
0.017669948 0.011804763 0.71055561
0.021638097 0.010142858 0.71000004
0.034485716 0.011495239 0.71000004
0.038408216 0.012351311 0.71062499
0.040878668 0.011272191 0.71300006
-0.015640002 0.015640002 0.71400005
-0.011934696 0.016203267 0.71314299
-0.0074457154 0.016243812 0.71066666
0.018933335 0.015552382 0.71000004
0.034582861 0.01898762 0.71200001
0.037529051 0.017863017 0.71216667
0.034631431 0.021050477 0.71300006
-0.082010485 0.028467303 0.7116667
-0.08180172 0.032559242 0.71220011
-0.20246765 0.038597144 0.71100008
-0.19081953 0.037892859 0.7105
-0.18811335 0.037892859 0.7105
-0.16972382 0.039219052 0.71000004
-0.13050477 0.03989524 0.71000004
-0.11292382 0.03989524 0.71000004
-0.081691712 0.038574152 0.71057147
-0.077349067 0.037901301 0.71064293
-0.072554022 0.038457967 0.71200013
-0.067560963 0.037900001 0.71242863
-0.062117741 0.038590834 0.71087503
-0.057503179 0.039913975 0.71033335
-0.054771431 0.03989524 0.71000004
-0.045304764 0.03989524 0.71000004
-0.042821076 0.038759407 0.71087503
-0.03989524 0.03989524 0.71000004
-0.031104764 0.039219048 0.71000004
-0.029076193 0.03989524 0.71000004
-0.22228263 0.043844528 0.71375006
-0.21715972 0.043973021 0.71033335
-0.21187302 0.042825401 0.71000004
-0.2080373 0.042188577 0.71285731
-0.20439334 0.040063813 0.71300006
-0.11272192 0.04283325 0.71181822
-0.10787562 0.043448575 0.71060002
-0.081580281 0.042484228 0.71128577
-0.077325501 0.042553194 0.7126925
-0.072014369 0.042413548 0.71335721
-0.067485861 0.041976564 0.71353859
-0.062672719 0.042396404 0.71307158
-0.057415821 0.042892199 0.71260011
-0.052612469 0.042521041 0.71072727
-0.047558736 0.043050796 0.71000004
-0.043276191 0.042600002 0.71000004
-0.021653812 0.043983337 0.7105
-0.019637143 0.04401429 0.71100003
-0.22508001 0.046240002 0.71400005
-0.21679595 0.045658812 0.71025002
-0.21209843 0.046657141 0.71000004
-0.15281907 0.049361907 0.71000004
-0.14084572 0.049431432 0.71100003
-0.13739493 0.049408257 0.71066666
-0.13456191 0.049361907 0.71000004
-0.12509525 0.048685715 0.71000004
-0.12329207 0.048911117 0.71000004
-0.1171706 0.047172744 0.71012503
-0.11292095 0.046814289 0.71242869
-0.10766573 0.045368575 0.71100008
-0.081297785 0.045970164 0.71333337
-0.077398792 0.046761215 0.71345466
-0.072062857 0.046909209 0.71383345
-0.067319997 0.046920002 0.71400011
-0.062745452 0.046796367 0.71400017
-0.057090595 0.046215836 0.71362513
-0.051858097 0.046423815 0.71333349
-0.047471829 0.046795636 0.71208334
-0.043656003 0.046648003 0.71400005
-0.025124764 0.048891433 0.71300006
-0.022382703 0.047479212 0.71216679
-0.017953554 0.047717955 0.71030772
-0.012678572 0.048178576 0.71000004
-0.0067841276 0.046811752 0.71233338
-0.0028032658 0.047642183 0.71028578
0.0027077144 0.048314005 0.7105
0.0069985725 0.048539527 0.71116674
0.010157144 0.049431432 0.71100003
-0.18054287 0.054771431 0.71000004
-0.17716192 0.054771431 0.71000004
-0.17378096 0.054771431 0.71000004
-0.1529751 0.052690849 0.71000004
-0.14070952 0.05241124 0.71100003
-0.13741945 0.052365333 0.71220005
-0.13402691 0.052122146 0.71074998
-0.12509525 0.050714288 0.71000004
-0.12284128 0.051165082 0.71000004
-0.022224085 0.051919322 0.71328574
-0.017420819 0.052547894 0.71128583
-0.01258743 0.052246291 0.71060002
-0.0026129254 0.052548446 0.71128583
0.0027542226 0.052851629 0.71086675
0.0073176632 0.052701388 0.71027279
0.010142858 0.051390477 0.71000004
0.023700001 0.054848574 0.71100003
0.027749209 0.054372068 0.71066666
0.032406129 0.054268166 0.71100008
0.035888575 0.054171432 0.71100003
-0.18054287 0.056123812 0.71000004
-0.17652097 0.057680953 0.71014291
-0.17283076 0.057933338 0.71085715
-0.16984335 0.05819381 0.7105
-0.15245584 0.056680579 0.71020001
-0.14876191 0.056123812 0.71000004
-0.021080002 0.055080004 0.71400005
-0.019027144 0.055041432 0.71350002
-0.012368382 0.055321146 0.71360004
-0.0021741909 0.05721667 0.71350014
0.0030059868 0.057126805 0.71285719
0.0074596438 0.0574806 0.712125
0.01179343 0.057615906 0.71170008
0.019352859 0.056700483 0.71300006
0.02224643 0.056550715 0.71325004
0.027358944 0.057205293 0.71222228
0.032041062 0.057524662 0.71244448
-0.17587334 0.060435243 0.71300006
-0.17202541 0.06088794 0.71300006
0.0089019053 -0.00068476197 0.71900004
0.012325715 -0.001369524 0.71899998
0.017347304 -0.00114127 0.71900004
0.022597145 -0.00068476202 0.71900004
0.028075239 -0.0021912386 0.71899998
0.032839645 -0.0027382146 0.71837497
0.037544053 -0.0027311908 0.71675003
0.04240356 -0.0028707308 0.71733338
0.047737692 -0.0030325174 0.71899998
0.052041911 -0.0047933338 0.71900004
-0.01711905 0.0047933338 0.71900004
-0.012301429 0.0047833337 0.71750003
-0.0072504766 0.0030080003 0.71820003
-0.002963651 0.0033044447 0.71816671
0.0028488101 0.0033030952 0.71791667
0.007525715 0.0027349209 0.71833336
0.012312142 0.0027347615 0.71824992
0.01732208 0.0020470996 0.7170909
0.022908097 0.0010252382 0.71800005
0.027575908 0.0017741903 0.71670002
0.032561563 0.0019222514 0.71636373
0.036140956 0.00068190478 0.71600002
0.044323813 0.0027276191 0.71600002
0.046906196 0.0022254765 0.71899998
-0.017355239 0.007652191 0.71740001
-0.012554287 0.0072318101 0.71640009
-0.0076769055 0.0073350007 0.71650004
-0.0020457145 0.0069164638 0.71600002
0.00068285718 0.0061457148 0.71700001
0.007500953 0.0061371434 0.71600002
0.044029292 0.0078511909 0.71675003
0.045879051 0.0068476195 0.71900004
-0.017903738 0.011916632 0.71661544
-0.014320001 0.010228572 0.71600002
-0.00068190478 0.011592383 0.71600002
0.043020636 0.012290478 0.71700001
-0.026020955 0.017803811 0.71900004
0.038868573 0.018411431 0.71600002
0.041223403 0.017443538 0.71628582
0.037504762 0.021820953 0.71600002
0.040232383 0.02113905 0.71600002
-0.23012288 0.044385716 0.71700001
-0.2272867 0.043681912 0.7166667
-0.22434668 0.042960003 0.71600002
-0.23012288 0.04575143 0.71700001
-0.2275289 0.046142232 0.71600002
-0.11524191 0.045687623 0.71600002
-0.078181595 0.049463492 0.71800005
-0.060689528 0.04841524 0.71600002
-0.056916356 0.048950639 0.71716678
-0.053096037 0.048996672 0.7178334
-0.049987622 0.049987622 0.71900004
-0.051813658 0.052270167 0.71900004
-0.049987622 0.052041911 0.71900004
-0.19104858 0.059574291 0.71900004
-0.18899429 0.059574291 0.71900004
0.038560003 -0.010328572 0.72300005
0.042691432 -0.011017144 0.72300005
0.046134289 -0.010328572 0.72300005
0.0075742863 -0.0061971433 0.72300005
0.012380715 -0.0061907149 0.72225004
0.017902859 -0.0061971433 0.72300005
0.022722861 -0.0061971433 0.72300005
0.027827078 -0.0067848987 0.72271436
0.032838453 -0.0070501193 0.72212505
0.037309092 -0.0076886588 0.72181833
0.042628177 -0.0075640474 0.72191679
0.047438841 -0.0075641274 0.72188896
0.051385723 -0.0071731978 0.72214293
-0.0073334929 -0.0016052382 0.72183341
-0.002381026 -0.0023823448 0.72223079
0.0027060956 -0.0026158099 0.7226001
0.0074302172 -0.0029370566 0.72118199
0.012361786 -0.0041217855 0.72112513
0.018127812 -0.0037095237 0.72100013
0.022656934 -0.0034340741 0.72088897
0.026309846 -0.0036615876 0.72066677
0.048685718 -0.0006857143 0.72000003
0.050742861 -0.002057143 0.72000003
-0.017897382 0.0037859527 0.72275007
-0.012185024 0.002185195 0.72172737
-0.0089142863 0.0013714286 0.72000003
-0.002057143 0.0010285715 0.72000003
0.002402381 0.0010290476 0.72050005
0.048228577 0.002514286 0.72000003
-0.031674288 0.0089514293 0.72300005
-0.022239206 0.0080239689 0.72216672
-0.019885715 0.0068571432 0.72000003
0.04700429 0.0078919055 0.72050005
-0.041543812 0.014000954 0.72300005
-0.036800083 0.012953572 0.7222501
-0.032292623 0.012364842 0.72141671
-0.027506964 0.012376728 0.72206253
-0.022663733 0.012360239 0.7210834
-0.019885715 0.014400001 0.72000003
0.04463334 0.013048573 0.72100008
0.046774291 0.012382143 0.7222501
-0.050954293 0.01859143 0.72300005
-0.047445245 0.017876351 0.72200006
-0.042435665 0.01689725 0.72255564
-0.037750479 0.016472384 0.72066677
-0.032914288 0.017142862 0.72000015
-0.028114287 0.016800003 0.72000003
-0.022902859 0.016320003 0.72000003
-0.019885715 0.01577143 0.72000003
-0.00068761909 0.016502857 0.72200006
0.00068761909 0.016502857 0.72200006
-0.048000004 0.021257143 0.72000003
-0.082514286 0.048228577 0.72000003
-0.081715241 0.050126672 0.72100008
-0.079185717 0.051642861 0.72300005
-0.055658575 0.05222429 0.72150004
-0.052893203 0.053288575 0.72128576
-0.048820954 0.054321907 0.72200006
0.037341714 -0.020406477 0.72880006
0.043680001 -0.020106668 0.72800004
0.018745715 -0.016662858 0.72900003
0.022448575 -0.016894286 0.72900003
0.027754843 -0.017347224 0.72858346
0.032616511 -0.017349418 0.72866672
0.037434846 -0.017332461 0.72791666
0.042877462 -0.017290639 0.72616667
0.047492519 -0.016884357 0.72571433
0.052566908 -0.01660024 0.72624999
0.057441276 -0.01661016 0.72666669
0.060237147 -0.016618095 0.727
-0.001804381 -0.010964001 0.72860003
0.0027714293 -0.011782859 0.72766674
0.007623598 -0.011782753 0.72766674
0.012641247 -0.012002566 0.72807705
0.017315479 -0.012469764 0.72725004
0.022137143 -0.01245393 0.72637498
0.02766875 -0.012452798 0.7263124
0.032511905 -0.012453335 0.72633332
0.037110206 -0.012732792 0.72542852
0.042809531 -0.013809524 0.72499996
0.047768403 -0.012616884 0.72499996
0.052512385 -0.012438095 0.72550005
0.057349052 -0.012438096 0.72549999
-0.010414287 -0.0062485719 0.72900003
-0.0076255566 -0.0069328579 0.72783339
-0.0027712702 -0.0076180957 0.727
0.0027631752 -0.0075993659 0.72533333
0.0075990483 -0.0082898419 0.72533333
0.012437144 -0.0082919048 0.72549993
0.017269526 -0.0082898419 0.72533333
0.022095239 -0.0082857143 0.72499996
0.027204765 -0.0087000011 0.72500002
0.031761907 -0.0089761913 0.72500002
0.053511906 -0.0086309528 0.72500002
0.056388896 -0.0085158739 0.72500008
-0.016996071 -0.002082024 0.72837508
-0.01246762 -0.0027734528 0.72724998
-0.0078309532 -0.003915715 0.72550005
-0.0043752389 -0.0043752389 0.72533339
0.0034523811 -0.0048333337 0.72500002
0.051892862 -0.0013823811 0.72650003
-0.036388811 0.0045050005 0.72775006
-0.032512702 0.0041501597 0.72633338
-0.02798694 0.0042514293 0.72685724
-0.022164684 0.0031146833 0.72725004
-0.017283019 0.0013820636 0.72583336
-0.014500001 0.00069047621 0.72500002
0.049057625 0.0041461908 0.72549999
0.051870164 0.0033139689 0.72833341
-0.041990243 0.0086754765 0.72875005
-0.03719195 0.0077389618 0.7268182
-0.032668848 0.0072043547 0.72542852
-0.027635001 0.0075989692 0.7254166
-0.02370635 0.006674604 0.72500008
0.049113974 0.007608572 0.72633338
0.051845714 0.0078021432 0.72825009
-0.056545716 0.013529049 0.72850007
-0.052639648 0.012465003 0.72724992
-0.047575977 0.012303738 0.72723085
-0.042978968 0.012212303 0.72591662
-0.038334999 0.010705953 0.72525001
0.049181592 0.011778414 0.72733343
0.050682861 0.010414287 0.72900003
-0.057050753 0.01730218 0.72671431
-0.05319488 0.016925598 0.72537494
-0.044880956 0.017952383 0.72500002
0.04494286 0.015902858 0.72600001
0.047147624 0.016640004 0.7280001
-0.070817143 0.022217143 0.72900003
-0.068734288 0.022217143 0.72900003
-0.053166669 0.020023812 0.72500002
0.042321905 0.026365239 0.72850001
-0.0069904765 -0.020272382 0.73400003
0.0013980954 -0.020272382 0.73400003
0.0076609529 -0.020198733 0.73133337
0.012555 -0.020224048 0.73225003
0.017476192 -0.02097143 0.73400009
0.021900192 -0.020507811 0.7324
-0.0069904765 -0.018874288 0.73400003
-0.00069904764 -0.017476192 0.73400009
0.002793334 -0.017453335 0.73300016
0.0076629636 -0.017415345 0.73144442
0.012540873 -0.017418969 0.73158336
0.017006941 -0.017603675 0.73100007
0.021581909 -0.018797144 0.73100007
-0.0069745244 -0.01115881 0.73225003
-0.003067048 -0.013107811 0.73199999
0.0027847621 -0.01462 0.73100001
0.0076580956 -0.014620001 0.73100007
0.011840001 -0.014626667 0.73133337
-0.017448731 -0.0069804769 0.73283339
-0.012421334 -0.0068403813 0.73280001
-0.0069671432 -0.0090566669 0.73150003
-0.036350477 -0.00069904764 0.73400003
-0.032556955 -0.0009782858 0.73360002
-0.026673907 -0.001537143 0.73320001
-0.022183938 -0.002652762 0.73246676
-0.018100955 -0.0041771429 0.73100001
0.053973097 -0.0024369049 0.73124999
0.056822591 -0.0018974153 0.73400009
-0.051030479 0.0048933337 0.73400003
-0.046984762 0.0044190483 0.73266673
-0.04252572 0.0041828575 0.73200005
-0.03780124 0.0025096193 0.73230004
-0.032757938 0.0013938097 0.7318334
-0.027632488 0.0016248679 0.73144442
-0.022974288 0.00069619052 0.73100007
0.054442097 0.0026455242 0.73100001
0.057697006 0.0026285718 0.73261541
0.061283182 0.0025631748 0.73400009
-0.055848576 0.0090752384 0.73300004
-0.052121311 0.007843215 0.73212498
-0.047362544 0.0076609529 0.73133337
-0.0427581 0.0068243816 0.73119998
-0.039682861 0.0062657148 0.73100001
0.05430286 0.0069619054 0.73100001
0.056557827 0.0074813613 0.73314297
-0.061172705 0.014188573 0.73266673
-0.058284089 0.012253063 0.73228574
0.051450163 0.011873017 0.73333335
-0.076196194 0.018874288 0.73400003
-0.072203815 0.018574096 0.73320001
-0.067328982 0.018053336 0.73314297
-0.062265243 0.017550765 0.7313
-0.059176195 0.017404763 0.73100001
0.043860003 0.018100955 0.73100001
0.046710476 0.01882286 0.73200005
-0.072703496 0.020904129 0.73166674
-0.06711223 0.021131907 0.73150009
-0.063074857 0.021442667 0.73100001
-0.059176195 0.020189526 0.73100001
0.043860003 0.022278098 0.73100001
0.046437051 0.022311715 0.73210007
0.042517304 0.028808415 0.73183334
0.045862861 0.026307305 0.73333335
0.042193748 0.032416876 0.73314291
-0.0023369845 -0.020799842 0.73616672
0.0028038097 -0.021028573 0.73600006
0.013673573 -0.022087857 0.73625004
0.01614381 -0.023162859 0.73700005
-0.010557144 -0.017595239 0.73900002
-0.0079193208 -0.017139187 0.7367143
-0.0035047622 -0.01752381 0.73600006
-0.02134889 -0.011026351 0.73900002
-0.017589949 -0.011961588 0.73877776
-0.012668572 -0.010557144 0.73900002
-0.0074417144 -0.014178857 0.73700005
-0.0049066669 -0.014720001 0.73600006
-0.03589429 -0.0063342862 0.73900002
-0.032331429 -0.0070295241 0.73800004
-0.027189935 -0.007325171 0.73742855
-0.022467781 -0.0077236518 0.73716676
-0.01754762 -0.0091247624 0.73700011
-0.013113335 -0.0086657144 0.73766679
0.058179054 -0.0071096607 0.73600012
0.060982861 -0.0063085719 0.73600006
-0.051378097 -0.00070380955 0.73900002
-0.048255052 -0.00098495244 0.73860008
-0.041741274 -0.0011726985 0.73866671
-0.037372191 -0.0032331429 0.73759997
-0.03206858 -0.0036346321 0.73636371
-0.027748575 -0.0037069395 0.73628581
-0.024533335 -0.0049066669 0.73600006
0.058179051 -0.0035047622 0.73600006
0.062257323 -0.0026126411 0.73600006
0.065188579 -0.0035047622 0.73600006
-0.056304768 0.0049266671 0.73900002
-0.052672386 0.0028081906 0.7374
-0.047977813 0.001823143 0.73650008
-0.042390212 0.0013023132 0.73657155
-0.038552385 0.00070095243 0.73600006
0.061824001 0.0029440003 0.73600006
-0.061935242 0.0091495244 0.73900002
-0.057450362 0.007554167 0.73787504
-0.053973336 0.0063085719 0.73600006
0.059370719 0.008082144 0.73775005
0.061065719 0.0063171433 0.73700005
-0.075103812 0.014740001 0.73700005
-0.072296195 0.014740001 0.73700011
-0.067411855 0.013964219 0.73842853
-0.062505864 0.012339049 0.73742861
-0.05966191 0.010528572 0.73700005
0.049767621 0.014720001 0.73600006
0.053034291 0.012933062 0.73685718
0.057218101 0.011021588 0.73866671
-0.075832143 0.016850716 0.73725003
-0.072518103 0.01669143 0.73640007
-0.067359298 0.016138334 0.73675001
0.049767621 0.018224763 0.73600006
0.051917784 0.01754 0.73666668
0.049311589 0.022436034 0.73616672
0.051533718 0.02204724 0.73720002
0.048292171 0.027694289 0.73722231
0.044180006 0.032960322 0.73633337
0.047174376 0.031725373 0.7372728
0.042114288 0.035797145 0.73700005
-0.036088575 -0.016275238 0.74300003
-0.032545358 -0.016979882 0.74287504
-0.02757794 -0.016971271 0.74250007
-0.022643812 -0.016275238 0.74300003
-0.017380003 -0.016814668 0.74180001
-0.012987756 -0.016813606 0.74000007
-0.036088575 -0.010614286 0.74300003
-0.032406226 -0.012689019 0.74293345
-0.02756992 -0.012725955 0.74225008
-0.022864545 -0.013089599 0.74130774
-0.017619049 -0.014800001 0.74000001
-0.012685715 -0.012987757 0.73999995
-0.0091619063 -0.011980954 0.74000001
-0.041976355 -0.0068388893 0.74283338
-0.037439186 -0.0077714291 0.74171436
-0.032419048 -0.0091619054 0.74000001
-0.028190479 -0.0091619054 0.74000001
-0.0091619054 -0.0091619054 0.74000001
-0.046942864 -0.0033330615 0.74200004
-0.042649146 -0.0038139049 0.74140006
-0.061507624 0.0049488889 0.74233341
-0.057201754 0.003294762 0.74150008
-0.062144287 0.0070614289 0.74150008
-0.059904765 0.0070476197 0.74000001
-0.066029534 0.011650001 0.74150002
-0.064220004 0.011290478 0.74100006
0.054266669 0.014800001 0.74000001
0.05768298 0.013583692 0.74087501
0.06006667 0.013426668 0.74200004
0.05431556 0.017636193 0.74066675
0.056218095 0.017325239 0.74250007
0.053519368 0.022869207 0.74266672
0.0522708 0.027548572 0.74166673
0.048022382 0.034603335 0.74150002
0.051587764 0.032204904 0.74200004
-0.041519053 -0.011625081 0.74733347
-0.037762344 -0.012974807 0.74554551
-0.03476667 -0.013480953 0.74500006
-0.043064445 -0.0087549221 0.74533337
-0.039023813 -0.0092238104 0.74500006
-0.056952864 -0.00071190484 0.74750006
-0.053923815 -0.00070952385 0.74500006
-0.049022861 -0.0042638099 0.74600005
-0.061519291 0.0032002383 0.74675
-0.057651438 0.0011860318 0.74733341
-0.054633338 0.00070952385 0.74500006
0.05802159 0.017763812 0.74600005
0.060552385 0.016384764 0.74800003
0.054388575 0.023106668 0.74650007
0.05651791 0.022922097 0.7474001
0.054633342 0.027671432 0.74500006
0.056253023 0.027771113 0.74766672
0.05255691 0.032673098 0.74575007
-0.044523813 -0.011666669 0.75000012
-0.061592385 -0.0050133336 0.75200003
-0.057448987 -0.0056122453 0.75000012
-0.053571433 -0.0050000004 0.75000006
-0.065000005 -0.00071428576 0.75000006
-0.062272172 -0.0021481481 0.75155556
-0.057398524 -0.0026196826 0.75022227
-0.053095244 -0.0026190481 0.75000012
-0.065000005 0.00071428576 0.75000006
-0.062428571 0.0012857144 0.75000006
-0.059285719 0.00071428576 0.75000006
0.059285719 0.018571429 0.75000006
0.061674289 0.018645715 0.75300002
0.058886673 0.021920955 0.75220007
0.061315719 0.02259 0.75300002
0.05865892 0.026923951 0.75242865
0.063995242 0.018695239 0.75500005
0.065433338 0.019414287 0.75500005
0.063436963 0.022009144 0.75520009
0.066240005 0.021600001 0.75600004
