# .PCD v0.7 - Point Cloud Data file format
VERSION 0.7
FIELDS x y z
SIZE 4 4 4
TYPE F F F
COUNT 1 1 1
WIDTH 696
HEIGHT 1
VIEWPOINT 0 0 0 1 0 0 0
POINTS 696
DATA ascii
-0.10625334 0.07706286 0.61300004
-0.10302167 0.077887625 0.61375004
-0.10594286 0.07416001 0.61800003
-0.10267981 0.073830485 0.6182
-0.099040002 0.074869528 0.61900002
-0.091376193 0.074869528 0.61900002
-0.10568525 0.075741433 0.61650002
-0.10207066 0.077180266 0.61690915
-0.097593524 0.077603631 0.61731249
-0.093332388 0.077594563 0.61857146
-0.10552477 0.082533345 0.61900002
-0.10227768 0.082292207 0.61718756
-0.097554483 0.082275786 0.61706251
-0.094170481 0.081810489 0.61800003
-0.10220681 0.087233342 0.61828583
-0.098248795 0.086467423 0.61855555
-0.094836675 0.086001433 0.61849999
-0.10552477 0.094913341 0.61900002
-0.10241144 0.09196429 0.61800003
-0.099125721 0.091110863 0.61879998
-0.10552477 0.096092388 0.61900002
-0.10595096 0.072210953 0.62150002
-0.10220303 0.071708143 0.62227279
-0.097329527 0.073735535 0.6216923
-0.09303315 0.07335753 0.62220007
-0.091077529 0.077810869 0.62180007
-0.10569525 0.0844381 0.62
-0.092532575 0.082617931 0.62245464
-0.10712559 0.088495389 0.62242866
-0.10451429 0.086800009 0.62
-0.09712667 0.088581488 0.62144446
-0.10755382 0.092187397 0.62049991
-0.10186604 0.093986675 0.62066674
-0.097697474 0.092559911 0.62255561
-0.10805714 0.095066682 0.62
-0.1025281 0.095438577 0.62050003
-0.099086672 0.095526673 0.62300003
-0.096686296 0.063618861 0.62900001
-0.092253342 0.064098097 0.62900001
-0.1023441 0.068985634 0.62770003
-0.097153991 0.067733452 0.62755555
-0.092251226 0.06765338 0.62713635
-0.087356716 0.067610137 0.62825006
-0.082658462 0.067480214 0.62821054
-0.079673335 0.068890482 0.62900001
-0.1111935 0.073463343 0.62883335
-0.10837069 0.072357789 0.62788892
-0.10059524 0.07083334 0.625
-0.097385854 0.071359739 0.62514287
-0.09167628 0.072308503 0.62575001
-0.087356545 0.072997741 0.62825006
-0.083034769 0.072569057 0.62800008
-0.11133382 0.076018579 0.62849998
-0.10962572 0.076079056 0.62900001
-0.090435438 0.077772968 0.62720007
-0.087621979 0.077610552 0.6289286
-0.084132627 0.077546433 0.62874997
-0.091244526 0.083166912 0.62825
-0.089258105 0.080871433 0.62900001
-0.10833333 0.088690482 0.625
-0.09279871 0.087507628 0.62612498
-0.096132763 0.093274862 0.62540001
-0.093214579 0.092442475 0.62717652
-0.10586286 0.09988191 0.62800002
-0.10295572 0.098166198 0.62850004
-0.097562648 0.097035028 0.62677777
-0.092815481 0.095809765 0.62875003
-0.10590501 0.10291405 0.62825
-0.10290663 0.10221379 0.62878948
-0.099483185 0.10147683 0.62800002
-0.096753344 0.06310001 0.63100004
-0.093147635 0.063100003 0.63100004
-0.087143026 0.064052239 0.63250005
-0.082611196 0.063650243 0.63199997
-0.11148798 0.0683406 0.63362503
-0.1075355 0.06805186 0.6333636
-0.10234394 0.066823699 0.63212502
-0.099157147 0.06610477 0.63100004
-0.080306672 0.06581524 0.634
-0.07992667 0.067306668 0.63100004
-0.11237811 0.072114289 0.63100004
-0.10817144 0.070311435 0.63100004
-0.081128575 0.07151334 0.63100004
-0.086537153 0.07992667 0.63100004
-0.083054565 0.077386536 0.63128579
-0.090743817 0.083532386 0.63100004
-0.087724075 0.082472302 0.63209093
-0.08325953 0.080847152 0.63350004
-0.090839684 0.087633342 0.63166672
-0.089409523 0.08734069 0.63371432
-0.090743817 0.092546679 0.63100004
-0.088902235 0.09238667 0.63311112
-0.10035905 0.099157147 0.63100004
-0.097084954 0.099011056 0.63160002
-0.092765488 0.097886667 0.63249999
-0.08982572 0.09585429 0.63300002
-0.097705439 0.10224799 0.6323846
-0.094798103 0.1008362 0.634
-0.10559215 0.10739882 0.63175005
-0.10222966 0.107204 0.63166672
-0.098632276 0.10747312 0.63277775
-0.10241922 0.11087064 0.63383341
-0.099628575 0.11049715 0.634
-0.10710858 0.063900001 0.63900006
-0.10215715 0.064103812 0.63620007
-0.099942863 0.063600004 0.63600004
-0.091447622 0.063191436 0.63800001
-0.087426573 0.062349737 0.63700002
-0.082220443 0.061923295 0.63690919
-0.079130322 0.063140482 0.63750005
-0.11640783 0.068725146 0.63860005
-0.11309596 0.067007147 0.63675004
-0.10770477 0.065485723 0.63733339
-0.10408954 0.065686986 0.63666672
-0.078602865 0.067880139 0.63557148
-0.11664286 0.071608573 0.63900006
-0.11392857 0.071395248 0.63800001
-0.08648096 0.083759531 0.63500005
-0.084128097 0.083523333 0.63550007
-0.086719133 0.087278545 0.63538474
-0.083824776 0.087641098 0.63714296
-0.087087624 0.092443183 0.63650012
-0.091191053 0.098942675 0.63580006
-0.087930009 0.097026438 0.63675004
-0.095627144 0.10410096 0.63550007
-0.0923585 0.10242232 0.63742864
-0.088851444 0.10284857 0.63900006
-0.096397348 0.10755467 0.63660008
-0.09387365 0.10664763 0.63866675
-0.10672074 0.11266022 0.63788891
-0.10279599 0.11328489 0.63533342
-0.097283296 0.11261082 0.63605005
-0.092963815 0.11200193 0.63800001
-0.11084667 0.11652096 0.63833338
-0.10756207 0.11781117 0.6372779
-0.10275611 0.11724062 0.63735718
-0.098207153 0.11645049 0.63850003
-0.09157525 0.058475055 0.64360005
-0.087915763 0.058220003 0.64227277
-0.082799576 0.05790697 0.64107692
-0.077508718 0.058198243 0.64228576
-0.074213341 0.059493337 0.64400005
-0.11708605 0.063753337 0.64366674
-0.11221336 0.063857786 0.64266676
-0.10749497 0.062662952 0.64130002
-0.10321035 0.062591575 0.64342862
-0.095695242 0.062780954 0.64000005
-0.092577748 0.061563693 0.64162499
-0.088192388 0.060624387 0.64040011
-0.082895249 0.060342859 0.64000005
-0.076908514 0.062009849 0.6412667
-0.073804453 0.062968895 0.64400005
-0.11718871 0.066680603 0.6408751
-0.11337143 0.065219052 0.64000005
-0.076685324 0.066617385 0.64074999
-0.072750829 0.067510553 0.64192861
-0.11885715 0.070095241 0.64000005
-0.081368893 0.073395565 0.64400005
-0.07779476 0.071687467 0.64150006
-0.072760008 0.070314288 0.64200008
-0.083504766 0.084114291 0.64000005
-0.083504766 0.085942864 0.64000005
-0.085942864 0.093257152 0.64000005
-0.084179528 0.09149953 0.64050007
-0.08770667 0.098746672 0.64400005
-0.088562541 0.10078096 0.64133346
-0.10917334 0.10978667 0.64400005
-0.091822863 0.1075541 0.64020002
-0.089635 0.10731882 0.64025009
-0.11101334 0.11346668 0.64400005
-0.1094031 0.11245596 0.64175004
-0.09203811 0.11032382 0.64000005
-0.089600004 0.11032382 0.64000005
-0.11066858 0.11556001 0.64200002
-0.10910477 0.11520001 0.64000005
-0.072822869 0.049988575 0.648
-0.087634295 0.054925717 0.648
-0.081732586 0.054364193 0.64720005
-0.077269532 0.053622432 0.64718181
-0.07262738 0.052930355 0.64625001
-0.0690227 0.052433185 0.6451667
-0.11664001 0.05986286 0.648
-0.11240858 0.059597529 0.64780003
-0.10671893 0.059131157 0.64771438
-0.10224 0.059039999 0.648
-0.097695619 0.058838665 0.6476
-0.092723824 0.057391301 0.64600003
-0.087363809 0.055986669 0.64600003
-0.08231429 0.055900004 0.64500004
-0.077400006 0.055900004 0.64500004
-0.072451629 0.057691615 0.64580005
-0.069116198 0.057671297 0.64714289
-0.12190562 0.063111112 0.64755559
-0.11778414 0.062001918 0.64599997
-0.11285219 0.061834861 0.64539999
-0.1069681 0.060861431 0.64550006
-0.10155947 0.061638102 0.64628577
-0.097379692 0.061707098 0.64577776
-0.071995363 0.062150363 0.64612502
-0.12156586 0.06751661 0.64700007
-0.11987858 0.066393815 0.64550006
-0.076119244 0.073414862 0.64560002
-0.073919058 0.072280958 0.6450001
-0.081868745 0.077559061 0.64633334
-0.078625828 0.077395983 0.64666665
-0.081857078 0.082474858 0.64625001
-0.078763694 0.082310133 0.64737499
-0.082276314 0.086899653 0.64712501
-0.079611436 0.085782863 0.648
-0.085650481 0.094277151 0.64700001
-0.083314292 0.090720005 0.648
-0.08652743 0.097604007 0.64620006
-0.086515337 0.10239211 0.64609998
-0.080225721 0.04788667 0.65300006
-0.077653341 0.047834288 0.65228581
-0.074285716 0.048904765 0.65000004
-0.14162669 0.052596956 0.65280008
-0.13851774 0.052721333 0.65280002
-0.13495333 0.053483814 0.65300006
-0.086444765 0.054105718 0.65300006
-0.082007632 0.052186038 0.65233344
-0.078354888 0.05125536 0.65037507
-0.07490477 0.050142862 0.65000004
-0.06751772 0.05359162 0.65280002
-0.13661176 0.057422545 0.65300006
-0.13370954 0.057837151 0.65300006
-0.12002762 0.057837147 0.65300006
-0.11740501 0.058235954 0.65224999
-0.11257439 0.05765 0.65090007
-0.10793499 0.057094976 0.65100008
-0.10269783 0.056797698 0.65128577
-0.097164139 0.056338523 0.6516667
-0.093179628 0.05570915 0.65140003
-0.087904766 0.05509524 0.65000004
-0.084809527 0.05509524 0.65000004
-0.067040578 0.057110675 0.65180004
-0.12773927 0.062688015 0.65300006
-0.12319048 0.061904766 0.65000004
-0.11823811 0.060047623 0.65000004
-0.070473343 0.063446671 0.65100002
-0.068452172 0.061974499 0.65144449
-0.12731437 0.066789009 0.65209091
-0.12404779 0.06770017 0.65016675
-0.070897147 0.065300003 0.65300006
-0.069031432 0.065300003 0.65300006
-0.12667525 0.070167623 0.65200007
-0.12462001 0.070060007 0.65100002
-0.076204583 0.077695057 0.65160006
-0.076242186 0.082794569 0.65085721
-0.074006669 0.081469528 0.65300006
-0.081714287 0.089142859 0.65000004
-0.077708393 0.087859713 0.65081251
-0.082424425 0.093017854 0.65072733
-0.078069098 0.092183895 0.65200001
-0.086047627 0.099047624 0.65000004
-0.082474798 0.09700758 0.65170598
-0.078526355 0.096138105 0.65266681
-0.085113972 0.10126635 0.65233338
-0.082575127 0.10123229 0.65300006
-0.087508261 0.10612857 0.65166676
-0.081466675 0.044493336 0.65800005
-0.078720003 0.044358097 0.65600002
-0.14035715 0.048657149 0.65500003
-0.13712056 0.047640279 0.65571439
-0.13253923 0.048275154 0.65672737
-0.085853338 0.049506672 0.65800005
-0.08237692 0.047861036 0.65691674
-0.078887939 0.04683207 0.65566671
-0.1434762 0.054271434 0.65500003
-0.13708214 0.051464293 0.65500003
-0.13275096 0.050721433 0.65750003
-0.11776929 0.054499291 0.65775001
-0.113176 0.05426934 0.65800005
-0.10716001 0.054206669 0.65800005
-0.10269596 0.053851906 0.65750003
-0.097421981 0.052820347 0.65692866
-0.09276858 0.052705087 0.65726674
-0.087570608 0.052390039 0.65646678
-0.0835682 0.051339239 0.65580004
-0.066117145 0.052142859 0.65700006
-0.063967235 0.053452577 0.65720004
-0.14664 0.057653338 0.65800005
-0.14251472 0.05750649 0.65631247
-0.13746375 0.057294052 0.65508348
-0.13249716 0.057764765 0.65500009
-0.12057906 0.056853335 0.65600002
-0.11780015 0.056175105 0.65642864
-0.11254381 0.055646196 0.65649998
-0.10735746 0.055660322 0.6566667
-0.10251271 0.055519056 0.65500009
-0.09918572 0.055519052 0.65500003
-0.065666676 0.056911752 0.6566667
-0.063624553 0.057645515 0.65711111
-0.14643112 0.061204448 0.65800011
-0.1427718 0.062619649 0.65750003
-0.1379299 0.062923297 0.6571539
-0.1325084 0.062487312 0.65566677
-0.12912858 0.060509529 0.65500003
-0.0663132 0.062208168 0.65600002
-0.064208813 0.061703101 0.65775007
-0.14225334 0.066113338 0.65800005
-0.13849334 0.066301338 0.65800005
-0.13196 0.067612693 0.6566667
-0.12922715 0.068048097 0.65550005
-0.071259052 0.068135239 0.65633339
-0.068150327 0.066692859 0.65650004
-0.12932572 0.070598103 0.65600002
-0.072143607 0.073257469 0.65744448
-0.072566554 0.077574052 0.65687501
-0.069560006 0.078333341 0.65800005
-0.072752394 0.08223857 0.65666676
-0.069560006 0.081466675 0.65800005
-0.07548096 0.089204766 0.65500003
-0.074516669 0.087666675 0.65750003
-0.075753532 0.092477337 0.6552
-0.074403338 0.092533812 0.65649998
-0.076895945 0.097893521 0.65545464
-0.074006476 0.096970282 0.6552
-0.085461907 0.1041762 0.65500003
-0.081861913 0.10346682 0.65614289
-0.077700421 0.10226164 0.65642864
-0.074346669 0.10246096 0.65600002
-0.090294294 0.043568574 0.66300005
-0.086559474 0.043665297 0.66233343
-0.083853342 0.044133335 0.66200006
-0.10592001 0.049807623 0.66200006
-0.10171683 0.049386989 0.66200006
-0.097279467 0.048863675 0.66142863
-0.092428513 0.048328236 0.6615001
-0.087650999 0.047723815 0.6613847
-0.084228575 0.046514288 0.66000003
-0.11502858 0.052171431 0.66000003
-0.11205453 0.05287905 0.66100001
-0.1075636 0.05241609 0.66133338
-0.1028607 0.0516547 0.66028577
-0.099314287 0.050914288 0.66000003
-0.091142863 0.050914288 0.66000003
-0.061763097 0.05419929 0.66175002
-0.05935429 0.05430286 0.66300005
-0.061510213 0.057738781 0.66000009
-0.059295245 0.057828583 0.66000009
-0.13723812 0.061390482 0.66000003
-0.066000007 0.064742863 0.66000003
-0.062790617 0.062611029 0.66214299
-0.059445404 0.061546352 0.66166675
-0.14586002 0.068194292 0.66300005
-0.14261088 0.0685343 0.66140008
-0.13685068 0.068256713 0.66030771
-0.13335857 0.068566188 0.66050005
-0.067273229 0.068394296 0.66155559
-0.14586002 0.070088573 0.66300005
-0.14242096 0.071876831 0.66266674
-0.13804112 0.071857303 0.66183341
-0.13309811 0.071910486 0.66233343
-0.071028575 0.073542863 0.66000003
-0.068163007 0.072233044 0.66130775
-0.13954572 0.075140007 0.66300005
-0.069268577 0.077314295 0.66000003
-0.13173679 0.082828224 0.66262507
-0.12827715 0.08300215 0.66025001
-0.071136191 0.083726674 0.66100001
-0.13123858 0.085178576 0.66250002
-0.12822857 0.086114295 0.66000003
-0.072886989 0.086540639 0.66166675
-0.073580012 0.091188267 0.6603334
-0.12590286 0.042602226 0.66766679
-0.12424286 0.043325715 0.66900003
-0.090566672 0.044966668 0.66500002
-0.089300007 0.044966668 0.66500002
-0.056068577 0.043962859 0.66900003
-0.052882861 0.043962859 0.66900003
-0.048422858 0.043962859 0.66900003
-0.12641239 0.045101907 0.66700006
-0.12380889 0.045714289 0.66666669
-0.11596001 0.049060002 0.66900003
-0.11222818 0.048513882 0.66900009
-0.10703716 0.048594765 0.66700006
-0.10266205 0.0477513 0.66600007
-0.097703032 0.046948098 0.66616672
-0.092987053 0.045795433 0.66600001
-0.071997151 0.047785718 0.66900003
-0.062057722 0.047785718 0.66900009
-0.057237025 0.047059521 0.66774994
-0.053382728 0.046472248 0.66842866
-0.11624858 0.050819054 0.66700006
-0.11283965 0.050713699 0.66562498
-0.10919937 0.050480641 0.66533339
-0.070722863 0.050971434 0.66900003
-0.067537151 0.050759047 0.66900009
-0.062309921 0.051498175 0.66758341
-0.05716528 0.051609963 0.66523075
-0.053042382 0.050501436 0.66700006
-0.057633337 0.055733338 0.66500002
-0.061464768 0.063998736 0.66533339
-0.065233335 0.06840001 0.66500002
-0.06236089 0.066985108 0.66621429
-0.14682721 0.072815776 0.66611117
-0.14313334 0.074100003 0.66500002
-0.06632667 0.07317543 0.66580003
-0.06351734 0.071378671 0.6656
-0.13624714 0.078946196 0.66850007
-0.1342362 0.078886673 0.66800004
-0.067435242 0.075706676 0.66800004
-0.13702394 0.081545129 0.66762507
-0.13396668 0.082001723 0.66540003
-0.071343213 0.087832503 0.66587496
-0.072267354 0.092085317 0.66814291
-0.12676013 0.037523706 0.67033339
-0.12295365 0.037857145 0.6718334
-0.066116191 0.03851429 0.67400002
-0.064832382 0.03851429 0.67400002
-0.12634286 0.040200002 0.67000002
-0.1220671 0.041860417 0.67106253
-0.11803403 0.043610618 0.67200005
-0.11375049 0.044094287 0.671
-0.095643818 0.044291433 0.67400002
-0.094360009 0.044291433 0.67400002
-0.072428256 0.043584451 0.67300004
-0.067820884 0.042637147 0.67130774
-0.062608875 0.042163394 0.67081255
-0.057832159 0.042009022 0.67069232
-0.051924597 0.041945718 0.67009097
-0.04786763 0.042031709 0.67014289
-0.1212381 0.046580955 0.67000002
-0.11765423 0.046970002 0.67035717
-0.11252679 0.046287507 0.67037499
-0.10759977 0.046615243 0.67050004
-0.1031397 0.046766356 0.67266673
-0.096285723 0.045575242 0.67400002
-0.075102866 0.046217147 0.67400002
-0.072231606 0.047243033 0.67118186
-0.067644596 0.047223285 0.67006254
-0.062707372 0.046929009 0.67000008
-0.051461697 0.047771957 0.6707778
-0.048922103 0.046879809 0.67060006
-0.072212383 0.050484765 0.671
-0.055762861 0.053840958 0.67300004
-0.052555241 0.051915243 0.67300004
-0.061440006 0.069760002 0.67200005
-0.065723814 0.07465715 0.67000002
-0.062884927 0.07333032 0.67150009
-0.1501762 0.079241917 0.671
-0.14750955 0.077906683 0.67049992
-0.14296906 0.077867314 0.67016667
-0.13931748 0.079336517 0.67000002
-0.067001507 0.077790074 0.67185718
-0.063819736 0.077189803 0.6730001
-0.14672916 0.081487626 0.67160004
-0.1426035 0.082493231 0.67144448
-0.13974287 0.082952388 0.67000002
-0.068683818 0.081521913 0.67400002
-0.14442858 0.085373342 0.67400002
-0.071572386 0.087545723 0.671
-0.069371045 0.087837338 0.67320001
-0.070828579 0.093161911 0.67000002
-0.069222383 0.092297629 0.67299998
-0.12139429 0.03422286 0.67800003
-0.11782267 0.034014668 0.67900002
-0.1219743 0.036253814 0.67675
-0.11773024 0.037605528 0.67846668
-0.071378335 0.03908024 0.67825001
-0.068142861 0.038571432 0.67500001
-0.06220223 0.03882445 0.67566669
-0.058760002 0.039388575 0.67800003
-0.1177826 0.04153116 0.67685723
-0.10767001 0.043811671 0.67899996
-0.10235851 0.042728499 0.67808336
-0.098017626 0.043203719 0.67710012
-0.076303273 0.043270621 0.67814285
-0.072446264 0.041146126 0.67657149
-0.066857144 0.040500004 0.67500001
-0.10607143 0.04564286 0.67500001
-0.10285715 0.04564286 0.67500001
-0.099000007 0.04564286 0.67500001
-0.077384457 0.046344452 0.67900008
-0.05464286 0.05464286 0.67500001
-0.05699667 0.057857618 0.67750001
-0.054400768 0.057244956 0.67840004
-0.060051434 0.062634289 0.67800003
-0.057623811 0.061853778 0.67845458
-0.05496667 0.061433338 0.67900008
-0.060140003 0.065960005 0.67900002
-0.058846671 0.065313339 0.67900002
-0.06235715 0.077785723 0.67500007
-0.14678572 0.083785728 0.67500007
-0.070097387 0.082315952 0.67524999
-0.066876583 0.082696386 0.6752001
-0.06286414 0.082090683 0.67586672
-0.14592858 0.085500002 0.67500001
-0.070071436 0.086785719 0.67500001
-0.066637419 0.087318383 0.6755715
-0.063345313 0.087505855 0.67771441
-0.11586906 0.029292859 0.68350005
-0.11334857 0.029314287 0.68400002
-0.12175239 0.032380953 0.68000001
-0.11725223 0.031663492 0.68083328
-0.11265004 0.03292229 0.68320006
-0.10683429 0.034525715 0.68400002
-0.078822859 0.034525715 0.68400002
-0.11592381 0.03561905 0.68000001
-0.11252695 0.037108168 0.68185729
-0.10753725 0.03710372 0.68350005
-0.10311262 0.038807858 0.68200004
-0.099522859 0.039027624 0.68300003
-0.080560014 0.039302863 0.68400002
-0.077436104 0.038066193 0.68210006
-0.073165365 0.037798453 0.68137497
-0.061234288 0.038434289 0.68400002
-0.059280004 0.038434289 0.68400002
-0.10620496 0.041884195 0.68080008
-0.10232382 0.040800001 0.68000001
-0.097980961 0.040880006 0.68133342
-0.082063824 0.042190619 0.68157154
-0.078394845 0.042112388 0.68028575
-0.051743709 0.053044025 0.68200004
-0.052227966 0.057078704 0.68318188
-0.055695243 0.064114287 0.68000001
-0.053025194 0.062117472 0.68177783
-0.060450003 0.068900481 0.6825
-0.057133887 0.067524627 0.68171436
-0.05398953 0.066349529 0.68300003
-0.061102726 0.073192529 0.68357152
-0.05853552 0.072308578 0.68400007
-0.061270483 0.077724449 0.68200004
-0.060494289 0.080658101 0.68300003
-0.11057429 0.02944286 0.68700004
-0.10861143 0.02944286 0.68700004
-0.11090255 0.031592701 0.68633342
-0.10836906 0.032526195 0.68650007
-0.080477148 0.034677144 0.68700004
-0.077746674 0.03462667 0.68600005
-0.10223096 0.036802385 0.68699998
-0.098361649 0.038391568 0.68657154
-0.085960954 0.03871524 0.68900001
-0.082459584 0.038141269 0.68655556
-0.077746674 0.035933334 0.68600005
-0.062547438 0.037107814 0.68840009
-0.059583336 0.036665238 0.6875
-0.085794613 0.041258734 0.68766677
-0.083626673 0.041160002 0.68600005
-0.049000002 0.05422667 0.68600005
-0.05030667 0.05814667 0.68600005
-0.049095243 0.057385407 0.68733346
-0.051135432 0.062644772 0.68660009
-0.049000002 0.060760003 0.68600005
-0.055533338 0.069906674 0.68600005
-0.053073145 0.067489147 0.68800002
-0.056643814 0.072866291 0.68680006
-0.054384768 0.070766672 0.68800002
-0.060760003 0.077746674 0.68600005
-0.058125239 0.076978393 0.68730003
-0.099803813 0.029742859 0.69400001
-0.102625 0.03486643 0.69075006
-0.097832173 0.033686351 0.69355565
-0.093855247 0.033708572 0.69400001
-0.085862383 0.034344286 0.69350004
-0.08304096 0.034929529 0.69200003
-0.076339051 0.034879051 0.69100004
-0.073559053 0.034473971 0.69166672
-0.0621708 0.034050163 0.69200003
-0.096939765 0.036701195 0.69125003
-0.092489175 0.037086673 0.69253844
-0.087638631 0.037117783 0.69188893
-0.083876438 0.036510717 0.69075
-0.076339051 0.036195241 0.69100004
-0.072120957 0.036521338 0.69220006
-0.067196436 0.03722167 0.69174999
-0.063224293 0.03622143 0.69150007
-0.087925725 0.041137148 0.69000006
-0.047364246 0.048325118 0.69336367
-0.047548577 0.05230901 0.69123077
-0.044283811 0.050893337 0.69400001
-0.047855087 0.057296358 0.69150007
-0.050673336 0.063835241 0.69100004
-0.049500003 0.063360006 0.69300002
-0.051148735 0.067614764 0.69150007
-0.055857148 0.07425715 0.69000006
-0.052411634 0.072646335 0.69164288
-0.056415241 0.078507811 0.69040006
-0.10156287 0.029207621 0.69700003
-0.09862382 0.029785717 0.69500005
-0.10023525 0.032526668 0.69700003
-0.098511755 0.031656511 0.69733334
-0.091342866 0.033757146 0.69500005
-0.088950485 0.033854287 0.69700003
-0.072355241 0.033854287 0.69700003
-0.065717146 0.033854287 0.69700003
-0.064204767 0.033757146 0.69500005
-0.091342866 0.035080954 0.69500005
-0.088695243 0.035080954 0.69500005
-0.071691431 0.035181906 0.69700003
-0.067797959 0.035648305 0.69500011
-0.047657147 0.045671433 0.69500005
-0.04283724 0.048542004 0.69630009
-0.039220955 0.049857147 0.69800001
-0.045671433 0.054276194 0.69500005
-0.042957738 0.052579172 0.69662505
-0.046118338 0.058064051 0.69675004
-0.043363813 0.056078918 0.69742864
-0.047653455 0.062100839 0.697375
-0.049678575 0.067564286 0.69550002
-0.049785718 0.072355241 0.69700003
-0.10168889 0.022796195 0.70400012
-0.097884394 0.022897713 0.70300007
-0.10169163 0.027197525 0.70340008
-0.098236017 0.027339621 0.70360005
-0.083020955 0.028789526 0.70300001
-0.077693105 0.028799763 0.70324999
-0.096678652 0.031269662 0.7028572
-0.091768585 0.032152385 0.70333338
-0.086592071 0.032359049 0.70300007
-0.082882226 0.032528095 0.70183343
-0.077813789 0.032276891 0.7031334
-0.071675248 0.032455977 0.70188898
-0.067644291 0.032567859 0.70150006
-0.064137623 0.0320681 0.7015
-0.040724766 0.048736192 0.70100003
-0.038132861 0.048840478 0.70250005
-0.040686037 0.052692384 0.70033336
-0.037454836 0.052455511 0.70228583
-0.034097143 0.052146673 0.70200002
-0.042148098 0.058206908 0.70249999
-0.039194766 0.056614287 0.70350003
-0.046366192 0.063379049 0.70050001
-0.044389844 0.062458422 0.7026667
-0.047444344 0.067493655 0.70166671
-0.044921909 0.069059052 0.70400006
-0.10380954 0.023853334 0.70550001
-0.094266668 0.024913335 0.70700002
-0.10436668 0.026260002 0.70700002
-0.096014291 0.028200001 0.70500004
-0.094015926 0.027809937 0.70728576
-0.081242859 0.02887143 0.70500004
-0.093917914 0.031037146 0.70540005
-0.087913148 0.031098669 0.70679998
-0.081242859 0.030885717 0.70500004
-0.074740008 0.032993335 0.70700002
-0.067428574 0.030342858 0.708
-0.050571434 0.033040002 0.70800006
-0.04885143 0.033352859 0.70749998
-0.05057143 0.036411431 0.708
-0.048548575 0.036411431 0.708
-0.036962226 0.048613023 0.70566672
-0.035585716 0.050357144 0.70500004
-0.042300005 0.059757147 0.70500004
-0.038942859 0.059757147 0.70500004
-0.042001504 0.06276232 0.70642859
-0.039403576 0.062979288 0.70725
-0.090313338 0.023766669 0.71300006
-0.088400006 0.023800002 0.71400005
-0.067320004 0.023120001 0.71400005
-0.091394633 0.026932644 0.71181828
-0.087138519 0.027138369 0.71242875
-0.081600003 0.027200002 0.71400005
-0.076473579 0.027869765 0.71375
-0.072228573 0.02774165 0.71363652
-0.067745112 0.027480176 0.71327287
-0.062848493 0.027178651 0.71341676
-0.090672866 0.030450001 0.7105
-0.075733334 0.030428573 0.71000004
-0.072419688 0.030457145 0.71066666
-0.067852862 0.030535717 0.71250004
-0.06171 0.032130007 0.71400011
-0.05768048 0.032569688 0.7125001
-0.053469848 0.033164449 0.71066672
-0.060973339 0.036493339 0.71400011
-0.057586037 0.036582865 0.71133339
-0.05349429 0.036565717 0.71100008
-0.038651429 0.062383816 0.71200001
-0.086722866 0.023900002 0.71700001
-0.067508578 0.023866668 0.71600002
-0.085357152 0.025265716 0.71700001
-0.083707623 0.026306191 0.71750003
-0.077862389 0.026864607 0.71716678
-0.072511196 0.025309764 0.71825004
-0.066144764 0.026594289 0.71600002
-0.062735245 0.028640002 0.71600002
-0.058684766 0.028659526 0.71650004
-0.062507942 0.03250413 0.71600002
-0.088274859 0.017765144 0.72300005
-0.08652667 0.022421146 0.7222001
-0.083288096 0.023058813 0.72275007
-0.077808574 0.024100002 0.72300005
-0.080914289 0.02537143 0.72000003
-0.078171432 0.02537143 0.72000003
-0.086769849 0.014039683 0.72500008
-0.08306846 0.01384512 0.72687501
-0.079788104 0.013875715 0.72850001
-0.086579055 0.017039051 0.72533339
-0.082822695 0.017419571 0.72636366
-0.078506075 0.017503453 0.72787505
-0.08630953 0.020023812 0.72500002
-0.082180604 0.021062976 0.72512496
-0.078059688 0.021413973 0.72533327
-0.077973336 0.01462 0.73100001
-0.076348893 0.016476508 0.73100007
