# .PCD v0.7 - Point Cloud Data file format
VERSION 0.7
FIELDS x y z
SIZE 4 4 4
TYPE F F F
COUNT 1 1 1
WIDTH 874
HEIGHT 1
VIEWPOINT 0 0 0 1 0 0 0
POINTS 874
DATA ascii
0.0097000003 0.023926668 0.67900002
0.013780954 0.022611748 0.6783334
0.016166668 0.021340003 0.67900008
0.027160002 0.02328 0.67899996
0.0097000003 0.025866669 0.67900002
0.013014832 0.025753062 0.67842859
0.023926668 0.027806668 0.67900002
0.027157323 0.027157445 0.67893744
0.030888708 0.027384492 0.67771441
0.027806669 0.030393338 0.67900008
0.030393336 0.030393336 0.67900002
0.013660001 0.02406762 0.68300003
0.017919321 0.022934014 0.68242866
0.021861905 0.023162646 0.68188894
0.0045600003 0.029314287 0.68400002
0.0078034531 0.028616074 0.6828751
0.012910371 0.028349314 0.68166667
0.017535003 0.027274845 0.68191671
0.021928065 0.027206417 0.68126678
0.0045600003 0.030617144 0.68400002
0.0078171436 0.030617144 0.68400002
0.013284627 0.031123811 0.68285728
0.017226668 0.030956192 0.68000001
0.022299048 0.031393863 0.68200004
0.027174806 0.032598186 0.6808182
0.031949207 0.03216508 0.68000001
0.027981192 0.037253574 0.68325007
0.030602222 0.037113972 0.68366671
-0.0032809526 0.032153334 0.68900001
0.003036364 0.033059746 0.68800008
0.00767342 0.033245888 0.68690908
0.012257689 0.033779051 0.68771434
0.0041558733 0.036527939 0.68900001
0.0063346038 0.036475562 0.68800008
-0.035030477 0.022472382 0.69400001
-0.033378094 0.021811429 0.69400001
-0.035030477 0.025777144 0.69400001
-0.03304762 0.027760003 0.69400001
-0.029742859 0.025777144 0.69400001
-0.021120001 0.027060002 0.69300002
-0.015201906 0.029742859 0.69400001
-0.01252381 0.029657146 0.69200003
-0.0098714288 0.029614288 0.69100004
-0.032386668 0.031064764 0.69400001
-0.020489525 0.031064764 0.69400001
-0.017182939 0.032382935 0.6939168
-0.012538414 0.032335453 0.69288886
-0.0098904772 0.032310165 0.6923334
-0.0018071432 0.033678573 0.69000006
0.0006571429 0.034171432 0.69000006
0.0098571433 0.034828573 0.69000006
-0.020489525 0.036352385 0.69400001
-0.01678819 0.036088005 0.69400001
-0.012558095 0.036352385 0.69400007
-0.0092533343 0.035691429 0.69400001
-0.0030403812 0.036881145 0.69400001
0.0027600003 0.037457149 0.69000006
0.0083995778 0.037761483 0.69022226
0.012501271 0.037498944 0.69077784
0.015822858 0.036917385 0.69225001
0.0046000001 0.040085718 0.69000006
0.0083102165 0.041428667 0.69045466
0.012508492 0.042134531 0.69125003
0.01581143 0.042166431 0.69174999
0.0099142864 0.045605719 0.69400001
0.012772065 0.046465084 0.6936667
0.015190953 0.04623381 0.69350004
0.028584763 0.019278096 0.69800001
-0.037066668 0.024490478 0.69500005
-0.032168575 0.023960954 0.69500011
-0.028197145 0.024225716 0.69500011
0.029249527 0.021272384 0.69800001
-0.066072628 0.02888548 0.69725001
-0.06262745 0.028686842 0.69754547
-0.036067307 0.027438097 0.69700003
-0.03233229 0.027828857 0.69570011
-0.027693907 0.027960446 0.69566673
-0.022886522 0.028086962 0.69576943
-0.018202383 0.029454764 0.69500005
-0.065528579 0.031109527 0.69500005
-0.062880956 0.031109527 0.69500005
-0.035232384 0.031243812 0.69800001
-0.033348259 0.032023177 0.69566673
-0.027681272 0.032110054 0.69755554
-0.022734635 0.032622252 0.69645464
-0.025925716 0.035897143 0.69800001
-0.022357542 0.036855321 0.69725007
-0.017408054 0.03752875 0.69572735
-0.012576192 0.039052382 0.69500005
-0.0076780953 0.037993338 0.69500011
-0.0023650341 0.03835769 0.69614297
0.001327381 0.038515478 0.69725001
-0.012337525 0.040988196 0.69640011
-0.0082156202 0.041472383 0.69560009
-0.0033122224 0.041087784 0.69583344
0.0029439458 0.042639729 0.69800007
0.0059828577 0.043209527 0.69800001
0.0066476194 0.045868576 0.69800001
0.012379048 0.048854925 0.69633335
0.013960001 0.05118667 0.69800001
0.018613335 0.05118667 0.69800001
0.02060762 0.05118667 0.69800001
0.023466669 0.014080001 0.70400012
0.028160002 0.014080001 0.70400006
0.03017143 0.013409525 0.70400006
0.0087161912 0.018102858 0.70400006
0.010504128 0.018996827 0.70400012
0.018071642 0.018069526 0.70277786
0.02275232 0.017398514 0.70268762
0.027304243 0.017206928 0.70236373
0.031026669 0.017632172 0.70311111
-0.062935241 0.024102859 0.70300001
-0.057497621 0.024069048 0.70200008
-0.052087143 0.023372538 0.70116681
-0.047591701 0.022985172 0.70100009
0.01072762 0.020784764 0.70400006
0.018746668 0.020755239 0.70300001
0.023002587 0.021285305 0.70157152
0.026666669 0.021333335 0.70000005
0.032182857 0.020784764 0.70400006
-0.067333341 0.027333336 0.70000005
-0.062284004 0.026274098 0.70020002
-0.057515636 0.027421666 0.70225012
-0.052185878 0.02743127 0.70250005
-0.047439579 0.027393229 0.70155561
-0.04293016 0.027804235 0.70066673
-0.038444452 0.027777782 0.70000005
-0.0589181 0.030128574 0.70300001
-0.047503334 0.032114126 0.70250005
-0.042803813 0.032103572 0.70225006
-0.037845571 0.032094795 0.7009232
-0.031110479 0.033119999 0.70250005
-0.028000001 0.034000002 0.70000005
-0.0470681 0.037688576 0.70350003
-0.043508418 0.036593176 0.70283335
-0.030596985 0.037073493 0.70350003
-0.027632192 0.037643809 0.70080006
-0.024233971 0.038907625 0.70033336
-0.04626286 0.040899049 0.70400006
-0.044921909 0.040899049 0.70400006
-0.03017143 0.041569524 0.70400006
-0.02722626 0.041747078 0.70214295
-0.023213455 0.041582979 0.70137501
-0.016830955 0.042912226 0.70216674
-0.012507262 0.043857023 0.70037496
-0.0070666671 0.044133343 0.70000005
-0.002271048 0.043555051 0.7014001
0.0018111567 0.04300626 0.70085722
0.0073333336 0.04466667 0.70000005
-0.016761906 0.04626286 0.70400012
-0.011872294 0.047427971 0.70318186
-0.0075242864 0.047319528 0.70225
-0.0029672114 0.046809122 0.7035715
0.0030781908 0.047396291 0.70290011
0.0075345584 0.047782447 0.70100009
0.010014286 0.048068576 0.70100003
0.016000001 0.048666671 0.70000005
-0.0080457143 0.050956197 0.70400006
0.0036160003 0.051969528 0.70320004
0.0073557151 0.052162699 0.70216674
0.011681508 0.052625477 0.70091671
0.016902778 0.052488815 0.7005834
0.022986805 0.053314973 0.70100009
0.026861338 0.053323057 0.70160002
0.030042859 0.054077145 0.70100003
0.0082692076 0.056096517 0.70400012
0.012321905 0.056658477 0.70320004
0.017595243 0.05728218 0.7028572
0.02259264 0.056817755 0.70336372
0.027624764 0.056493614 0.70257151
0.030596986 0.058068417 0.70350003
0.038153335 0.0044489531 0.70780003
0.042719528 0.002963905 0.70749998
0.045177147 0.0040457146 0.708
0.023869716 0.0082262857 0.708
0.027619367 0.0080834925 0.70733333
0.032297146 0.0080738105 0.70649993
0.037675321 0.0073991278 0.70641673
0.04240064 0.0074025402 0.70666671
0.045177147 0.0067428574 0.708
-0.0020228573 0.014160001 0.708
0.0033714287 0.014160002 0.70800006
0.0078646038 0.013257621 0.70783329
0.012131746 0.012804924 0.70766675
0.017503215 0.012116072 0.70687491
0.022710625 0.011638243 0.70615381
0.027417718 0.01169143 0.70559996
0.03251633 0.011893879 0.70500004
0.037600003 0.012085715 0.70499998
0.041732624 0.012117144 0.70675004
-0.017245715 0.01845886 0.70740008
-0.01223347 0.01782041 0.70800006
-0.007276 0.01792 0.70740002
-0.0026950003 0.017515119 0.70737499
0.0026946261 0.01723041 0.7075001
0.0072781825 0.017430738 0.70645458
0.012460587 0.017112749 0.70576918
0.016600138 0.016600138 0.70528573
0.033667352 0.01716939 0.70500004
0.0376653 0.017487084 0.70618743
0.041131433 0.016857143 0.70800006
-0.018800002 0.020814287 0.70500004
-0.0026933337 0.020873334 0.70700002
0.002697143 0.020902859 0.708
0.0073914295 0.021506032 0.70566672
0.013428573 0.020814287 0.70500004
0.033178777 0.02260109 0.70685714
0.037068576 0.021567304 0.70766675
-0.077542864 0.028320003 0.70800006
-0.072762936 0.027623575 0.70741671
-0.068488255 0.027395558 0.70733345
-0.16250287 0.034388572 0.708
-0.077400006 0.032541305 0.70781821
-0.072816603 0.032363035 0.7079376
-0.068088852 0.032263272 0.70785719
-0.062181197 0.033534288 0.70775002
-0.057550479 0.03248059 0.70707691
-0.052722726 0.03203946 0.70714277
-0.035585716 0.034242861 0.70500004
-0.03366667 0.034340002 0.70700002
-0.10114285 0.039108574 0.708
-0.077542864 0.036074288 0.708
-0.072148576 0.035737149 0.70800006
-0.051904131 0.038422015 0.70777786
-0.048816193 0.037367146 0.70700002
-0.035585716 0.035585716 0.70500004
-0.033017382 0.03773262 0.70749998
-0.14092572 0.043154288 0.708
-0.12250493 0.04234615 0.70781821
-0.11934858 0.042480003 0.70800006
-0.05057143 0.042480003 0.708
-0.048009764 0.042618576 0.70750004
-0.044985719 0.042971432 0.70500004
-0.032365717 0.041805718 0.708
-0.021861669 0.04338453 0.70625007
-0.019135715 0.042635716 0.70500004
-0.15576001 0.046525717 0.708
-0.15373716 0.046525717 0.708
-0.1429486 0.048323818 0.70800006
-0.13849829 0.045986291 0.708
-0.12193143 0.045134611 0.70733333
-0.021656601 0.046487622 0.70742863
-0.017687092 0.048134506 0.70522225
-0.014100001 0.049014289 0.70500004
-0.0060600005 0.049153335 0.70700002
-0.0022889527 0.048856951 0.70660001
0.00067238102 0.048412383 0.70600003
-0.020880714 0.052538812 0.70725
-0.01770599 0.052253064 0.70728576
-0.012106191 0.051787462 0.70616668
-0.00672762 0.052696194 0.70633334
-0.0026911907 0.052502856 0.70674998
0.0011236509 0.053031906 0.70783341
-0.020902859 0.056640003 0.708
-0.019554287 0.055965718 0.708
-0.0074171433 0.055965718 0.708
-0.0047200001 0.055965718 0.708
0.0033668785 0.057252593 0.70722228
0.0069507938 0.057628259 0.70633334
0.011654287 0.059394293 0.70600003
0.016114287 0.059757147 0.70500004
0.02323143 0.059488576 0.70500004
0.027260004 0.059220005 0.70500004
0.0074171438 0.060011432 0.70800006
0.011912382 0.061360009 0.70800006
0.018205717 0.061360009 0.70800006
0.023559844 0.061932229 0.70683336
0.027571537 0.062542543 0.70611107
0.030214287 0.06177143 0.70500004
0.03262227 -0.0027191667 0.71362507
0.037532095 -0.0025597806 0.7125386
0.041858815 -0.0024911908 0.71275014
0.046898417 -0.0013596828 0.7136668
-0.0020400002 0.0047600004 0.71400005
0.0020392858 0.0044183335 0.71375006
0.018700002 0.0044200006 0.71400005
0.022429209 0.0040777782 0.7136668
0.027368054 0.0033973162 0.71354556
0.032544825 0.0027102977 0.71193761
0.037705891 0.0019064068 0.71045458
0.041247621 0.0013523811 0.71000004
0.047739875 0.002517279 0.71171445
0.051257718 0.002583429 0.71380007
-0.011555239 0.0088358736 0.71366668
-0.0072024763 0.0082889525 0.71340007
-0.0027154763 0.007469763 0.71308345
0.0027172226 0.0074716676 0.7132501
0.0074712178 0.007470794 0.71322232
0.012215476 0.0074634142 0.71258348
0.017602066 0.0074458732 0.71083343
0.02188905 0.0069944458 0.71083343
0.02710524 0.0060985717 0.71149999
0.032467861 0.0060878573 0.71025002
0.047427215 0.0072745578 0.71285719
-0.021080002 0.014280001 0.71400005
-0.017309764 0.01278262 0.71275008
-0.012206785 0.012203692 0.71200019
-0.007450636 0.012190002 0.71116674
-0.0027528263 0.012049843 0.71086669
0.0025519417 0.011717217 0.71092314
0.0069957152 0.011056985 0.71083343
0.012179049 0.01015 0.7105
0.04410715 0.012215715 0.71250004
0.045900002 0.012920001 0.71400005
-0.033320002 0.019720001 0.71400011
-0.025704002 0.018632 0.71400005
-0.022286098 0.018073145 0.71340007
-0.018044289 0.016014129 0.7105
-0.011688437 0.016711567 0.7100001
-0.0081142867 0.015552382 0.71000004
0.0027047622 0.019609526 0.71000004
0.043119583 0.017833229 0.71111119
0.046744574 0.018072002 0.71340007
-0.031280003 0.022440001 0.71400005
-0.026912764 0.022698669 0.7136001
-0.022440001 0.021080002 0.71400011
0.0027047622 0.020961907 0.71000004
0.03856159 0.023001274 0.71033335
0.042720642 0.022378627 0.71200013
0.047125906 0.021322096 0.71300006
-0.025124764 0.025124764 0.71300006
0.033768166 0.02641633 0.71114296
0.037154954 0.026715336 0.71190006
0.041125957 0.025491193 0.71375006
-0.19788001 0.034680001 0.71400005
-0.18564001 0.034000002 0.71400005
-0.18245798 0.034083813 0.71371436
-0.17749393 0.033630598 0.71337515
-0.17257929 0.033293102 0.71341681
-0.16735071 0.033742014 0.71333337
-0.16365048 0.033273336 0.71300006
-0.15572001 0.034680001 0.71400005
-0.15232001 0.034680001 0.71400005
-0.14756003 0.034680001 0.71400011
-0.14245263 0.034595005 0.71224999
-0.11628 0.033320002 0.71400011
-0.11261652 0.033241913 0.71233338
-0.10722858 0.033525523 0.71260005
-0.10232953 0.033205505 0.71155566
-0.097631 0.033281565 0.71054548
-0.09331429 0.033809528 0.71000004
-0.067665718 0.034510002 0.7105
-0.051390477 0.034485716 0.71000004
0.034680001 0.030600002 0.71400005
-0.19810669 0.037853338 0.71400011
-0.19210002 0.038420003 0.71400005
-0.18738201 0.037666578 0.71390009
-0.18221849 0.037395485 0.71391678
-0.17742458 0.037388787 0.71377784
-0.17267971 0.037391592 0.71383351
-0.16725266 0.037476711 0.71309108
-0.16218501 0.037795972 0.71161544
-0.15755723 0.037351985 0.71308351
-0.15232003 0.037400007 0.71400017
-0.14756002 0.037400004 0.71400011
-0.14265072 0.037360713 0.7132501
-0.13724771 0.037368812 0.71341676
-0.1324762 0.037364449 0.71333343
-0.12760191 0.038007937 0.71266687
-0.1224473 0.038560957 0.71033335
-0.11783215 0.038523577 0.71175003
-0.11262296 0.037253249 0.71354556
-0.10733742 0.037177578 0.71209097
-0.10303105 0.037637904 0.71080011
-0.097577631 0.037270956 0.71150011
-0.092516772 0.037578475 0.71220016
-0.087313622 0.038169667 0.71385729
-0.082455114 0.037884224 0.71214288
-0.076788694 0.037717506 0.71037501
-0.072310008 0.038441427 0.71125007
-0.067738816 0.037933335 0.71125013
-0.06233073 0.037777849 0.71086675
-0.057483092 0.03787135 0.71008337
-0.053612247 0.036997281 0.7100001
-0.036400001 0.038835432 0.71040004
-0.034485716 0.039219052 0.71000004
0.029096669 0.036540478 0.7105
0.032820638 0.036442228 0.71300006
-0.19749145 0.041965719 0.71400011
-0.19265531 0.042315859 0.71335727
-0.18749934 0.042118993 0.71331257
-0.1821755 0.042145241 0.71375006
-0.17725234 0.042105641 0.71308351
-0.17252363 0.042111486 0.71318769
-0.16707525 0.042107977 0.71312511
-0.16181208 0.042653125 0.71088886
-0.15726215 0.042025719 0.71175015
-0.15218608 0.04212274 0.71337503
-0.1473881 0.042110484 0.71316683
-0.1428524 0.041588418 0.71200013
-0.13734984 0.042190798 0.71200019
-0.1324143 0.042100959 0.71300018
-0.12791327 0.042334687 0.71125001
-0.11714572 0.041305717 0.71100008
-0.11084001 0.040120002 0.71400005
-0.10812001 0.040120002 0.71400011
-0.097103819 0.040063813 0.71300006
-0.092522956 0.041787017 0.71290916
-0.087234296 0.041868579 0.71400011
-0.082121342 0.041740578 0.71380013
-0.077438578 0.042116426 0.71325016
-0.072804295 0.042514581 0.71310014
-0.067943886 0.042805485 0.71341681
-0.062460877 0.042599052 0.7134617
-0.057366867 0.042856958 0.71200007
-0.052795716 0.042507332 0.71069998
-0.036616191 0.042041905 0.71200001
-0.034485716 0.041923814 0.71000004
-0.19652002 0.045560002 0.71400005
-0.19298477 0.045528099 0.71350002
-0.18748263 0.045512147 0.71325004
-0.18228216 0.046377618 0.71350002
-0.1777084 0.047557618 0.71335733
-0.17266251 0.047411442 0.71320015
-0.16718987 0.047636803 0.71276486
-0.16251907 0.046821907 0.71249998
-0.15747839 0.046227764 0.71228582
-0.15225555 0.046764668 0.71370012
-0.14754918 0.046692979 0.71312505
-0.14259811 0.04650069 0.71057147
-0.13737102 0.047044873 0.71133339
-0.13224453 0.046684526 0.71300006
-0.12813039 0.046531219 0.71266675
-0.090440005 0.045560002 0.71400005
-0.080920003 0.045560002 0.71400005
-0.077444449 0.046466667 0.71400011
-0.072080001 0.046240002 0.71400011
-0.068680003 0.046240002 0.71400005
-0.061540004 0.045900002 0.71400005
-0.056650996 0.046890825 0.71354562
-0.052317701 0.047562461 0.71341681
-0.04765537 0.047657523 0.7128002
-0.02313905 0.048307434 0.71040004
-0.17680001 0.051680002 0.71400005
-0.17476003 0.052360006 0.71400011
-0.16753583 0.050871432 0.71220005
-0.16365048 0.050928574 0.71300006
-0.051680002 0.051000003 0.71400005
-0.047192004 0.051272005 0.71400005
-0.025054287 0.051462859 0.71100003
-0.02289864 0.052463271 0.71014291
-0.016228573 0.054771431 0.71000004
-0.012396826 0.054771435 0.71000004
-0.0081142867 0.054771431 0.71000004
-0.017465025 0.057829354 0.71281826
-0.011768414 0.0563481 0.7128334
-0.0069068582 0.057558667 0.71100003
-0.0025232905 0.057687625 0.71109104
0.00067746034 0.057583496 0.71133339
0.038346671 -0.010271429 0.71900004
0.054096196 -0.010271429 0.71900004
0.056404006 -0.010789144 0.71700001
0.028417619 -0.0065052388 0.71900004
0.032795958 -0.0075175399 0.7174167
0.037574608 -0.0075168256 0.71733332
0.042084288 -0.0070145242 0.71849996
0.049987622 -0.0068476195 0.71900004
0.052860241 -0.007356429 0.71850002
0.057360008 -0.0075114295 0.71700001
0.060859051 -0.0075200005 0.71800005
-0.00068476197 -0.0013695239 0.71900004
0.0024455786 -0.001271701 0.71900004
0.0082171429 -0.00068476197 0.71900004
0.012782224 -0.0011412699 0.71900004
0.017803811 -0.0020542862 0.71899998
0.022570638 -0.0027376194 0.71816671
0.0273275 -0.0027342855 0.71737498
0.043889847 -0.0043209526 0.71633339
0.048169147 -0.0035485716 0.71640009
0.052580323 -0.0027322227 0.71700001
0.057005063 -0.0030994141 0.71715385
-0.011640953 0.0047933338 0.71900004
-0.0069340151 0.0034167352 0.71785718
-0.0027791115 0.0025944761 0.71753335
0.0029582544 0.0021607939 0.71683335
0.007513334 0.0027298413 0.71716678
0.012294227 0.0027305356 0.71718752
0.017404605 0.0021607936 0.7166667
0.022507779 0.0013639684 0.71616673
0.026867051 0.0012274286 0.71600002
0.053125907 0.0023240002 0.71700001
0.055234291 0.00068190478 0.71600002
-0.021227621 0.0089019053 0.71900004
-0.017237885 0.0078205299 0.71755558
-0.012515874 0.0070532281 0.7167778
-0.0078450004 0.0064802384 0.71625
0.049439684 0.0084301597 0.71766675
0.051214289 0.0061457148 0.71700001
-0.026020955 0.014380001 0.71900004
-0.022399645 0.012652263 0.71812499
-0.018759288 0.010573097 0.71625006
0.048388019 0.012068175 0.71725005
-0.041046988 0.018470796 0.71833342
-0.037636667 0.018304048 0.71850002
-0.03253524 0.017972698 0.7166667
-0.027863145 0.01748124 0.71710002
-0.023217145 0.015705716 0.71700001
0.049178258 0.017076034 0.71716678
-0.032049526 0.021139052 0.71600002
-0.028640002 0.02113905 0.71600002
0.038186669 0.029321907 0.71600002
0.041855238 0.028188575 0.71750003
-0.21200398 0.033822726 0.71642864
-0.2075647 0.033456273 0.71691674
-0.20246728 0.033361305 0.71754545
-0.19755822 0.033471428 0.71722221
-0.19218384 0.033713527 0.71660006
-0.18855622 0.033473656 0.71733344
-0.11821667 0.034165241 0.71750003
0.034371115 0.033007305 0.71700001
0.037719917 0.032750741 0.71772736
0.040926289 0.031892765 0.71860009
-0.21608287 0.038293336 0.71800005
-0.21226923 0.037539683 0.7166667
-0.2075408 0.037548259 0.71683335
-0.20277821 0.037550904 0.71688896
-0.19688874 0.037058577 0.71616673
-0.19275177 0.036595561 0.71600002
-0.18888763 0.036140956 0.71600002
-0.12069715 0.036140956 0.71600002
-0.11762857 0.037163809 0.71600002
0.034922861 0.036292382 0.71900004
0.03674889 0.036748894 0.71900004
-0.21192688 0.041614812 0.71845454
-0.20709875 0.042375244 0.71766663
-0.20316608 0.042200178 0.7178182
-0.11560406 0.042413101 0.71825004
-0.11260656 0.041991752 0.71755558
-0.10762132 0.042604644 0.71862501
-0.10476858 0.043824762 0.71900004
-0.09069334 0.04091429 0.71600002
-0.085920006 0.044323813 0.71600002
-0.083192386 0.044323813 0.71600002
-0.19229241 0.048210483 0.71700001
-0.18758151 0.048337962 0.71771437
-0.18317381 0.049645241 0.71900004
-0.1617243 0.049131908 0.71649998
-0.15743873 0.049370795 0.7166667
-0.1518831 0.049490239 0.71675003
-0.14797334 0.04977905 0.71600002
-0.1061381 0.045879051 0.71900004
-0.10476858 0.045879051 0.71900004
-0.086991571 0.046272114 0.71600002
-0.082510486 0.047051437 0.71600002
-0.077964455 0.04841524 0.71600002
-0.072333336 0.048449051 0.71650004
-0.066981912 0.046934605 0.71766675
-0.062613651 0.048348255 0.71722221
-0.058251239 0.049247429 0.71620005
-0.18591288 0.052384291 0.71900004
-0.18214667 0.052041907 0.71900004
-0.1783143 0.052744225 0.71657151
-0.17320383 0.051824763 0.71600002
-0.16502763 0.054096196 0.71900004
-0.16224574 0.052625146 0.71759999
-0.15757768 0.052222122 0.71833336
-0.1528901 0.051876392 0.71860009
-0.14859334 0.051357146 0.71900004
-0.056388576 0.05174629 0.71680003
-0.052765172 0.052960552 0.71685719
-0.048100688 0.053371981 0.71714288
-0.18557049 0.055465717 0.71900004
-0.18009239 0.056150481 0.71900004
-0.17810193 0.055870801 0.71833342
-0.16091906 0.055465717 0.71900004
-0.051357146 0.056150481 0.71900004
0.026854288 -0.015837144 0.72300005
0.043380003 -0.015837144 0.72300005
0.0089514293 -0.010328572 0.72300005
0.014460001 -0.012394287 0.72300005
0.015837144 -0.011705715 0.72300005
0.023640957 -0.012623811 0.72300005
0.027405147 -0.012440193 0.72299999
0.033176906 -0.011519287 0.72200006
0.036813717 -0.012364763 0.72120011
0.042604052 -0.01237012 0.7215001
0.047506116 -0.012393096 0.72291678
0.051005911 -0.011137335 0.72180009
0.0034428574 -0.0068857148 0.72300005
0.0075742868 -0.0075742868 0.72300005
0.012326755 -0.0074467538 0.72272736
0.018030668 -0.0074331434 0.7226001
0.022691432 -0.0075657154 0.722
0.026974645 -0.0080765486 0.72162509
0.043200005 -0.0085714292 0.72000003
0.047358099 -0.0075511113 0.72066677
0.050742861 -0.0089142863 0.72000003
-0.0067390478 -0.0017889524 0.72200006
-0.0030425175 -0.0029468711 0.72135723
0.0029794711 -0.0038965079 0.7217778
0.0074214288 -0.0031631433 0.7215001
0.012086572 -0.0037098096 0.72110003
0.017828573 -0.0048000002 0.72000003
0.058528576 -0.00068857148 0.72300005
-0.017412066 0.0043520639 0.72166675
-0.012108001 0.0026131428 0.72240013
-0.0083756195 0.0017843811 0.7208001
0.054246671 0.0041209524 0.72100008
0.05577429 0.0020657144 0.72300005
-0.022423811 0.0078417147 0.7222001
-0.019428574 0.006628572 0.72000003
0.053138096 0.0077383346 0.72225004
0.05577429 0.0089514293 0.72300005
-0.046134289 0.014460001 0.72300005
-0.041629527 0.014105715 0.72250009
-0.036634643 0.013587024 0.72237509
-0.032076605 0.013437688 0.72100013
-0.027648572 0.012209745 0.72161543
-0.023586035 0.010761905 0.72133338
0.052809879 0.012187012 0.72181827
0.05577429 0.011017144 0.72300005
-0.05059262 0.018928811 0.72275007
-0.047350913 0.018076971 0.72245467
-0.043398663 0.017442478 0.72100013
-0.037714288 0.01577143 0.72000003
-0.032914288 0.01577143 0.72000003
-0.029485716 0.01577143 0.72000003
0.051915716 0.01684762 0.72200006
-0.050883815 0.021316191 0.72200006
-0.047150243 0.021682622 0.72275007
-0.044007622 0.021316191 0.72200006
0.04463334 0.026781907 0.72100008
-0.21600002 0.034971431 0.72000003
-0.12137143 0.034971431 0.72000003
-0.12 0.034285717 0.72000003
0.042246431 0.032969289 0.72125006
-0.22860575 0.035805717 0.72300005
-0.22269613 0.038300745 0.72244453
-0.21810232 0.037196003 0.72060007
0.03859143 0.038042095 0.72100008
0.041372251 0.037441909 0.72228581
-0.22416383 0.040569525 0.72200006
-0.11245715 0.044571433 0.72000003
-0.10834286 0.044571433 0.72000003
0.038737144 0.041028574 0.72200006
0.040625717 0.042002864 0.72300005
-0.18651429 0.048685718 0.72000003
-0.11291429 0.046400007 0.72000003
-0.10857143 0.046400007 0.72000003
-0.066514298 0.048685722 0.72000003
-0.19118935 0.053193152 0.72160006
-0.18870239 0.052151434 0.72050011
-0.18363431 0.053348579 0.72000003
-0.15717399 0.054221593 0.72066677
-0.15360001 0.054171432 0.72000003
-0.076800004 0.050057147 0.72000003
-0.072685719 0.050057147 0.72000003
-0.067247145 0.050091907 0.72050005
-0.056307621 0.054246671 0.72100008
-0.19115812 0.056384768 0.72200006
-0.18742451 0.056981236 0.72085726
-0.18328165 0.056522451 0.72000003
-0.16232382 0.056492198 0.72160006
-0.15804143 0.055658575 0.7215001
-0.1547143 0.055697147 0.72200006
0.0027742861 -0.01595762 0.72850001
0.0075998418 -0.016582701 0.72550005
0.011507938 -0.017261906 0.72500002
0.022806033 -0.015895557 0.7256667
0.044880956 -0.015880954 0.72500002
0.046952382 -0.015880954 0.72500002
-0.0023142861 -0.010877144 0.72900003
0.0027688099 -0.01246905 0.72724998
0.0074704774 -0.012618702 0.72509086
0.011738095 -0.012428572 0.72500002
0.017389785 -0.012493161 0.72509086
0.021723447 -0.012375458 0.72500002
0.029690478 -0.011738096 0.72500002
0.031531751 -0.012658732 0.72500008
-0.011802858 -0.0062485719 0.72900003
-0.0070744767 -0.0070748585 0.72820008
-0.0027698416 -0.0076166671 0.72683334
0.0020719049 -0.0082877791 0.72516674
0.013119048 -0.0089761913 0.72500002
0.017261906 -0.0082857152 0.72500002
-0.021511432 -0.0012493334 0.72860003
-0.017139185 -0.0016850341 0.72814298
-0.012265852 -0.0024752386 0.727
-0.008195648 -0.003456871 0.72571439
0.06105572 -0.00069380959 0.72850001
-0.035408575 0.0048600002 0.72900003
-0.032435715 0.0036419053 0.72850007
-0.0275083 0.0030654429 0.72728574
-0.022273276 0.0026267939 0.7262668
-0.017469389 0.0016772791 0.72542864
-0.01404635 0.0011511112 0.72533339
0.057793718 0.0030478099 0.7276001
0.06190715 0.003124286 0.72900003
-0.049294289 0.0090257153 0.72900003
-0.04096286 0.0090257153 0.72900003
-0.036754698 0.0082219057 0.72814292
-0.03252222 0.0076100547 0.72655559
-0.027638098 0.0075998418 0.72549999
-0.02370635 0.006674604 0.72500008
0.057592981 0.0074367868 0.72637498
0.062281303 0.0075090048 0.72881824
-0.056648575 0.014104446 0.72833335
-0.052472606 0.012942933 0.7271539
-0.04742308 0.012079635 0.72653848
-0.042909238 0.012039906 0.72670001
-0.037843574 0.011231192 0.72574997
-0.032728579 0.010909525 0.72500002
-0.028309526 0.010357143 0.72500002
0.054547623 0.014500001 0.72500002
0.057369765 0.012441191 0.72575003
0.061791431 0.010414287 0.72900003
-0.061497148 0.018185144 0.7288
-0.057266314 0.017473456 0.72662497
-0.05289048 0.017123811 0.72499996
-0.049023814 0.015880954 0.72500002
0.054070096 0.017563431 0.72600007
0.056507148 0.016987622 0.72800004
-0.060809847 0.020578733 0.72833341
-0.057641909 0.021291431 0.727
-0.053894293 0.02072905 0.72549999
0.048144385 0.023724955 0.72840005
0.051724289 0.02187 0.72900003
0.044880956 0.029690478 0.72500002
0.047836117 0.02773024 0.72791666
0.050682861 0.025688574 0.72900003
-0.22578573 0.033833336 0.72500002
-0.22279367 0.033373021 0.72500002
-0.21819049 0.033833336 0.72500002
0.044551194 0.032809287 0.72525001
0.046995621 0.032578096 0.72780007
-0.22661431 0.036319051 0.72500002
-0.22279367 0.035674606 0.72500002
-0.21888097 0.035214286 0.72500002
0.043860573 0.037220575 0.72640008
0.045791592 0.037234765 0.72850007
0.039357144 0.044190481 0.72500002
0.042909525 0.042216193 0.72666669
0.045128573 0.04096286 0.72900003
-0.087241903 0.04915905 0.727
0.041600004 0.04506667 0.72800004
-0.20310409 0.053468715 0.72642863
-0.19721963 0.053966533 0.72514284
-0.0024863945 -0.016609117 0.73100007
-0.01188381 -0.010485715 0.73400009
-0.0073806676 -0.012254762 0.73110002
-0.003063238 -0.013506095 0.73100001
-0.020952385 -0.0076838098 0.73333335
-0.017655512 -0.0072827218 0.73314297
-0.012618702 -0.0078008664 0.73236364
-0.0083542857 -0.0083542857 0.73100001
-0.03565143 -0.00069904764 0.73400003
-0.031457145 -0.0013980953 0.73400003
-0.02732381 -0.0024433336 0.73250002
-0.022626149 -0.0034869267 0.73200005
-0.017688002 -0.0043177144 0.73119998
-0.013923811 -0.0048733335 0.73100001
-0.046556573 0.0043340954 0.73400003
-0.042409524 0.0036638097 0.73299998
-0.037604909 0.0029493778 0.7322309
-0.03310262 0.001045 0.73175007
-0.029240001 0.00069619052 0.73100001
-0.051991194 0.0087226192 0.73275
-0.047222432 0.0075415592 0.73209095
-0.042663455 0.0074872621 0.73137504
-0.03857981 0.0068243816 0.73120004
-0.065011434 0.014680001 0.73400003
-0.061869342 0.014105524 0.73320001
-0.057698455 0.012200834 0.73212498
-0.052910481 0.010442858 0.73100001
0.059216671 0.01393381 0.73150003
0.06104096 0.012908096 0.73250002
-0.070603818 0.018874288 0.73400003
-0.067219056 0.017908571 0.73266673
-0.06339103 0.016817689 0.73142856
-0.059176195 0.016012382 0.73100001
0.058764961 0.017726097 0.73280001
-0.071163051 0.021950096 0.73400003
-0.067855813 0.021921335 0.73300004
-0.063227095 0.021901589 0.73133337
0.053250212 0.022594968 0.7315715
0.056580424 0.02212074 0.73344451
0.052279521 0.02788181 0.73190004
0.055224765 0.026563812 0.73400003
0.049149051 0.032767147 0.73199999
0.051561903 0.032558478 0.73360008
0.048136037 0.037672229 0.73250008
0.051030479 0.03565143 0.73400003
0.045980476 0.042496197 0.73150003
-0.026979368 -0.011026351 0.73900002
-0.02199751 -0.012483812 0.73769242
-0.017363692 -0.011751072 0.73662502
-0.013142859 -0.012266668 0.73600006
-0.032151435 -0.0076077068 0.73827267
-0.027383173 -0.007724551 0.73722225
-0.023859523 -0.0077195242 0.73683333
-0.016822858 -0.0091123814 0.73600006
-0.046175562 -0.001172381 0.7383334
-0.042136792 -0.0014051192 0.73737502
-0.037044976 -0.0027313228 0.73699999
-0.032689877 -0.003504762 0.73600006
-0.02873905 -0.0049066669 0.73600006
-0.052081909 0.0035190478 0.73900002
-0.048037525 0.0022468574 0.7374
-0.043123577 0.0010516667 0.73625004
-0.039253339 0.00070095243 0.73600006
-0.057325404 0.0091247624 0.73700011
-0.052151114 0.0067815883 0.73666668
-0.072090484 0.014418096 0.7385
-0.067830056 0.013080088 0.73700005
-0.062221911 0.011656191 0.73740005
-0.05966191 0.010528572 0.73700005
0.062384766 0.014019049 0.73600006
-0.075788736 0.017543336 0.73683345
-0.072471432 0.017371191 0.73700005
-0.068958417 0.016596509 0.73633337
0.061683811 0.016121905 0.73600006
-0.07500191 0.02032762 0.73600006
-0.072758861 0.022009907 0.73600006
0.05860905 0.022813335 0.73700005
0.061065719 0.02175905 0.73700005
0.056335561 0.027349528 0.73633337
0.053707626 0.032673717 0.73620003
0.056118235 0.032626804 0.73785716
0.049767625 0.038552385 0.73600006
0.052819047 0.037377145 0.73700005
0.056020003 0.036331117 0.7383334
-0.032476433 -0.016236905 0.74125004
-0.027838096 -0.016561905 0.74000001
-0.024026668 -0.016253334 0.74200004
-0.036088575 -0.010614286 0.74300003
-0.032502502 -0.012718215 0.74187493
-0.027662331 -0.013243915 0.74055558
-0.02468889 -0.013403811 0.74066675
-0.041028336 -0.0070740483 0.74275005
-0.037270837 -0.0075967866 0.74187505
-0.03462667 -0.0091866674 0.74200004
-0.050240956 -0.00070761907 0.74300003
-0.047283813 -0.0028228574 0.74100006
-0.042356431 -0.0042359531 0.74125004
-0.038814288 -0.0042352383 0.74100006
-0.055901907 0.0049533336 0.74300003
-0.052648574 0.0024742857 0.74200004
-0.06201905 0.0091619054 0.74000001
-0.057004001 0.007496953 0.74260008
-0.054340005 0.0070561906 0.74100006
-0.066101283 0.011055557 0.74100006
-0.064220004 0.011290478 0.74100006
-0.058495242 0.01057143 0.74000001
0.062229529 0.02404286 0.74250007
0.065808579 0.024766669 0.74300003
0.058281194 0.027903574 0.74175006
0.061979335 0.027310574 0.74290007
0.066940777 0.027031049 0.74300003
0.058371432 0.032083049 0.74200004
0.060147624 0.032786354 0.74300003
-0.037630953 -0.011359524 0.74550009
-0.051187146 -0.0063985717 0.74650002
-0.047729529 -0.0071238102 0.74800009
-0.043325242 -0.00816881 0.74575001
-0.039023813 -0.0092238104 0.74500006
-0.052756578 -0.0029864132 0.74653345
-0.04861366 -0.0045069847 0.7470001
-0.066251442 0.0035619051 0.74800003
-0.062957726 0.003845524 0.74780011
-0.057574295 0.0037895241 0.74633336
-0.054330163 0.0011860318 0.74733341
-0.066785537 0.0081161922 0.74760002
-0.062816516 0.0073473025 0.74666673
-0.058890481 0.0070952387 0.74500006
0.063857153 0.029090479 0.74500006
0.067404769 0.029090479 0.74500006
0.062876888 0.032245543 0.74636364
0.067017719 0.031445146 0.7470001
-0.043571435 -0.010714287 0.75000012
-0.056428574 -0.0050000004 0.75000006
-0.061592385 -0.0014323811 0.75200003
-0.057874713 -0.0021430687 0.75022227
-0.061922669 0.0012864763 0.75080007
-0.05817448 0.0012860954 0.75040007
