# .PCD v0.7 - Point Cloud Data file format
VERSION 0.7
FIELDS x y z
SIZE 4 4 4
TYPE F F F
COUNT 1 1 1
WIDTH 973
HEIGHT 1
VIEWPOINT 0 0 0 1 0 0 0
POINTS 973
DATA ascii
-0.15060274 0.022189118 0.69400001
-0.14758125 0.023511024 0.69400001
-0.14474858 0.023794288 0.69400001
-0.12265812 0.024002861 0.6936667
-0.14430796 0.026217779 0.69400001
-0.13681716 0.025777144 0.69400001
-0.13192444 0.028041825 0.69354546
-0.12755364 0.027763154 0.69284618
-0.12249476 0.027658813 0.69150001
-0.11765239 0.028029529 0.69192308
-0.11418001 0.029700002 0.69300002
-0.1307274 0.032352142 0.69325
-0.12744065 0.032356404 0.69333333
-0.12258405 0.032953572 0.69199997
-0.11710959 0.032895543 0.69081247
-0.11219022 0.033089019 0.69213337
-0.10753662 0.033838626 0.69366664
-0.10428001 0.034980003 0.69300002
-0.12624191 0.035030477 0.69400001
-0.12190215 0.036669765 0.69375002
-0.11681397 0.036670163 0.69166672
-0.11243238 0.036511626 0.69200003
-0.1070743 0.036352385 0.69400001
-0.18236636 0.0095282551 0.69800007
-0.15289524 0.0099714296 0.69800001
-0.14890668 0.0093066674 0.69800001
-0.18081525 0.011965714 0.69800001
-0.17749144 0.012630478 0.69800001
-0.17258932 0.01307143 0.69788891
-0.16724508 0.013069208 0.69777781
-0.16366439 0.012896381 0.69800001
-0.15728268 0.013428192 0.69800001
-0.15274921 0.012618097 0.69733334
-0.14957145 0.012630477 0.69800007
-0.17711158 0.016429117 0.69800007
-0.17263709 0.017264228 0.69718766
-0.16728 0.01725905 0.69700015
-0.16219462 0.017224193 0.69740009
-0.1574409 0.017298756 0.69661552
-0.15240286 0.017226432 0.69575
-0.1483584 0.017530954 0.69730002
-0.16712739 0.02093262 0.69774997
-0.16211441 0.021593694 0.69762498
-0.15734009 0.022225481 0.69658345
-0.15339059 0.022733226 0.69522232
-0.14708257 0.02098 0.69566673
-0.14269072 0.023506431 0.69525009
-0.13694553 0.023994287 0.6960001
-0.13214751 0.023710597 0.69637507
-0.12754965 0.023336971 0.69654554
-0.12167644 0.023539286 0.69625008
-0.11903588 0.024071431 0.69566673
-0.15621907 0.025925716 0.69800001
-0.15250364 0.027599528 0.69707143
-0.14766209 0.028004618 0.69623083
-0.14219411 0.028174799 0.69660014
-0.13727905 0.028197145 0.69500011
-0.13337383 0.026807144 0.69500005
-0.1161662 0.026219524 0.69700003
-0.11275698 0.028293597 0.69681823
-0.10844523 0.028729526 0.69749999
-0.10391905 0.029785717 0.69500005
-0.14558287 0.031243812 0.69800001
-0.14162996 0.032252174 0.69744444
-0.13718995 0.032475661 0.69588894
-0.13323431 0.032480955 0.6960001
-0.1105381 0.031109527 0.69500005
-0.10683842 0.031566352 0.69533342
-0.1039231 0.032204524 0.69725001
-0.14026476 0.035232384 0.69800001
-0.13760573 0.035232387 0.69800007
-0.13295239 0.035232384 0.69800001
-0.12690812 0.036829289 0.69675004
-0.12234858 0.038648576 0.69566673
-0.11801963 0.038545337 0.69540006
-0.11251661 0.038580276 0.69671434
-0.10751226 0.038295921 0.69500011
-0.10274097 0.036457147 0.69600004
-0.12227263 0.040535957 0.69774997
-0.11766287 0.040550478 0.69800007
-0.11234477 0.040550478 0.69800001
-0.20608763 0.0042419052 0.70333338
-0.20266668 0.0032304768 0.70400006
-0.19913144 0.0026819049 0.70400006
-0.20792572 0.0080238096 0.70200002
-0.19577906 0.0087161912 0.70400006
-0.19209281 0.0073611648 0.70277786
-0.18786924 0.0073528052 0.70200008
-0.18283819 0.0073465803 0.70136368
-0.17807393 0.0084281908 0.70240003
-0.17380358 0.0083716679 0.70324999
-0.16560763 0.0087161912 0.70400006
-0.15637207 0.0082526989 0.70266676
-0.1533286 0.0083504766 0.70150006
-0.19564496 0.011666287 0.70400006
-0.19193943 0.011973553 0.70146167
-0.18757884 0.012015953 0.70091677
-0.18291089 0.012335001 0.70008337
-0.17698345 0.010269525 0.70020002
-0.17230506 0.010583675 0.70085728
-0.16793545 0.010553334 0.70140004
-0.16214311 0.011467382 0.70158339
-0.15778029 0.010962858 0.70071441
-0.15133335 0.010000001 0.70000005
-0.1475473 0.013008678 0.70244449
-0.14415239 0.014080001 0.70400006
-0.19191673 0.016893441 0.70322222
-0.18800303 0.017397147 0.7025001
-0.18294425 0.017360181 0.70106262
-0.17858459 0.018538859 0.70020002
-0.1462523 0.017127527 0.70250005
-0.14300302 0.018294422 0.70400012
-0.12368383 0.019388573 0.70200008
-0.18666168 0.021112621 0.70375001
-0.18192643 0.022225004 0.70358336
-0.17738226 0.02275984 0.70283335
-0.17229292 0.022706963 0.70118761
-0.16746502 0.023543335 0.70124996
-0.16311878 0.024120139 0.70071441
-0.15933335 0.024666669 0.70000005
-0.14237399 0.021736508 0.70111114
-0.13784273 0.022225853 0.70114297
-0.13333334 0.022000002 0.70000005
-0.12636 0.021393334 0.70200002
-0.12325117 0.021480821 0.70171434
-0.11672033 0.023252597 0.70211112
-0.11233917 0.024072027 0.70212507
-0.10861715 0.024807621 0.70400006
-0.1776762 0.026148573 0.70400012
-0.17249541 0.026589368 0.70383334
-0.16758659 0.027462572 0.7033
-0.16249849 0.027238859 0.70100015
-0.15825203 0.027514644 0.70037508
-0.11222224 0.026444448 0.70000005
-0.10736227 0.02742512 0.70237505
-0.10306786 0.028779289 0.70275003
-0.16597621 0.03060413 0.70366669
-0.1619734 0.031983957 0.70300001
-0.15728544 0.031932306 0.70184624
-0.1524554 0.032527328 0.70138472
-0.14765859 0.032869525 0.70074999
-0.14429113 0.03357175 0.70033336
-0.10203654 0.032110304 0.70109099
-0.099830009 0.030819524 0.70350003
-0.16024382 0.035535239 0.70400006
-0.15890287 0.035535239 0.70400006
-0.14681113 0.036870375 0.70388889
-0.1423261 0.037419047 0.70160007
-0.13749684 0.038045555 0.7008335
-0.13231221 0.037654217 0.70064294
-0.12822223 0.038888894 0.70000005
-0.10166346 0.037227266 0.70112503
-0.097750485 0.039501909 0.70300001
-0.14126953 0.040840954 0.70300001
-0.13737991 0.041877043 0.70288891
-0.13270003 0.042717535 0.70300013
-0.12745778 0.043030273 0.70278579
-0.12258115 0.043312766 0.70180005
-0.11752639 0.04325781 0.70207703
-0.11228605 0.04292883 0.70206672
-0.10721008 0.043172386 0.70357156
-0.1024258 0.042844843 0.70291674
-0.097586729 0.042776257 0.70181262
-0.092688583 0.044540003 0.70220006
-0.086876988 0.044443019 0.70350003
-0.083322868 0.044453658 0.70366669
-0.13342479 0.04626286 0.70400012
-0.12672001 0.04626286 0.70400006
-0.12155096 0.047145873 0.70383334
-0.11802736 0.04700096 0.7035715
-0.11242771 0.047469962 0.7038182
-0.1072254 0.047580637 0.70366669
-0.10246995 0.04755101 0.70322227
-0.097566359 0.047446035 0.70166677
-0.092098497 0.047384366 0.70075011
-0.087240577 0.047293715 0.7014001
-0.082793169 0.047632467 0.70263642
-0.079786673 0.047603816 0.70400012
-0.11129905 0.051626679 0.70400012
-0.1074866 0.052017003 0.70369238
-0.10253461 0.052273016 0.70366669
-0.097750962 0.052223574 0.70300007
-0.092328578 0.052187137 0.70250005
-0.087089092 0.052308634 0.70233345
-0.082850769 0.051532295 0.70270008
-0.078263931 0.051952973 0.70387501
-0.10593525 0.055649526 0.70400006
-0.10258286 0.05564953 0.70400012
-0.098023623 0.055917718 0.70400006
-0.092236124 0.05680234 0.70318192
-0.087084517 0.057610594 0.70337498
-0.083444528 0.056635477 0.70375001
-0.085820958 0.061013337 0.70400006
-0.20075716 0.0047000004 0.70500004
-0.19721131 0.0030265087 0.70633328
-0.19272873 0.003159195 0.70699996
-0.18823601 0.004176572 0.70740002
-0.18228191 0.0047200001 0.70800006
-0.20659527 0.0075810896 0.70528573
-0.20290107 0.0072761052 0.70609087
-0.19772516 0.0071192384 0.70520002
-0.18128572 0.0060428577 0.70500004
-0.17750669 0.0064990483 0.70600003
-0.17171985 0.0078461915 0.70616668
-0.1674343 0.0080790482 0.70700002
-0.16234985 0.0087574609 0.70733333
-0.15958001 0.0087533342 0.70700002
-0.14731969 0.0087450808 0.70633334
-0.14476667 0.0087533342 0.70700002
-0.20669726 0.011943292 0.70736361
-0.20274502 0.012125002 0.70724988
-0.19856553 0.012369525 0.7058
-0.14695747 0.010976191 0.70566672
-0.14259724 0.011983112 0.70693332
-0.13906193 0.012580318 0.70766664
-0.20565715 0.015508573 0.708
-0.20228572 0.016182858 0.70800006
-0.19706401 0.017314896 0.70663637
-0.19396096 0.019060638 0.70633334
-0.14180414 0.016801588 0.70566666
-0.13826504 0.017923336 0.70749998
-0.12137143 0.019554287 0.708
-0.11788954 0.019535875 0.70733333
-0.11395429 0.019554287 0.708
-0.19670117 0.021975813 0.70780003
-0.19259101 0.022896849 0.70706242
-0.18759251 0.02385238 0.7065556
-0.18330002 0.02439524 0.7050001
-0.13721216 0.020851191 0.70625007
-0.1328343 0.020902861 0.70800006
-0.12928 0.020873334 0.70700002
-0.12074699 0.021281591 0.70566672
-0.11758144 0.021164764 0.70550007
-0.11301174 0.021749845 0.70633334
-0.10788144 0.023773495 0.70650005
-0.10369334 0.024913335 0.70700002
-0.18677716 0.026297145 0.70800006
-0.18203285 0.027449051 0.70725
-0.17725676 0.028150341 0.70614284
-0.17313859 0.028576668 0.70599997
-0.16852859 0.02887143 0.70500004
-0.10608572 0.026185716 0.70500004
-0.10265049 0.027118098 0.70600003
-0.18003429 0.030342858 0.708
-0.17733715 0.030342858 0.70800006
-0.17246129 0.031527091 0.70766664
-0.168056 0.032563429 0.70639992
-0.16382858 0.034242861 0.70500004
-0.10004286 0.03357143 0.70500004
-0.097460292 0.033160292 0.70770007
-0.092377149 0.034388572 0.708
-0.086043499 0.033922859 0.70766664
-0.082501918 0.033790071 0.70757145
-0.1658743 0.037422858 0.708
-0.16251872 0.037646838 0.70699996
-0.15736657 0.037829395 0.70673341
-0.15253972 0.037838753 0.70653844
-0.14838573 0.038271435 0.70500004
-0.14435716 0.03961429 0.70500004
-0.10586192 0.03916667 0.7050001
-0.10138573 0.038047627 0.70500004
-0.097202264 0.037131429 0.70654541
-0.092820831 0.038033336 0.70771438
-0.087457016 0.037865907 0.70746672
-0.082211263 0.03773661 0.70756251
-0.16182858 0.041131433 0.708
-0.15778287 0.041131433 0.708
-0.15236203 0.041798458 0.70787507
-0.14749542 0.041757308 0.70716667
-0.14277789 0.042556513 0.70677781
-0.13764286 0.044538103 0.7050001
-0.13092858 0.044985719 0.70500004
-0.10742858 0.040957145 0.70500004
-0.092736378 0.042296886 0.70700008
-0.087545156 0.042090669 0.70599997
-0.081843816 0.042491592 0.70633328
-0.079143576 0.043106429 0.70725
-0.14160001 0.045177147 0.708
-0.13817103 0.046826262 0.70671433
-0.13223845 0.048119172 0.70662498
-0.1275823 0.047726288 0.7058
-0.12314 0.04847715 0.70500004
-0.11660477 0.048566669 0.7050001
-0.1148143 0.049014289 0.70500004
-0.078891434 0.045177147 0.708
-0.13148573 0.05057143 0.708
-0.12722667 0.051733576 0.70775008
-0.12241092 0.051745113 0.70727271
-0.11703012 0.052272603 0.7071538
-0.11313375 0.053064901 0.70528579
-0.10630953 0.053490482 0.7050001
-0.081767306 0.05398953 0.70566672
-0.07922858 0.054385718 0.70500004
-0.11634915 0.056489337 0.70779997
-0.11237705 0.057198633 0.7065556
-0.10788001 0.057438668 0.70619994
-0.10225017 0.058526039 0.70633334
-0.097189292 0.058582149 0.70499998
-0.093060009 0.059488576 0.70500004
-0.081993759 0.058226354 0.70633328
-0.079153344 0.056282859 0.70633334
-0.11193144 0.060011432 0.708
-0.10738 0.060854293 0.70800006
-0.10216439 0.062404003 0.70760006
-0.097336583 0.062738106 0.70679998
-0.092569627 0.062386237 0.70572728
-0.087917998 0.062672064 0.70588887
-0.082849294 0.061632149 0.70725
-0.10181715 0.065405719 0.708
-0.097097151 0.065405719 0.708
-0.092377149 0.065405719 0.70800006
-0.1922597 -0.0013587305 0.71333337
-0.18972002 -0.0013600001 0.71400005
-0.18088001 -0.00068000006 0.71400005
-0.19168591 0.00094685721 0.71020001
-0.18732287 0.0025409525 0.71200001
-0.18267767 0.0024025112 0.71209097
-0.17801398 0.003004014 0.71264303
-0.17307906 0.0044866675 0.71380001
-0.16932002 0.0047600004 0.71400005
-0.17513335 0.0060857148 0.71000004
-0.17217311 0.0061007147 0.71175003
-0.16738573 0.0064500002 0.713
-0.16285573 0.0074642859 0.71250004
-0.15980001 0.0074800006 0.71400005
-0.14132382 0.0087904772 0.71000004
-0.13997144 0.0081142867 0.71000004
-0.20894288 0.014200001 0.71000004
-0.13692124 0.011847547 0.71253854
-0.13377096 0.013920001 0.71300006
-0.21087675 0.018627239 0.71380007
-0.20742695 0.017805282 0.71154553
-0.20237112 0.018951429 0.71066678
-0.1994762 0.019609526 0.71000004
-0.1366224 0.016908415 0.71016669
-0.13287957 0.017743176 0.71113348
-0.12850904 0.01816286 0.71300006
-0.11717096 0.018285874 0.71116674
-0.11268117 0.018489843 0.71322232
-0.10781734 0.019442478 0.71380001
-0.10404 0.019720001 0.71400005
-0.21057335 0.021533336 0.71400011
-0.20720722 0.022419896 0.71333343
-0.20290975 0.022395873 0.71255571
-0.19920833 0.022660717 0.71025002
-0.11112811 0.021006193 0.71150005
-0.10692686 0.022117337 0.71240014
-0.10277786 0.022593573 0.71350002
-0.098872006 0.023256002 0.71400005
-0.20141302 0.026960952 0.7136668
-0.19719777 0.027274981 0.71109086
-0.19212827 0.027737459 0.71033335
-0.18730478 0.028400004 0.71000004
-0.18392381 0.029076193 0.71000004
-0.10135049 0.026385525 0.71040004
-0.097542852 0.027093811 0.71125007
-0.092580698 0.027463542 0.71328574
-0.087562867 0.02737429 0.71372747
-0.08420191 0.029199049 0.71300006
-0.19710796 0.031265717 0.7136668
-0.19220549 0.031385243 0.71249998
-0.18737644 0.032457389 0.71241677
-0.18277057 0.032471068 0.71138465
-0.17764202 0.033313163 0.71118188
-0.17282785 0.034159765 0.71025002
-0.096695244 0.031104764 0.71000004
-0.092168719 0.032204766 0.71085715
-0.087929435 0.032243337 0.71130002
-0.082504287 0.031575717 0.71300006
-0.0787412 0.033939764 0.71275002
-0.18156001 0.03638 0.71400005
-0.17724812 0.037217386 0.71375006
-0.17281325 0.037468668 0.71270007
-0.16821095 0.037737858 0.71074998
-0.1643143 0.038542859 0.71000004
-0.093990482 0.035838097 0.71000004
-0.089933336 0.035838097 0.71000004
-0.078267619 0.03743884 0.71188903
-0.17154685 0.041017309 0.71383345
-0.16742414 0.042677782 0.71316683
-0.16219185 0.043039463 0.71085721
-0.1578874 0.042815242 0.71074998
-0.15308787 0.044029765 0.71125007
-0.1475143 0.043983333 0.7105
-0.077196196 0.042334188 0.71311122
-0.072760008 0.044200003 0.71400011
-0.16692166 0.04612463 0.71371436
-0.16206644 0.04688786 0.71350008
-0.15785526 0.046596196 0.71320009
-0.15235621 0.04612463 0.71371442
-0.14728694 0.047367621 0.71327287
-0.14288348 0.047997754 0.71163636
-0.1373962 0.049408257 0.71066666
-0.13456191 0.049361907 0.71000004
-0.077051699 0.047530171 0.71093345
-0.072944291 0.045802861 0.71250004
-0.14688002 0.052360006 0.71400011
-0.14263445 0.052300002 0.71316671
-0.13753659 0.05240896 0.71280015
-0.13266562 0.052299898 0.71111119
-0.12718287 0.054346353 0.71033335
-0.12239049 0.054771435 0.71000004
-0.11968572 0.054095238 0.71000004
-0.0770263 0.051214483 0.71320003
-0.14178 0.055420004 0.71400005
-0.13668001 0.056591112 0.71400011
-0.13252279 0.057086747 0.71358347
-0.12740819 0.057605483 0.71158332
-0.12271652 0.057630375 0.71188891
-0.11852381 0.058149666 0.7111429
-0.11261091 0.062794946 0.71130776
-0.085876197 0.064238101 0.71000004
-0.18748358 -0.0017059525 0.71650004
-0.18308917 -0.0015024763 0.71680009
-0.17865905 -0.00068190478 0.71600002
-0.18752383 0.00068190478 0.71600002
-0.17677717 0.0011377779 0.7166667
-0.17226939 0.0026318368 0.71657145
-0.16734801 0.0038276196 0.71780002
-0.16297334 0.0047933338 0.71900004
-0.1574412 0.0041069053 0.71875
-0.15407144 0.0047933338 0.71900004
-0.14174572 0.0047933338 0.71900004
-0.16570286 0.0061371434 0.71600002
-0.16268739 0.0061521432 0.71775007
-0.15637431 0.0066920007 0.71700001
-0.15297583 0.0069845724 0.71900004
-0.14745209 0.0075323815 0.71900004
-0.14267287 0.0070135719 0.71850002
-0.13790159 0.007824339 0.71800005
-0.13489811 0.0089019053 0.71900004
-0.1325614 0.011870824 0.7178182
-0.12837715 0.014340001 0.71700001
-0.13101667 0.015694764 0.71650004
-0.12714216 0.017091669 0.71775007
-0.12234478 0.017313652 0.71766675
-0.11757691 0.016406907 0.71775007
-0.11312413 0.016616827 0.71700001
-0.10761961 0.017659321 0.71714288
-0.1025331 0.01948262 0.71775007
-0.097874932 0.01916413 0.71866673
-0.093127623 0.019858096 0.71900004
-0.21282479 0.022989843 0.71700001
-0.10092191 0.02113905 0.71600002
-0.096886002 0.021952383 0.71714294
-0.092881061 0.022810191 0.71710002
-0.21227622 0.026477464 0.71900004
-0.20722769 0.027173044 0.71738464
-0.20388953 0.027958099 0.71600002
-0.091375247 0.025230478 0.71600002
-0.089329533 0.025230478 0.71600002
-0.20679811 0.030814288 0.71900004
-0.20211704 0.032130588 0.71777779
-0.19742627 0.03432259 0.71871436
-0.19254175 0.034250673 0.71640009
-0.18888763 0.034777146 0.71600002
-0.080117151 0.032183811 0.71900004
-0.077096038 0.033529051 0.71850008
-0.074639052 0.034922861 0.71900004
-0.19652668 0.036292382 0.71900004
-0.19211358 0.037465483 0.71850002
-0.18781567 0.037564237 0.71711117
-0.18315524 0.038029764 0.71625006
-0.17934096 0.038868573 0.71600002
-0.076244295 0.037950002 0.71800005
-0.072820559 0.038218372 0.71842867
-0.068968579 0.037557144 0.71700001
-0.19104858 0.040400956 0.71900004
-0.18704668 0.041242864 0.71875
-0.1823592 0.042262346 0.71838462
-0.1769743 0.04199715 0.71700001
-0.173017 0.043424927 0.71616673
-0.075797155 0.041654289 0.71700001
-0.072730005 0.04124286 0.71875
-0.069160961 0.040400956 0.71900004
-0.17633581 0.046922859 0.71820009
-0.17244075 0.047910925 0.71784616
-0.1678922 0.048497532 0.71719998
-0.16311145 0.049275242 0.71660006
-0.15682629 0.049283136 0.71728575
-0.1522471 0.048863407 0.71685719
-0.14933716 0.04977905 0.71600002
-0.16502763 0.052726671 0.71900004
-0.16218869 0.052694924 0.71855557
-0.1574589 0.052714452 0.71883333
-0.15234858 0.05260529 0.71733338
-0.14933716 0.05250667 0.71600002
-0.13867702 0.057985585 0.71628582
-0.18071859 -0.0027500002 0.72150004
-0.17737512 -0.0018917858 0.72187507
-0.1725924 -0.00068761909 0.72200006
-0.17622858 0.0006857143 0.72000003
-0.1728 0.0006857143 0.72000003
-0.16735157 0.0012753743 0.72142863
-0.16268796 0.002517143 0.72144449
-0.15806763 0.0015102859 0.72100008
-0.15384842 0.0027468256 0.72116679
-0.14743869 0.004534286 0.72140008
-0.14391144 0.0048200004 0.72300005
-0.15840001 0.0061714291 0.72000003
-0.15085715 0.0061714291 0.72000003
-0.14742859 0.0061714291 0.72000003
-0.13508572 0.0075428574 0.72000003
-0.13239829 0.0075599998 0.72180003
-0.12858438 0.008113144 0.72200006
-0.13097143 0.012342858 0.72000003
-0.12754723 0.012068572 0.72114301
-0.12249926 0.012510287 0.72180009
-0.11775742 0.013454016 0.72185725
-0.1127487 0.013749169 0.72187507
-0.10726716 0.013752144 0.72200012
-0.10240985 0.014433335 0.72166675
-0.097600006 0.014400001 0.72000003
-0.092828587 0.014440002 0.72200006
-0.12634668 0.016479049 0.72100008
-0.12239684 0.015786033 0.72066677
-0.1189581 0.015815239 0.72200006
-0.11203208 0.015807938 0.72166675
-0.10719286 0.015804287 0.7215001
-0.10247447 0.017147241 0.72020018
-0.096960008 0.017005717 0.72000009
-0.092347115 0.017670047 0.72118199
-0.090452075 0.02175492 0.72133344
-0.089045718 0.023033813 0.72200006
-0.21600002 0.02537143 0.72000003
-0.21280003 0.028266668 0.72000009
-0.077120006 0.029608574 0.72300005
-0.21245468 0.032137338 0.72100013
-0.20774478 0.032766193 0.72050011
-0.20274286 0.034057148 0.72000003
-0.08056286 0.030985717 0.72300005
-0.076833151 0.031200001 0.72160006
-0.072651438 0.033126742 0.72123092
-0.06892699 0.034119368 0.72133344
-0.21168722 0.036466882 0.72244447
-0.20715961 0.036801033 0.7222501
-0.20272316 0.037694722 0.72200012
-0.19747071 0.037878733 0.72022235
-0.19405715 0.039085716 0.72000003
-0.07227429 0.036891431 0.72000003
-0.069257148 0.037714288 0.72000003
-0.20163241 0.041388303 0.72257155
-0.19710059 0.042197905 0.72160012
-0.19300537 0.042745978 0.72072744
-0.18840002 0.043714289 0.72000003
-0.18102857 0.044571433 0.72000003
-0.17897144 0.044571433 0.72000003
-0.074057147 0.043200001 0.72000003
-0.1922282 0.046371054 0.72240013
-0.18717431 0.047425713 0.72166669
-0.18253492 0.047274292 0.72127283
-0.17875285 0.047690004 0.72050005
-0.18238795 0.050242543 0.72266674
-0.17745431 0.051365718 0.72150004
-0.17296901 0.05216011 0.72166669
-0.16784984 0.052367628 0.72033352
-0.17749096 -0.0062400005 0.72800004
-0.18033859 -0.0041461908 0.72549999
-0.17682329 -0.0040578237 0.72728574
-0.17249152 -0.0029640696 0.72790921
-0.16759318 -0.0011553969 0.72716677
-0.16362667 -0.00069333339 0.72800004
-0.15204859 -0.00069428579 0.72900003
-0.16201144 0.000692381 0.727
-0.15855524 0.0013828573 0.727
-0.15192643 0.0023239832 0.72600001
-0.14725526 0.0022279369 0.72666669
-0.14356929 0.0031207143 0.72825003
-0.13538572 0.0048600002 0.72900003
-0.13233572 0.004155715 0.72750008
-0.12763798 0.0041615479 0.72837502
-0.12229348 0.0040665311 0.72900003
-0.11750939 0.0034704767 0.72885722
-0.07012286 0.0048600002 0.72900003
-0.068734288 0.0041657146 0.72900003
-0.13746858 0.0062485719 0.72900003
-0.1305 0.0062142862 0.72500002
-0.12648056 0.0072070751 0.72571433
-0.12281039 0.0077520967 0.72690004
-0.11811049 0.0079011442 0.72780007
-0.11239667 0.0090195248 0.72850001
-0.10830858 0.0090257153 0.72900003
-0.07012286 0.0062485719 0.72900003
-0.12083334 0.010357143 0.72500002
-0.11717756 0.010957145 0.72557145
-0.112677 0.011059524 0.72583336
-0.10818002 0.011162858 0.72614282
-0.10333263 0.012786905 0.72575003
-0.088848099 0.013188097 0.72883338
-0.090452388 0.018642858 0.72500002
-0.087358415 0.017333018 0.7280001
-0.082569428 0.01734635 0.72855562
-0.086695246 0.021979053 0.72646159
-0.082543656 0.022195874 0.72833335
-0.077615246 0.023690615 0.72857153
-0.072156198 0.023589049 0.72850007
-0.085804008 0.02694343 0.72539997
-0.082492165 0.027603079 0.72600001
-0.077394694 0.027343946 0.72557139
-0.072550006 0.02763667 0.72550005
-0.068357147 0.028309524 0.72499996
-0.082857147 0.03107143 0.72500002
-0.071119055 0.03107143 0.72500002
-0.068404287 0.031784289 0.72550005
-0.21226859 0.039411433 0.72600001
-0.2092143 0.039357144 0.72500002
-0.21216002 0.041253336 0.72800004
-0.2072614 0.042191751 0.72622222
-0.20275317 0.043812957 0.7256
-0.19885716 0.044880956 0.72500002
-0.20620286 0.045128573 0.72900003
-0.20342502 0.046090718 0.72775006
-0.19782668 0.046931811 0.72680008
-0.14729905 -0.010820953 0.73300004
-0.14260572 -0.010485715 0.73400003
-0.11534286 -0.011184763 0.73400003
-0.17683239 -0.0076580956 0.73100001
-0.17358667 -0.0062742862 0.73200005
-0.14732085 -0.0076797889 0.73311114
-0.14470287 -0.0083885714 0.73400003
-0.13072191 -0.006291429 0.73400003
-0.12932383 -0.006291429 0.73400003
-0.1158089 -0.0081555564 0.73400009
-0.11247852 -0.0076844455 0.73355561
-0.10769208 -0.0072107944 0.73266667
-0.10234001 -0.0062657148 0.73100007
-0.097545408 -0.0062857149 0.73333335
-0.094371438 -0.006291429 0.73400003
-0.17207572 -0.0034833336 0.73150003
-0.16760074 -0.0031435716 0.73325002
-0.16275601 -0.001534286 0.73220009
-0.15722544 -0.0012951023 0.73185718
-0.15233526 -0.0030897963 0.7322858
-0.14769442 -0.0026514921 0.73220009
-0.14285667 -0.0022700001 0.73350006
-0.13771239 -0.00069904764 0.73400009
-0.13214302 -0.0023277781 0.73283339
-0.12741542 -0.0029515021 0.73230773
-0.12269105 -0.002653715 0.73280013
-0.11755496 -0.0023709526 0.73209995
-0.11279696 -0.0026510477 0.73200011
-0.10766328 -0.002891565 0.73271435
-0.10289925 -0.0027929526 0.7330001
-0.09740746 -0.002560159 0.73316669
-0.09284541 -0.001396508 0.73300004
-0.14629954 0.00069666671 0.73150003
-0.14211778 0.0022443386 0.73188889
-0.13789946 0.0027851707 0.73128581
-0.13236667 0.0013928574 0.73149997
-0.1274316 0.0013925399 0.73116672
-0.12252668 0.001779577 0.73144448
-0.11701302 0.0020895242 0.73133337
-0.11283684 0.0027432384 0.73226678
-0.10765768 0.0027459052 0.73306686
-0.10261905 0.0027952385 0.73300004
-0.097245559 0.0030223811 0.73283339
-0.093132868 0.002092381 0.73250008
-0.11696 0.0062657148 0.73100001
-0.11282097 0.0069640479 0.73124999
-0.10699353 0.0073830481 0.73139995
-0.10164382 0.0067447624 0.73266673
-0.097534299 0.0069666677 0.73149997
-0.093985721 0.0069619054 0.73100001
-0.071170293 0.0079390481 0.73120004
-0.067540541 0.0076594716 0.73111111
-0.063639194 0.0080669392 0.73200005
-0.091200955 0.01462 0.73100001
-0.086327627 0.01462 0.73100001
-0.082846671 0.014620001 0.73100007
-0.071505249 0.01081381 0.73250008
-0.0674081 0.012143715 0.73270005
-0.062754706 0.012550886 0.73214298
-0.059311118 0.013256508 0.73266673
-0.046836194 0.013980953 0.73400003
-0.042641908 0.014680001 0.73400009
-0.039845716 0.014680001 0.73400003
-0.091200955 0.016708571 0.73100001
-0.080390483 0.018175241 0.73400003
-0.076196194 0.018874288 0.73400003
-0.065011434 0.016078096 0.73400003
-0.062742859 0.016034286 0.73200005
-0.046836194 0.016078096 0.73400009
-0.042641908 0.016078096 0.73400009
-0.039845716 0.016777143 0.73400003
-0.080116674 0.020899527 0.73150003
-0.07758233 0.021212246 0.73200005
-0.073897146 0.02161143 0.73200005
-0.070315242 0.025759049 0.73100001
-0.068226673 0.025759049 0.73100001
-0.21248382 0.043193337 0.73150003
-0.17524858 -0.020410478 0.73900002
-0.17313716 -0.020410478 0.73900002
-0.16680287 -0.021114286 0.73900002
-0.14756541 -0.020410478 0.73900002
-0.14357716 -0.020410478 0.73900002
-0.17524859 -0.017595239 0.73900002
-0.17260931 -0.01777119 0.73899996
-0.16727717 -0.017178914 0.73842865
-0.16494763 -0.018249525 0.73700005
-0.15512097 -0.01614381 0.73700005
-0.15252 -0.016869526 0.73800009
-0.14727925 -0.017286668 0.7378
-0.14261557 -0.017564764 0.73766667
-0.13916478 -0.016165715 0.73800004
-0.1323162 -0.016187619 0.73900002
-0.17645513 -0.011964764 0.73900002
-0.17384097 -0.014076192 0.73900002
-0.16609906 -0.014780001 0.73900002
-0.15629239 -0.012417038 0.73811114
-0.15227906 -0.012631907 0.73683345
-0.14715421 -0.013447361 0.73609096
-0.14231461 -0.013320318 0.73611116
-0.13760734 -0.012638871 0.73718762
-0.13273567 -0.012643415 0.73741674
-0.12980834 -0.012630715 0.73675001
-0.17594795 -0.008669842 0.73800009
-0.17304154 -0.0074499059 0.73800009
-0.1618762 -0.0063342862 0.73900002
-0.15726902 -0.0076051084 0.73809087
-0.1521762 -0.0077139684 0.73633337
-0.14509715 -0.0063085719 0.73600006
-0.14231482 -0.0077114287 0.73611116
-0.13757336 -0.0077209543 0.73700011
-0.13276775 -0.0078929765 0.73662508
-0.12985238 -0.0084228572 0.73700005
-0.12266668 -0.0063085719 0.73600006
-0.1182273 -0.0067758737 0.73600006
-0.098834291 -0.0063085719 0.73600006
-0.1710324 -0.0049066669 0.73600006
-0.16775477 -0.0045628576 0.73700005
-0.1627019 -0.0037910477 0.73699999
-0.15775034 -0.004206826 0.73616672
-0.15350859 -0.0049066669 0.73600006
-0.14509715 -0.0049066669 0.73600006
-0.14229335 -0.003104218 0.73600012
-0.13764608 -0.0036344593 0.73636371
-0.13388191 -0.0042057144 0.73600006
-0.11846095 -0.0049066669 0.73600006
-0.10654477 -0.0021028572 0.73600006
-0.1011708 -0.0030374606 0.73600006
-0.098834299 -0.0035047622 0.73600006
-0.093507051 -0.0040655243 0.73600006
-0.1022927 0.0025710056 0.73622227
-0.098834291 0.0014019049 0.73600006
-0.075702861 0.0091123814 0.73600006
-0.060982861 0.0091123814 0.73600006
-0.0016422223 0.0075073028 0.73900002
0.0021114289 0.0077419057 0.73900002
0.027108384 0.0082874298 0.7374
0.032760955 0.0085765719 0.73820007
-0.082011431 0.013785399 0.73600006
-0.076823153 0.013011284 0.73692322
-0.072472386 0.013512381 0.73700005
-0.067992389 0.014720002 0.73600006
-0.060982861 0.010514286 0.73600006
-0.057893865 0.012422328 0.73833334
-0.052081909 0.012668572 0.73899996
-0.048785578 0.012921906 0.73628581
-0.0427581 0.013318097 0.73600006
-0.037666764 0.012929429 0.73789996
-0.0028141665 0.012658691 0.73837513
0.0019541802 0.012583176 0.73855555
0.019002859 0.014076192 0.73900002
0.023225715 0.01384159 0.73900002
0.02684531 0.013372382 0.73900002
0.032789458 0.012802494 0.73738474
0.037187863 0.012629922 0.73675007
0.042096607 0.012629464 0.73668766
0.047849122 0.01414354 0.73728579
0.052716196 0.014760001 0.73800004
0.058124222 0.013954967 0.73785716
0.062554926 0.01405746 0.73800004
0.065454289 0.014076192 0.73900002
-0.08060953 0.016121905 0.73600006
-0.077243641 0.017412815 0.7367273
-0.072384663 0.017569209 0.73788887
-0.067858301 0.017703429 0.73760003
-0.052012384 0.016868573 0.73800004
-0.048006035 0.018033333 0.73766667
-0.042874292 0.018275239 0.73800009
-0.038136832 0.016611747 0.73700011
-0.011260953 0.018299049 0.73900002
-0.0080184769 0.018429523 0.73860008
-0.0030498416 0.017282434 0.73899996
0.0031671431 0.017243335 0.73899996
0.019002859 0.016187619 0.73900002
0.022508575 0.017866859 0.73859996
0.027374286 0.01754762 0.73700005
0.032257624 0.017531589 0.73633337
0.037674028 0.01765723 0.73627281
0.042524766 0.017401908 0.73680007
0.047887534 0.017710561 0.73845458
0.052785721 0.017595239 0.73900002
0.057606995 0.017562859 0.73766673
0.062508054 0.017557779 0.73744446
0.066839769 0.017940715 0.73874998
-0.07500191 0.02032762 0.73600006
-0.072015435 0.020916764 0.73700005
-0.068941906 0.021808891 0.73866671
-0.047347426 0.02163524 0.73760003
-0.042905718 0.021804551 0.73855555
-0.012668572 0.020410478 0.73900002
-0.0077419053 0.020410478 0.73900002
-0.0049266671 0.020410478 0.73900002
0.0035190478 0.020410478 0.73900002
0.0072726994 0.022287302 0.73900002
0.023071621 0.021806667 0.73859996
0.027380161 0.022466509 0.73716676
0.032276314 0.022453934 0.73675019
0.037409455 0.022403151 0.73684621
0.042231563 0.022496067 0.73660016
0.047717325 0.022455418 0.73681259
0.052721474 0.022685628 0.73809099
0.057565846 0.022464409 0.73712516
0.062497474 0.022472065 0.73733342
0.067475714 0.022491669 0.73800009
0.071366295 0.022662668 0.73900002
0.028360954 0.026486671 0.7383334
0.032101698 0.026948044 0.73811114
0.037268255 0.027425081 0.73833328
0.042099446 0.027365319 0.73675007
0.047729529 0.027374288 0.73700011
0.052659154 0.027382115 0.73722225
0.057776365 0.027320608 0.73900002
0.062639058 0.027448574 0.73899996
0.067473985 0.027410796 0.73800009
0.071570098 0.02769886 0.73820007
0.043142673 0.030776953 0.73780006
0.047729529 0.031585723 0.73700011
0.051940955 0.031585719 0.73700011
0.058134671 0.030826861 0.73900002
0.062920578 0.030826861 0.73900002
0.067239754 0.031481478 0.73754549
0.07159429 0.030181907 0.73700005
-0.17101336 -0.020493334 0.74200004
-0.1667105 -0.020926353 0.74066675
-0.16420953 -0.021142859 0.74000001
-0.15152381 -0.020438097 0.74000001
-0.14870477 -0.020438097 0.74000001
-0.17125715 -0.016209524 0.74000001
-0.1693778 -0.01808889 0.74000001
-0.16420953 -0.019028572 0.74000001
-0.15575239 -0.017619049 0.74000001
-0.15222858 -0.019028572 0.74000001
-0.14870477 -0.019028572 0.74000001
-0.13672382 -0.016209524 0.74000001
-0.13460954 -0.016209524 0.74000001
-0.17548573 -0.011980954 0.74000001
-0.17208444 -0.012325568 0.74123079
-0.1677006 -0.01251342 0.74127275
-0.16273406 -0.012028336 0.74291676
-0.15910715 -0.012729049 0.74250007
-0.17163087 -0.0086030476 0.74040002
-0.16766424 -0.0076309964 0.74054539
-0.16284287 -0.0082933335 0.74100006
-0.062044956 0.0066419053 0.74200004
-0.057805534 0.0080367625 0.74019998
-0.053317621 0.0088271433 0.74150002
-0.03594286 0.0091619054 0.74000001
-0.033566669 0.0088333338 0.74200004
-0.016982857 0.0091990484 0.74300003
-0.012312572 0.0089160008 0.74300003
-0.0081266668 0.0088333338 0.74200004
-0.0039936509 0.0079873018 0.74000001
0.0028190478 0.0077523813 0.74000001
0.0091866674 0.0091866674 0.74200004
0.012695716 0.0091680959 0.74050003
0.018008098 0.0088271433 0.74150002
0.022580953 0.0084685721 0.74100006
0.02889524 0.0091619054 0.74000001
0.030304763 0.0091619054 0.74000001
-0.055676196 0.012685715 0.74000001
-0.054266669 0.012685715 0.74000001
-0.03594286 0.012685715 0.74000001
-0.032495003 0.01271512 0.74174988
-0.027715674 0.01279602 0.74272728
-0.022639763 0.012734646 0.74287498
-0.017282996 0.012431021 0.74285722
-0.012729823 0.012728753 0.74256253
-0.0077582542 0.012693176 0.74049997
0.0039265309 0.012786394 0.74000007
0.0077704769 0.012713968 0.74166667
0.012707382 0.012707381 0.74124992
0.017354669 0.012417524 0.74080002
0.022398833 0.012419341 0.74030769
0.028331432 0.01169905 0.74000001
0.030304765 0.011980954 0.74000001
0.047219049 0.013390477 0.74000001
0.052576192 0.012878571 0.74100006
0.056418575 0.01269381 0.74050003
0.068076834 0.014368255 0.74200004
-0.055676196 0.016209524 0.74000001
-0.054266669 0.016209524 0.74000001
-0.036722384 0.017655715 0.74150002
-0.03252548 0.017676909 0.74241674
-0.027535241 0.017649526 0.74133331
-0.02260175 0.017657779 0.74166667
-0.017662436 0.01766053 0.74177784
-0.013400001 0.017277621 0.74050003
-0.0074000005 0.016561905 0.74000001
-0.0021142859 0.018558731 0.74000001
0.0021142859 0.018323811 0.74000001
0.0077602128 0.017635344 0.74066669
0.01270381 0.017643811 0.74099994
0.017465239 0.017819526 0.741
0.022552382 0.016209524 0.74000001
0.047219049 0.016209524 0.74000001
0.052857146 0.017619049 0.74000001
0.069066674 0.016914288 0.74000001
0.072590478 0.017619049 0.74000001
0.077946246 0.018132064 0.74177778
0.082478099 0.01807048 0.74200004
0.08550667 0.019080002 0.74200004
-0.066247627 0.021142859 0.74000001
-0.036543496 0.020983493 0.74266672
-0.032529287 0.021214047 0.74250007
-0.027511749 0.020456512 0.74066675
-0.022151621 0.02074286 0.74080008
-0.017652065 0.020474924 0.74133343
-0.01057143 0.021847621 0.74000001
-0.0077523813 0.021847621 0.74000001
-0.0024448356 0.022437511 0.74153847
0.0027752381 0.022731047 0.74119997
0.007922858 0.022670159 0.74122226
0.012710119 0.022599049 0.7414999
0.017645875 0.022588734 0.74116671
0.021622542 0.023738097 0.74033344
0.052857146 0.020438097 0.74000001
0.07339593 0.022451704 0.74000007
0.077707857 0.02260595 0.74174988
0.082698897 0.022618417 0.7421667
0.087327994 0.023015462 0.74269229
0.091282859 0.024766669 0.74300003
0.0028266669 0.026146669 0.74200004
0.0063600005 0.026146669 0.74200004
0.014133334 0.026146669 0.74200004
0.017875103 0.027166806 0.74228585
0.022605639 0.027551509 0.74175
0.027039368 0.027980957 0.74066675
0.033123814 0.02889524 0.74000001
0.057085719 0.02889524 0.74000001
0.073530167 0.026546035 0.74000001
0.078016005 0.027277334 0.74200004
0.082914285 0.027167076 0.74228585
0.086845838 0.027415834 0.74287504
0.091754615 0.028540637 0.74300003
0.024766669 0.030427622 0.74300003
0.027571749 0.030400321 0.74233341
0.032440476 0.030325241 0.74050003
0.037675433 0.030902861 0.74080008
0.040677465 0.031273019 0.74066675
-0.026252383 0.012061905 0.74500006
-0.018305715 0.013197144 0.74500006
-0.036185715 0.019157143 0.74500006
0.0085485727 0.027070478 0.74800003
0.012110478 0.027212953 0.74800009
0.017097145 0.029207621 0.74800003
0.091292076 0.027198417 0.74500006
0.019234287 0.030632382 0.74800003
0.022775559 0.031317465 0.74733341
0.027034286 0.032014288 0.74700004
0.091173813 0.030864287 0.74500006
-0.065260008 0.02940286 0.75300002
-0.063825719 0.02940286 0.75300002
0.0093104765 0.029363811 0.75200003
0.012546429 0.029034525 0.75275004
0.015040001 0.029363811 0.75200003
0.017408362 0.032195874 0.75122219
0.021814287 0.033259049 0.75100005
0.027584765 0.033303622 0.75040001
0.032228574 0.032944765 0.75200003
0.035809524 0.032944765 0.75200003
0.006188191 0.028928382 0.75560009
