# .PCD v0.7 - Point Cloud Data file format
VERSION 0.7
FIELDS x y z
SIZE 4 4 4
TYPE F F F
COUNT 1 1 1
WIDTH 550
HEIGHT 1
VIEWPOINT 0 0 0 1 0 0 0
POINTS 550
DATA ascii
-0.041412003 0.078532003 0.60900003
-0.045026671 0.076603815 0.61400002
-0.04226156 0.077999748 0.61245459
-0.037332859 0.078164518 0.61250001
-0.034388572 0.079851434 0.61200005
-0.041158576 0.081441909 0.61300004
-0.037202753 0.082002752 0.61355555
-0.033888418 0.082969368 0.6135
-0.041233335 0.074219525 0.61849999
-0.038499143 0.073228486 0.61810005
-0.052056398 0.078378111 0.61877775
-0.046773098 0.07824786 0.61775005
-0.042592388 0.075914286 0.61600006
-0.038133338 0.075680003 0.61600006
-0.051247463 0.08128874 0.61849999
-0.046839222 0.081955075 0.61827278
-0.042725123 0.083244644 0.61662501
-0.03750167 0.084084056 0.61524999
-0.034557145 0.08492858 0.61500001
-0.045669764 0.088097863 0.61874998
-0.04214048 0.087610222 0.61738896
-0.037661105 0.087589629 0.61636847
-0.034655482 0.088107862 0.61675006
-0.046191111 0.092674613 0.61783338
-0.042372499 0.092582017 0.61641181
-0.037932824 0.092550397 0.61715394
-0.034725718 0.091817148 0.61800003
-0.046142384 0.096800491 0.61849999
-0.042666581 0.096855916 0.61710006
-0.039498098 0.096092388 0.61900002
-0.04689905 0.069457144 0.62333333
-0.042667858 0.069336437 0.62225002
-0.038566034 0.06942001 0.62300003
-0.056842484 0.073691621 0.62300009
-0.052133977 0.072765209 0.62253338
-0.047424708 0.072321497 0.6224376
-0.042870842 0.072286323 0.620875
-0.037244052 0.07168214 0.62075001
-0.034321275 0.072784767 0.62133336
-0.056781765 0.076938689 0.62253857
-0.052227467 0.076863348 0.62083334
-0.047646876 0.076959126 0.62092865
-0.036135241 0.075824767 0.62200004
-0.034358099 0.076417148 0.62200004
-0.05641143 0.080758579 0.62350005
-0.051779874 0.083542593 0.62085718
-0.04785943 0.083784007 0.62039995
-0.056457147 0.087360002 0.62400001
-0.050494052 0.087919287 0.62375003
-0.047866434 0.087341681 0.62175006
-0.044285718 0.085619055 0.62
-0.051196195 0.092893578 0.62325007
-0.048593204 0.0920294 0.62114286
-0.051027145 0.096120477 0.62300003
-0.048300635 0.097388893 0.62100005
-0.040742859 0.098019049 0.62
-0.037573338 0.09742111 0.62169236
-0.046243336 0.10019286 0.62250006
-0.04268327 0.1008977 0.62371433
-0.038567625 0.10116477 0.62300003
-0.052416671 0.063349292 0.62900001
-0.048822384 0.063798569 0.62900001
-0.041933335 0.064098097 0.62900001
-0.037740007 0.064098105 0.62900007
-0.061054289 0.069433816 0.62849998
-0.057008781 0.06829001 0.6282143
-0.052645665 0.0675992 0.62814999
-0.047903813 0.067090929 0.62735301
-0.042621005 0.066680275 0.62638885
-0.037194483 0.067285441 0.62690002
-0.033457778 0.068706036 0.62733334
-0.066216506 0.073536515 0.62888891
-0.062254131 0.072537519 0.62716663
-0.057238445 0.072075509 0.62545455
-0.053571433 0.07083334 0.625
-0.035714287 0.07083334 0.625
-0.033187941 0.071344137 0.62600005
-0.066366494 0.077690661 0.62881827
-0.062074114 0.077590302 0.62668753
-0.058928575 0.078571439 0.625
-0.065695569 0.082069531 0.62900007
-0.061862592 0.082252659 0.62714285
-0.057572383 0.082810484 0.62554544
-0.054166671 0.083333343 0.625
-0.065296195 0.086262867 0.62900001
-0.062067032 0.087130725 0.626625
-0.057243373 0.086958423 0.62566674
-0.052997865 0.087733418 0.62524998
-0.061407622 0.090024769 0.62600005
-0.057083949 0.091811165 0.62714291
-0.053514928 0.092277892 0.6251111
-0.056081276 0.095597468 0.62866664
-0.053657625 0.096583337 0.62600005
-0.047467016 0.10268867 0.62654543
-0.04294667 0.10342837 0.62533331
-0.039285716 0.10416667 0.625
-0.046826988 0.10680382 0.62766671
-0.042552996 0.10685274 0.6267857
-0.039170481 0.10637683 0.62633342
-0.037436195 0.059777148 0.634
-0.056289207 0.062899694 0.63100004
-0.05368508 0.061697781 0.63100004
-0.047029097 0.062906839 0.63236362
-0.042206574 0.06234429 0.63309997
-0.037357781 0.062361278 0.63266665
-0.033057887 0.063231863 0.63366663
-0.07104826 0.06863302 0.634
-0.067388341 0.069191672 0.63174999
-0.062768169 0.068278372 0.6328572
-0.058802705 0.066427462 0.63216674
-0.033052385 0.06610477 0.63100004
-0.077891432 0.074268579 0.634
-0.072118387 0.072375111 0.6332857
-0.067929529 0.071535818 0.63120002
-0.07193584 0.077035747 0.63307691
-0.068909213 0.077923499 0.63100004
-0.070992544 0.08165127 0.63350004
-0.067509882 0.082815677 0.63136369
-0.064301908 0.084133342 0.63100004
-0.067591116 0.086500965 0.63366675
-0.061442386 0.09277001 0.63250005
-0.059541434 0.093823344 0.63150001
-0.058045562 0.097813189 0.63266665
-0.053051434 0.099471435 0.63300002
-0.056154288 0.1008362 0.634
-0.05269175 0.10216461 0.63349992
-0.049905401 0.10281779 0.63133335
-0.050378576 0.10739334 0.63350004
-0.04770159 0.10822795 0.63133335
-0.043268576 0.10997429 0.63100004
-0.036694095 0.1081543 0.63160002
-0.034254286 0.10937335 0.63100004
-0.050116193 0.11049715 0.634
-0.047087185 0.11231209 0.63323075
-0.042036466 0.1124154 0.63314283
-0.037211943 0.11237518 0.63253844
-0.034254286 0.1111762 0.63100004
-0.045782752 0.11737006 0.63344443
-0.042169955 0.11747216 0.63255
-0.037923303 0.11692755 0.63361537
-0.038666286 0.1215402 0.63239998
-0.046472196 0.059331238 0.63700002
-0.042278629 0.059270374 0.63722223
-0.037425954 0.058260396 0.63725013
-0.033066589 0.058548491 0.63708341
-0.10025715 0.062584765 0.63800001
-0.098292992 0.06363342 0.63745463
-0.094328575 0.063900001 0.63900006
-0.06844572 0.064811431 0.63600004
-0.060248576 0.063900001 0.63900006
-0.058892861 0.064355716 0.63750005
-0.051363576 0.061089292 0.63824999
-0.047714766 0.060851596 0.63683337
-0.042333335 0.061080955 0.63500005
-0.035680953 0.061080955 0.63500005
-0.032253973 0.062492073 0.63500005
-0.10203286 0.067412294 0.63770002
-0.097599521 0.067561597 0.63690466
-0.094328575 0.065117151 0.63900006
-0.080940008 0.069985718 0.63900006
-0.077099055 0.069118373 0.63742864
-0.072742797 0.067370825 0.63650006
-0.067631617 0.066645548 0.63618761
-0.062825277 0.066023737 0.63709098
-0.10114783 0.072405398 0.6376667
-0.098892868 0.072420001 0.63900006
-0.080940008 0.072420001 0.63900006
-0.077501662 0.072572388 0.63606679
-0.074385718 0.072571434 0.63500005
-0.10041429 0.076071434 0.63900006
-0.077244841 0.077523381 0.63707703
-0.074385718 0.078014292 0.63500011
-0.076783344 0.081645563 0.63816667
-0.073499918 0.082581051 0.63570011
-0.072274007 0.08685001 0.63770002
-0.068832226 0.088210009 0.63583338
-0.067225635 0.091972649 0.63800001
-0.063533656 0.092779055 0.63533342
-0.062132861 0.097548097 0.63750005
-0.059965719 0.099942863 0.63600004
-0.06021715 0.10279556 0.63866675
-0.057189431 0.10286754 0.63610011
-0.053823814 0.10401905 0.63500005
-0.056703284 0.10657969 0.63866669
-0.052793082 0.10795204 0.6358183
-0.055380005 0.11076 0.63900006
-0.052116413 0.11267336 0.63684624
-0.048985716 0.11430001 0.63500005
-0.039309528 0.11127619 0.63500005
-0.051811315 0.11638156 0.638125
-0.048438814 0.11746381 0.63575006
-0.036919527 0.11862715 0.63550007
-0.03665762 0.054374766 0.6415
-0.034186669 0.054332383 0.64100003
-0.055813339 0.059493337 0.64400005
-0.052604526 0.05933167 0.64225006
-0.047655717 0.058345716 0.64150006
-0.04273238 0.057078101 0.64100003
-0.038217146 0.055901911 0.64033341
-0.033523813 0.056076195 0.64000005
-0.097292386 0.061800949 0.64250004
-0.094160005 0.06297715 0.64200002
-0.088524453 0.063991114 0.64400005
-0.070204765 0.064100005 0.64100003
-0.067118108 0.063659057 0.64066672
-0.062329404 0.063244417 0.64162505
-0.058341913 0.062407307 0.64033341
-0.053028576 0.060342859 0.64000005
-0.090160005 0.068080008 0.64400005
-0.087319136 0.067526899 0.64323086
-0.082392626 0.0679112 0.64241672
-0.077934928 0.067197993 0.64211112
-0.074477151 0.065930486 0.64100003
-0.097079836 0.072796538 0.64036369
-0.094550006 0.071980953 0.64050007
-0.086154096 0.072920963 0.64340007
-0.082822546 0.072443336 0.64100003
-0.10062382 0.078670166 0.64033341
-0.097480997 0.077754982 0.64061105
-0.093210161 0.077302068 0.64250004
-0.087093346 0.077280007 0.64400005
-0.082415402 0.077733815 0.64100003
-0.079847626 0.078628585 0.64000005
-0.10204144 0.081816673 0.64350003
-0.097524136 0.082645409 0.64200008
-0.094266042 0.082661591 0.64133334
-0.087215997 0.080592006 0.64400005
-0.082285039 0.081936203 0.64271432
-0.078350477 0.083231032 0.64057153
-0.097111121 0.085662231 0.64400005
-0.077188008 0.087583236 0.64220005
-0.074019246 0.088652767 0.64020008
-0.076666668 0.090773344 0.64400005
-0.071727715 0.092498392 0.64150006
-0.068541594 0.094168268 0.64066672
-0.070533335 0.096293338 0.64400005
-0.067068987 0.097546667 0.64185715
-0.063795239 0.097983815 0.64100003
-0.065626673 0.10181334 0.64400005
-0.063003734 0.10275976 0.64225006
-0.062226865 0.1074562 0.64180011
-0.058326513 0.10832049 0.64016676
-0.061474927 0.11192001 0.64333338
-0.057692729 0.11259136 0.64150012
-0.095657147 0.049988575 0.648
-0.09239167 0.049892142 0.64674997
-0.08948572 0.049988575 0.648
-0.035794288 0.049988575 0.648
-0.033449147 0.048260577 0.648
-0.096368194 0.053922482 0.64780003
-0.092424825 0.052974045 0.64726669
-0.08948572 0.053074289 0.648
-0.045051433 0.054925717 0.648
-0.041914292 0.053624194 0.64720005
-0.037306536 0.052702866 0.64671439
-0.033387054 0.052113146 0.64680004
-0.10012858 0.058971431 0.64500004
-0.097234949 0.057848386 0.64618754
-0.092320606 0.057854041 0.64625001
-0.087547846 0.058284689 0.64630777
-0.082461759 0.058462854 0.64616668
-0.078870863 0.05862857 0.648
-0.061667148 0.05981667 0.64750004
-0.057695787 0.058928709 0.64742863
-0.052932914 0.057588365 0.64711112
-0.048209954 0.056825399 0.64622223
-0.043682542 0.055986673 0.64600003
-0.096542552 0.060877144 0.64566672
-0.092020005 0.062616184 0.6450001
-0.086918183 0.062341608 0.64515388
-0.082471795 0.062778443 0.64625007
-0.077624425 0.062837496 0.64687496
-0.073030286 0.062898718 0.64749992
-0.067862011 0.062107939 0.64711106
-0.06308803 0.061502997 0.64671433
-0.058273148 0.061230101 0.64680004
-0.092142873 0.066138104 0.64500004
-0.086000003 0.065728575 0.64500004
-0.08231429 0.065728575 0.64500004
-0.078014292 0.065728575 0.64500004
-0.086860001 0.072608583 0.64500004
-0.10238096 0.083747625 0.64500004
-0.086088888 0.083015561 0.64566672
-0.083268337 0.083882622 0.64525002
-0.10210942 0.087348573 0.64587504
-0.097839899 0.087996095 0.64611119
-0.092015252 0.087294295 0.64700001
-0.087428585 0.087634288 0.64799994
-0.082530543 0.087458037 0.64668751
-0.079242863 0.088457152 0.64500004
-0.10213715 0.091028579 0.648
-0.099360004 0.090720005 0.648
-0.093188576 0.090720005 0.648
-0.087634295 0.090720005 0.648
-0.082301915 0.090938866 0.64780003
-0.077754118 0.092756383 0.64654541
-0.074386194 0.093444288 0.64550006
-0.075908579 0.097508572 0.648
-0.072935581 0.097481169 0.64664286
-0.075908579 0.10121143 0.648
-0.07195238 0.10207638 0.64672732
-0.068110242 0.10231802 0.64525002
-0.071787149 0.1056762 0.64700001
-0.067208163 0.10691566 0.64571428
-0.064500004 0.10995715 0.64500004
-0.040838417 0.043326035 0.65300006
-0.037417322 0.042946845 0.65181822
-0.034073815 0.043366194 0.65050006
-0.046020955 0.048508577 0.65300006
-0.042126734 0.047344256 0.65240008
-0.037176017 0.047087327 0.65056252
-0.032654762 0.046738103 0.65000004
-0.097190484 0.053238101 0.65000004
-0.093476199 0.053857148 0.65000004
-0.061568581 0.054105721 0.65300006
-0.057022166 0.052952562 0.65272731
-0.05181602 0.052831948 0.65263635
-0.047170922 0.052304637 0.65226674
-0.04233101 0.051002759 0.65044451
-0.038380954 0.050142862 0.65000004
-0.075581431 0.058854766 0.65050006
-0.071948342 0.058922619 0.65125
-0.066470757 0.05830558 0.65228575
-0.06207167 0.05710382 0.65175003
-0.057512179 0.056133762 0.65088892
-0.052700821 0.055887762 0.65100002
-0.047666669 0.05509524 0.65000004
-0.077380963 0.060047623 0.65000004
-0.07225842 0.060284764 0.6503334
-0.067043245 0.060350668 0.65060008
-0.063761912 0.060047623 0.65000004
-0.09610001 0.089280009 0.65100002
-0.093269847 0.08934921 0.6500001
-0.087904766 0.089761913 0.65000004
-0.1014621 0.093286484 0.6504001
-0.097582787 0.092623107 0.65125
-0.092559814 0.092438482 0.65140003
-0.087640956 0.092724383 0.65080005
-0.083167806 0.093641564 0.65036368
-0.079857148 0.094714291 0.65000004
-0.097366311 0.096794158 0.65246153
-0.087554291 0.095005721 0.65200001
-0.081623584 0.097142145 0.65175003
-0.078539841 0.097681828 0.65027279
-0.077793658 0.10131747 0.65000004
-0.07490477 0.10152382 0.65000004
-0.046161905 0.044290479 0.65500003
-0.042543814 0.043541908 0.65500003
-0.056910481 0.04940635 0.6566667
-0.052076675 0.048951276 0.65616673
-0.047578476 0.047202855 0.65560007
-0.044290479 0.045538098 0.65500003
-0.070813335 0.054520003 0.65800005
-0.067346998 0.053584028 0.6567778
-0.062755242 0.053273339 0.65500003
-0.057764769 0.050778098 0.65500003
-0.053273339 0.051027622 0.65500003
-0.048033338 0.050528575 0.65500003
-0.07639572 0.05823572 0.65750003
-0.072045833 0.057353929 0.65637499
-0.067868367 0.05649884 0.65511119
-0.092947625 0.094195247 0.65500003
-0.096274607 0.096274614 0.65500009
-0.092640482 0.096397385 0.65725005
-0.089477152 0.096360005 0.65700001
-0.061248574 0.049882859 0.66300005
-0.057661336 0.048576005 0.66240001
-0.053286832 0.047621436 0.66083342
-0.049657147 0.046514288 0.66000003
-0.076150291 0.054429144 0.66300005
-0.07228563 0.05279386 0.66209096
-0.067424446 0.051671755 0.66166675
-0.062805176 0.051811162 0.66228575
-0.081128001 0.056902863 0.66240007
-0.077903807 0.057128102 0.66100007
-0.073885478 0.056278337 0.66025007
-0.071146667 0.048913337 0.66700006
-0.066910475 0.04848858 0.667
-0.062206514 0.047604926 0.66650009
-0.057523023 0.046736993 0.66616672
-0.05399524 0.046372384 0.66700006
-0.081960358 0.052542686 0.6661818
-0.077547766 0.051726811 0.66585714
-0.072602294 0.050301719 0.6652
-0.067513339 0.050286669 0.66500002
-0.063333333 0.050033338 0.66500002
-0.082460001 0.05535334 0.66500002
-0.079166673 0.055100005 0.66500002
-0.028243812 0.039156195 0.67400002
-0.062264767 0.044291433 0.67400002
-0.057231437 0.043916386 0.67220002
-0.052558098 0.043583814 0.67299998
-0.048749052 0.043616671 0.6735
-0.031453334 0.043168101 0.67400002
-0.027586672 0.041933335 0.67363626
-0.080760002 0.048711434 0.67300004
-0.077074021 0.048547488 0.67200005
-0.072674923 0.047524448 0.67133331
-0.067713812 0.046632145 0.67075002
-0.062650718 0.045389287 0.67124999
-0.057428576 0.045304764 0.67000002
-0.052388098 0.045786511 0.67083335
-0.049280003 0.045440003 0.67200005
-0.031667303 0.046003178 0.67400002
-0.028243812 0.046217147 0.67400002
-0.032283336 0.034222856 0.67800003
-0.027806669 0.033626668 0.67900002
-0.051733337 0.039446671 0.67900002
-0.047800243 0.038756434 0.67825001
-0.042322863 0.038320769 0.67740005
-0.037015319 0.037872463 0.67591667
-0.032171905 0.037318692 0.67562503
-0.027005497 0.037012972 0.67638475
-0.080833338 0.044620004 0.67900002
-0.07820826 0.044598099 0.67866671
-0.072017908 0.044348191 0.67880005
-0.067093216 0.043544173 0.67737502
-0.062723242 0.04314648 0.67620009
-0.058267489 0.04243429 0.67657149
-0.052831907 0.0412331 0.67650002
-0.047392469 0.041885976 0.67663646
-0.042813443 0.041521169 0.67766672
-0.037090577 0.04159629 0.67610002
-0.032785714 0.041625008 0.67500007
-0.080476195 0.046354286 0.67600006
-0.077214651 0.046328213 0.67562503
-0.071820959 0.045665406 0.67533338
-0.06878572 0.04564286 0.67500001
-0.031116193 0.031763177 0.68066669
-0.027861906 0.031100636 0.68033338
-0.060582861 0.039737146 0.68400002
-0.057000004 0.039145853 0.68342865
-0.052380573 0.03834286 0.68240005
-0.047450952 0.036399849 0.68250006
-0.044038098 0.03626667 0.68000001
-0.080539048 0.04286667 0.68200004
-0.077426434 0.043175478 0.68175
-0.072746478 0.042216763 0.68200004
-0.067799732 0.041457966 0.68171436
-0.062771276 0.041341752 0.68183339
-0.057781275 0.040900003 0.68166673
-0.045980956 0.044685718 0.68000001
-0.043390479 0.043390479 0.68000001
-0.055776194 0.034778096 0.68900001
-0.051802382 0.034424763 0.68850005
-0.047035519 0.034130208 0.68728578
-0.043182857 0.03402286 0.68700004
-0.080594286 0.039313335 0.68800002
-0.077644385 0.039672192 0.68740004
-0.072036557 0.039291549 0.68762511
-0.067038812 0.039568812 0.68675005
-0.062834531 0.038942859 0.68725008
-0.057496332 0.037114289 0.68714291
-0.052579738 0.036515784 0.68642867
-0.080360003 0.041160002 0.68600005
-0.077122152 0.041175 0.68625003
-0.04095 0.029721431 0.69350004
-0.038169526 0.029614288 0.69100004
-0.061380006 0.034980007 0.69300002
-0.057356432 0.034281194 0.69225001
-0.052752931 0.033192657 0.69114292
-0.048596829 0.032763179 0.69266671
-0.040758736 0.031505398 0.69400001
-0.038169526 0.030930478 0.69100004
-0.080945723 0.037511431 0.69100004
-0.077547193 0.03742373 0.69163638
-0.072197422 0.036991432 0.69185722
-0.067476861 0.037294954 0.69190001
-0.062764958 0.036710478 0.69080007
-0.059142858 0.03614286 0.69000006
-0.091072388 0.029914288 0.69800001
-0.089742862 0.029249527 0.69800001
-0.045835719 0.029228097 0.69749999
-0.04279393 0.028527502 0.69662505
-0.091072388 0.031243812 0.69800001
-0.089742862 0.031243812 0.69800001
-0.080090478 0.033757146 0.69500005
-0.07688953 0.033805717 0.6960001
-0.071027622 0.033854287 0.69700003
-0.062465955 0.033890717 0.69774997
-0.057751432 0.032969207 0.69700003
-0.053027622 0.031485241 0.69600004
-0.047318578 0.031617939 0.6965
-0.043045085 0.03222762 0.69533342
-0.080090478 0.035080954 0.69500005
-0.07688953 0.035131432 0.6960001
-0.072861433 0.035437144 0.69550002
-0.067611426 0.035131432 0.69600004
-0.064204767 0.035080954 0.69500005
-0.090796202 0.024701906 0.70100003
-0.087130241 0.02479881 0.70375001
-0.0825781 0.023450002 0.70350003
-0.091789119 0.027164901 0.70057148
-0.087332241 0.027462197 0.70330775
-0.082442328 0.027480427 0.70377779
-0.079116575 0.027709717 0.70280004
-0.061013337 0.028830478 0.70400006
-0.05764072 0.028820239 0.70375001
-0.052167382 0.028089287 0.70225006
-0.047851432 0.027410343 0.70200002
-0.04466667 0.027333336 0.70000005
-0.092799053 0.030042859 0.70100003
-0.086537316 0.031519845 0.70166677
-0.082483985 0.031957924 0.70309097
-0.077463657 0.031385399 0.70116681
-0.07252536 0.033088453 0.70187509
-0.067526348 0.032757673 0.70199996
-0.06260255 0.031856932 0.70177782
-0.057665613 0.030946668 0.70133334
-0.052018814 0.030010715 0.70025003
-0.048000004 0.030000001 0.70000005
-0.091444768 0.023533335 0.70600003
-0.087450825 0.022336017 0.70681816
-0.083493337 0.020873334 0.70700002
-0.061295003 0.027279288 0.70725
-0.05792686 0.027282286 0.70559996
-0.071633101 0.031275954 0.70625001
-0.067428574 0.030342858 0.708
-0.063293338 0.030300003 0.70700002
-0.090753727 0.016686289 0.71220005
-0.087647907 0.018043144 0.7123
-0.084523812 0.019609526 0.71000004
-0.088580959 0.020961907 0.71000004
-0.058398098 0.023766669 0.71300006
-0.076787151 0.028539527 0.71350002
-0.07225579 0.028416328 0.71285719
-0.067440197 0.027951047 0.71240002
-0.06316179 0.026655359 0.71312511
-0.057599049 0.025748098 0.71150005
-0.075057149 0.030428573 0.71000004
-0.073028579 0.030428573 0.71000004
-0.08728382 0.014320001 0.71600002
-0.087965719 0.015683811 0.71600002
-0.068238579 0.023883335 0.71650004
-0.075797148 0.02663143 0.71700001
-0.071931623 0.02634267 0.71660006
-0.067508578 0.025230478 0.71600002
-0.064780958 0.025230478 0.71600002
-0.083201908 0.014440001 0.72200006
-0.086116672 0.016812859 0.72050005
-0.082596332 0.017832249 0.72014308
-0.082285717 0.021257143 0.72000003
-0.076325722 0.024066668 0.72200006
-0.073097147 0.023449253 0.72114295
-0.077067152 0.026148098 0.72250009
-0.073371433 0.02537143 0.72000003
-0.081687354 0.022817146 0.72600001
-0.077804916 0.021751285 0.72592306
-0.081358097 0.026043814 0.72600001
-0.07901746 0.026032066 0.7256667
