# .PCD v0.7 - Point Cloud Data file format
VERSION 0.7
FIELDS x y z
SIZE 4 4 4
TYPE F F F
COUNT 1 1 1
WIDTH 965
HEIGHT 1
VIEWPOINT 0 0 0 1 0 0 0
POINTS 965
DATA ascii
-0.16363239 0.062192384 0.634
-0.16405717 0.053470481 0.63800001
-0.16209483 0.057803504 0.63713336
-0.15750711 0.058667939 0.63800001
-0.15396859 0.059031431 0.63900006
-0.1613804 0.062471431 0.63560015
-0.15740232 0.061910424 0.63841182
-0.16247313 0.053430371 0.64322227
-0.15766606 0.054325722 0.64333338
-0.13677335 0.054586671 0.64400005
-0.16134429 0.055814765 0.64050007
-0.15713497 0.056451149 0.64150006
-0.15216909 0.058139257 0.6411112
-0.1476531 0.05812151 0.64241666
-0.14381307 0.058486264 0.64257145
-0.13738668 0.055813339 0.64400005
-0.15542859 0.064000003 0.64000005
-0.1524376 0.062377874 0.64100003
-0.14778186 0.062219433 0.64173341
-0.14381604 0.062543124 0.64209092
-0.16621335 0.067466676 0.64400005
-0.16218509 0.067653775 0.64261544
-0.15727912 0.067150936 0.64200008
-0.15312096 0.065729342 0.6426
-0.14658669 0.065626673 0.64400005
-0.14413334 0.065626673 0.64400005
-0.16130668 0.071146667 0.64400005
-0.15778001 0.071606673 0.64400005
-0.14256001 0.049988575 0.648
-0.15680414 0.0534981 0.64566672
-0.15309124 0.054560572 0.64660001
-0.14818175 0.054387148 0.64650005
-0.14232968 0.053165428 0.64738458
-0.13790096 0.05323473 0.6470769
-0.13221057 0.053708579 0.64707685
-0.12848917 0.053938288 0.648
-0.1554143 0.055900004 0.64500004
-0.1525408 0.056381755 0.64583337
-0.14742859 0.055900004 0.64500004
-0.14203933 0.057407793 0.64563638
-0.13773777 0.058063876 0.64564294
-0.13304114 0.057593647 0.64653337
-0.12774858 0.056160003 0.648
-0.14156339 0.062484663 0.64533335
-0.13747156 0.062918842 0.64668417
-0.13432857 0.061002858 0.64700001
-0.1554143 0.069414288 0.64500004
-0.15219209 0.068154447 0.64566666
-0.14785151 0.068127558 0.6462307
-0.14230534 0.06765262 0.64649999
-0.13708709 0.06647484 0.64714283
-0.16549906 0.073213339 0.64600003
-0.16217144 0.073714294 0.64500004
-0.15657966 0.073296078 0.64537501
-0.15281418 0.072711311 0.64699996
-0.14781968 0.072694615 0.64782339
-0.14429954 0.070916668 0.64750004
-0.16549906 0.076904766 0.64600003
-0.16194449 0.076276198 0.64514291
-0.15773501 0.076826945 0.64627272
-0.15324791 0.076404087 0.64771438
-0.14873144 0.075908586 0.648
-0.14724162 0.049080323 0.65233338
-0.12562478 0.049130481 0.65300006
-0.15281725 0.052629706 0.65154552
-0.14731112 0.052084018 0.65107143
-0.1442381 0.050761908 0.65000004
-0.13687938 0.050787624 0.6503334
-0.13281037 0.051294174 0.65087503
-0.12740044 0.051751368 0.65107697
-0.12254464 0.052488517 0.65200001
-0.11878382 0.051618099 0.65300006
-0.13109875 0.058426987 0.6503334
-0.12739559 0.057580702 0.65136367
-0.12327144 0.056292959 0.65240002
-0.13232866 0.062326606 0.65092319
-0.12892245 0.061665509 0.65255558
-0.14176193 0.069126993 0.65000004
-0.13718306 0.068530105 0.65060008
-0.1330442 0.066738397 0.65115386
-0.14609525 0.07490477 0.65000004
-0.14274076 0.072439805 0.65133339
-0.13837065 0.070636041 0.65250003
-0.16590476 0.079238102 0.65000004
-0.16249131 0.079344086 0.65014297
-0.15690541 0.079485402 0.6503334
-0.15221868 0.078664891 0.65037507
-0.14731182 0.077749148 0.65100002
-0.14430431 0.076604292 0.65216672
-0.16611111 0.082746036 0.65000004
-0.16249163 0.082751371 0.65050012
-0.15794507 0.08232639 0.65189999
-0.15272324 0.081643634 0.65240002
-0.14863524 0.080225721 0.65300006
-0.16241121 0.087108225 0.6522308
-0.15933202 0.086196005 0.65300006
-0.14225334 0.04240445 0.65800011
-0.13598667 0.042613335 0.65800005
-0.13442001 0.043553334 0.65800005
-0.11204644 0.044129767 0.65725005
-0.10910429 0.043453336 0.65650004
-0.15604001 0.047626667 0.65800005
-0.1531149 0.048638929 0.65687507
-0.1415731 0.04854786 0.65775007
-0.13737905 0.04940635 0.6566667
-0.13299449 0.04815862 0.65672731
-0.12790176 0.048535403 0.65616667
-0.1227551 0.048976034 0.65650004
-0.11698166 0.048421636 0.65785718
-0.11267275 0.047573216 0.65724999
-0.10854435 0.047216296 0.65711111
-0.15532859 0.050528575 0.65500003
-0.15220952 0.050528575 0.65500003
-0.14225334 0.050760008 0.65800011
-0.13411906 0.050528575 0.65500003
-0.12164287 0.050528578 0.65500009
-0.11748388 0.052590806 0.65686673
-0.11291809 0.052193996 0.65784615
-0.10966668 0.051386669 0.65800005
-0.12538572 0.059261907 0.65500003
-0.12182774 0.058242336 0.65600008
-0.11814632 0.056995507 0.6576364
-0.11468001 0.057026669 0.65800005
-0.12677325 0.062848404 0.65572739
-0.12307694 0.062286016 0.65753853
-0.11969334 0.060786672 0.65800005
-0.13137594 0.067967758 0.65642864
-0.12783454 0.067487113 0.65733343
-0.12470668 0.065800004 0.65800005
-0.14129286 0.073921427 0.65500003
-0.13713397 0.072993502 0.65600014
-0.13345002 0.071938887 0.65683335
-0.12972 0.070813335 0.65800005
-0.14231655 0.077726617 0.65664285
-0.13779151 0.07739681 0.65764284
-0.13473335 0.077080011 0.65800011
-0.1565762 0.084214292 0.65500009
-0.15162399 0.083611906 0.65516669
-0.14780377 0.082489163 0.65653855
-0.14413334 0.080840006 0.65800005
-0.16031906 0.089204766 0.65500003
-0.1569839 0.087540738 0.65521443
-0.15255691 0.087534294 0.65650004
-0.14888741 0.087495461 0.65777779
-0.16233552 0.091766164 0.65627277
-0.15755969 0.091911599 0.6565001
-0.15276061 0.091406554 0.65737504
-0.14935558 0.091284454 0.65800011
-0.14775428 0.039780002 0.66300005
-0.15596287 0.044200003 0.66300005
-0.15470001 0.044831432 0.66300005
-0.14728688 0.04316267 0.66260004
-0.14213419 0.043737993 0.66133338
-0.13837498 0.043663677 0.66171438
-0.13281938 0.043923177 0.66200012
-0.12249716 0.044831432 0.66300005
-0.11682168 0.043610957 0.66125
-0.11326858 0.043120004 0.66000003
-0.15572762 0.046024766 0.66200006
-0.15231323 0.047129102 0.66177779
-0.14719184 0.047594294 0.66128582
-0.14234599 0.047296803 0.66054553
-0.13805573 0.047488291 0.66130006
-0.13184437 0.046464223 0.66057146
-0.12750363 0.046947431 0.66080004
-0.12203733 0.047085807 0.66081828
-0.11820143 0.047154449 0.66016674
-0.10682311 0.048843101 0.66175008
-0.10310327 0.048620008 0.66300005
-0.11150859 0.054434288 0.66000003
-0.10710768 0.052924827 0.6615625
-0.10376477 0.051566672 0.66300005
-0.11644287 0.058771428 0.66000003
-0.11191709 0.057845421 0.66018748
-0.10798563 0.057652283 0.66230005
-0.12092557 0.063920796 0.66016674
-0.11709072 0.062953688 0.66100001
-0.1127066 0.06270913 0.66175008
-0.12540001 0.068828575 0.66000003
-0.12219087 0.067828953 0.6606667
-0.11785768 0.067237578 0.66255563
-0.11302572 0.065668575 0.66300005
-0.13216023 0.073358037 0.66007692
-0.12700708 0.072935425 0.66018748
-0.12267792 0.072254896 0.66181827
-0.11870858 0.070088573 0.66300005
-0.14017144 0.079828575 0.66000003
-0.13577144 0.079828575 0.66000003
-0.132532 0.077227056 0.66140002
-0.12730739 0.07688953 0.66175002
-0.12348764 0.075944141 0.66266674
-0.14570287 0.083851434 0.66000003
-0.14200249 0.083139509 0.66033334
-0.13771702 0.081840008 0.66028583
-0.13449429 0.080191433 0.66300005
-0.1464816 0.087805398 0.66011113
-0.14232485 0.087537222 0.66125005
-0.16657144 0.094285727 0.66000009
-0.16217144 0.094914295 0.66000003
-0.15735239 0.094495252 0.66000003
-0.15257381 0.093940958 0.66200006
-0.14684235 0.091576308 0.66111118
-0.14370859 0.090969913 0.66240007
-0.17034286 0.099314287 0.66000003
-0.16743356 0.097819522 0.66021425
-0.16237572 0.097552232 0.66083336
-0.15744229 0.097160682 0.66146171
-0.15348476 0.096165039 0.66242868
-0.15516667 0.043700002 0.66500002
-0.15177397 0.043454185 0.66555554
-0.14820001 0.043700002 0.66500002
-0.13175589 0.043919049 0.66833341
-0.12730287 0.043282546 0.66833341
-0.12256738 0.043240093 0.6668182
-0.11924477 0.042495243 0.66600001
-0.15274811 0.045633815 0.66550004
-0.13002858 0.045034289 0.66600001
-0.12752366 0.045679845 0.66616672
-0.10592382 0.046300955 0.66600001
-0.10235143 0.047123283 0.66566664
-0.097933337 0.047724329 0.66654539
-0.092871033 0.048483271 0.66857153
-0.089200005 0.048422858 0.66900003
-0.084740005 0.04651143 0.66900003
-0.10196668 0.052566674 0.66500002
-0.097560301 0.051948041 0.66518748
-0.093377076 0.052147225 0.66775006
-0.088562869 0.051183812 0.66900003
-0.10576668 0.057633337 0.66500008
-0.10286845 0.057151429 0.66674989
-0.097797692 0.057156969 0.66681248
-0.093896203 0.056169525 0.66766667
-0.11083334 0.063333333 0.66500002
-0.10763621 0.06224953 0.66560006
-0.10319619 0.061918639 0.66828579
-0.11632223 0.068611123 0.66500008
-0.11235173 0.067862056 0.66592306
-0.107979 0.066932857 0.66750008
-0.12110215 0.073866911 0.66575003
-0.11785153 0.072166681 0.66627276
-0.11357953 0.070988424 0.66750002
-0.13173334 0.079166673 0.66500002
-0.1276783 0.079404771 0.667
-0.12255488 0.077094883 0.66762501
-0.11914572 0.075820006 0.66900003
-0.13673252 0.083816335 0.66600007
-0.13234992 0.082568072 0.66717649
-0.12891525 0.08176668 0.66900003
-0.14028239 0.08886715 0.66650003
-0.13770634 0.087410651 0.66705883
-0.13380001 0.086651437 0.66900003
-0.15010001 0.09436667 0.66500002
-0.14808255 0.094697788 0.66733336
-0.14256287 0.092108987 0.66700006
-0.13953429 0.09174858 0.66900003
-0.12517144 0.039156195 0.67400002
-0.12236255 0.039078735 0.67266673
-0.11719444 0.038331844 0.67242867
-0.1129025 0.037601396 0.6726923
-0.10976572 0.03851429 0.67400002
-0.083715253 0.038342863 0.671
-0.066659048 0.038456194 0.67299998
-0.064640008 0.039040003 0.67200005
-0.15350795 0.041942861 0.67066669
-0.13161129 0.041527145 0.67083335
-0.12806381 0.041124132 0.67122227
-0.12303128 0.040655397 0.67050004
-0.11728682 0.040798366 0.67085719
-0.11257499 0.041684937 0.67336369
-0.10809965 0.043399647 0.67262495
-0.095643818 0.043649528 0.67400002
-0.092194766 0.043215241 0.67225003
-0.087689273 0.042709704 0.67118186
-0.082717717 0.0425446 0.67147058
-0.078526363 0.043435559 0.67400002
-0.071280718 0.042512145 0.67124999
-0.067912295 0.042233683 0.671
-0.064640008 0.040960003 0.67200005
-0.10783809 0.045304768 0.67000002
-0.10206287 0.045575242 0.67400002
-0.096143812 0.046148576 0.67300004
-0.092726134 0.046225991 0.67014289
-0.087631747 0.046793655 0.67000002
-0.082371034 0.04736381 0.67157888
-0.078393914 0.047087245 0.67360002
-0.091301717 0.05273905 0.67040008
-0.087566525 0.052600361 0.67038465
-0.083865404 0.051857993 0.67222226
-0.095076196 0.059342861 0.67000002
-0.092110135 0.05773766 0.67290908
-0.087601312 0.056533694 0.67262501
-0.084089532 0.055845719 0.67400002
-0.10113176 0.063660644 0.67066669
-0.097513221 0.062661789 0.67273337
-0.093932077 0.062692702 0.67400002
-0.10585906 0.068572573 0.67040002
-0.10301965 0.067381389 0.67263633
-0.098211437 0.066116191 0.67400002
-0.11645238 0.074338101 0.67000002
-0.11228191 0.073248662 0.67090911
-0.10769184 0.072438024 0.67308325
-0.10463049 0.07125143 0.67400002
-0.12190245 0.078867353 0.67014289
-0.11752635 0.07760635 0.67066669
-0.11288806 0.077142596 0.67245454
-0.10848191 0.075102866 0.67400002
-0.12730435 0.083217166 0.67015386
-0.12289964 0.082640305 0.67184609
-0.11774075 0.081273019 0.67311114
-0.11376762 0.080439053 0.67300004
-0.1359143 0.089971438 0.67000002
-0.13243377 0.088347189 0.67000008
-0.1277024 0.087814637 0.6709286
-0.12370301 0.086711437 0.6730001
-0.1281704 0.091490597 0.67177778
-0.11670382 0.034172386 0.67700005
-0.11277907 0.034155563 0.67666674
-0.1523042 0.039141525 0.67820001
-0.14916001 0.039388575 0.67800003
-0.14032668 0.039446671 0.67900002
-0.13709334 0.039446671 0.67900002
-0.13197413 0.038536355 0.67816675
-0.12780431 0.037966955 0.67570007
-0.12253335 0.037209947 0.67755556
-0.11836414 0.036302544 0.67666668
-0.11250001 0.035357144 0.67500007
-0.10870343 0.038044762 0.67699999
-0.087214291 0.038785718 0.67500007
-0.1562143 0.041142859 0.67500001
-0.15364286 0.040500008 0.67500007
-0.14916001 0.040680002 0.67800003
-0.14151573 0.041355718 0.67850006
-0.13743824 0.041628715 0.67842859
-0.1349543 0.041971438 0.67800009
-0.10693246 0.041808181 0.67708343
-0.10228139 0.043297153 0.67854548
-0.097575888 0.043199055 0.67700005
-0.092579059 0.041331813 0.67600006
-0.088714287 0.040500004 0.67500001
-0.076071441 0.043500002 0.67500007
-0.073408581 0.042537555 0.67528576
-0.099000007 0.04564286 0.67500001
-0.076500006 0.047746759 0.67500013
-0.072238043 0.047332454 0.67550015
-0.06878572 0.04564286 0.67500001
-0.081694387 0.053219911 0.67650008
-0.078542076 0.051860794 0.67783332
-0.09128572 0.05978572 0.67500001
-0.087189525 0.058892388 0.67528576
-0.083121598 0.057066035 0.6783334
-0.095785722 0.064928576 0.67500001
-0.092327915 0.062495153 0.67510009
-0.088299289 0.062035955 0.67675006
-0.10092857 0.068142861 0.67500001
-0.097510956 0.067799054 0.67583346
-0.092795245 0.066180855 0.67611116
-0.10232621 0.072402745 0.67575008
-0.09870939 0.071245179 0.6774286
-0.11065286 0.078486674 0.67550004
-0.10765972 0.077398963 0.67610002
-0.10283013 0.076815464 0.67776924
-0.12085715 0.084214292 0.67500001
-0.11680128 0.083952069 0.67633337
-0.11262882 0.082176678 0.67675
-0.10928667 0.080833338 0.67900002
-0.12196963 0.087805435 0.67690009
-0.1180073 0.086353347 0.67833328
-0.16090287 0.033222858 0.68400002
-0.15770717 0.033338003 0.68370003
-0.15268573 0.033097461 0.68366671
-0.1478743 0.034525715 0.68400002
-0.13224001 0.034525715 0.68400002
-0.12572572 0.034525715 0.68400002
-0.12246858 0.034525715 0.68400002
-0.16090287 0.039085716 0.68400002
-0.15744941 0.037642729 0.68314296
-0.15200678 0.036734577 0.68150002
-0.14723913 0.038203742 0.68321431
-0.14166985 0.03914794 0.68133342
-0.13715036 0.037810478 0.68322223
-0.13326369 0.03649497 0.68257153
-0.12791286 0.036127146 0.68350005
-0.1234416 0.035671435 0.68099999
-0.11009143 0.038434289 0.68400002
-0.10720401 0.038331624 0.68220007
-0.10253709 0.038301513 0.68358344
-0.097687453 0.03777197 0.6838125
-0.092487164 0.037975855 0.68250012
-0.088723816 0.038209528 0.68000001
-0.10211468 0.041390102 0.68120003
-0.097788393 0.041167054 0.68180007
-0.093904771 0.040800001 0.68000001
-0.078822859 0.054068577 0.68400002
-0.082084581 0.05848458 0.68080002
-0.079269283 0.057179764 0.68225002
-0.08654926 0.063495658 0.68328577
-0.082671002 0.061282091 0.68254554
-0.092520244 0.068172619 0.68175006
-0.087508582 0.065794289 0.68400002
-0.096951343 0.073040105 0.68230003
-0.093880765 0.072006099 0.68360007
-0.1064254 0.079225406 0.68000001
-0.10182382 0.078477152 0.68099999
-0.099017151 0.076868579 0.68400002
-0.1118442 0.083851047 0.68040007
-0.10758512 0.082564332 0.68163639
-0.10298797 0.082071781 0.68245459
-0.17204085 0.02270803 0.68685728
-0.16765329 0.022545652 0.68764299
-0.16276021 0.023194669 0.68800014
-0.15847 0.023950953 0.68900001
-0.17685756 0.027808305 0.68814296
-0.17269929 0.027475003 0.6868751
-0.16745088 0.027472325 0.68681258
-0.16215947 0.02746232 0.68656254
-0.15708502 0.027489522 0.68725014
-0.15250523 0.02833786 0.68800008
-0.14895524 0.029528573 0.68900001
-0.17651527 0.031715877 0.68900001
-0.17248739 0.032535378 0.68714303
-0.16725335 0.032666672 0.68599993
-0.16257113 0.032557782 0.68599999
-0.15745334 0.031229336 0.68600005
-0.15189999 0.031033335 0.68600005
-0.1477935 0.032503814 0.68716669
-0.14253104 0.034157962 0.68785727
-0.13737608 0.034016073 0.6868751
-0.13259849 0.03416229 0.68720007
-0.12763168 0.034034524 0.68725002
-0.12230393 0.032375664 0.68755561
-0.11849906 0.032265037 0.68742865
-0.1108962 0.034778096 0.68900001
-0.10958382 0.034778096 0.68900001
-0.10226001 0.034435622 0.68740004
-0.097489536 0.034022223 0.68700004
-0.093303546 0.034159049 0.68785727
-0.17153749 0.036493018 0.68833339
-0.16743724 0.037281193 0.68675005
-0.16268003 0.037596364 0.68599999
-0.14794192 0.035950795 0.68633336
-0.14266227 0.037136022 0.68627274
-0.13916001 0.036586668 0.68600005
-0.11049382 0.036612861 0.68650007
-0.1069332 0.036515787 0.68642867
-0.10330239 0.035959527 0.68650007
-0.091466673 0.035933334 0.68600005
-0.088366985 0.0369654 0.68900007
-0.16732858 0.041340001 0.68900007
-0.076678783 0.053085856 0.68814296
-0.076720186 0.057436883 0.6874547
-0.082123958 0.06418708 0.68671435
-0.078136198 0.062085003 0.68800002
-0.091293022 0.068197787 0.68633342
-0.087572604 0.06780646 0.68677783
-0.083529852 0.066955879 0.68700004
-0.091891222 0.072246775 0.68755561
-0.08911068 0.071262293 0.68900007
-0.097232811 0.07777229 0.68622226
-0.093864284 0.076978192 0.68730003
-0.16100001 0.019057143 0.69000006
-0.15794921 0.018893018 0.69200009
-0.15168849 0.017970193 0.69370002
-0.14736837 0.0169618 0.69388896
-0.14474858 0.017845716 0.69400001
-0.17370479 0.023876194 0.69000006
-0.16625716 0.02037143 0.69000006
-0.16253334 0.020809524 0.69000006
-0.15744263 0.021802623 0.6902501
-0.15259466 0.022362499 0.69062501
-0.14771779 0.022421848 0.69243747
-0.14362858 0.022678521 0.69355565
-0.17940001 0.028914288 0.69000006
-0.15199156 0.026783215 0.69012505
-0.14736553 0.027522607 0.69140005
-0.14271782 0.027995102 0.69285721
-0.13857971 0.029302225 0.69400001
-0.1217375 0.028496549 0.69187504
-0.11697143 0.029571431 0.69000006
-0.11286001 0.029700002 0.69300002
-0.090159051 0.029614288 0.69100004
-0.17762536 0.033027261 0.69012505
-0.14599144 0.031566191 0.69050002
-0.14227608 0.031616312 0.691625
-0.13736354 0.031539053 0.69200003
-0.13244347 0.032285601 0.69187504
-0.12769344 0.031922501 0.69112504
-0.12381286 0.03095286 0.69150007
-0.11615444 0.032260276 0.69128579
-0.11269601 0.032725718 0.69279999
-0.10766777 0.034133065 0.69114292
-0.10254445 0.033595242 0.69166672
-0.099000007 0.032340001 0.69300002
-0.090666942 0.032601636 0.69057149
-0.087577246 0.033057578 0.6904546
-0.084771432 0.033514287 0.69000006
-0.1757962 0.037530795 0.69133341
-0.17339288 0.037923336 0.69050002
-0.085972145 0.03590405 0.69175005
-0.083320826 0.037564356 0.69200009
-0.17571144 0.0414581 0.6910001
-0.17222874 0.041878264 0.69066668
-0.16844764 0.043590479 0.69000006
-0.17044668 0.046066672 0.69100004
-0.16822858 0.046000004 0.69000006
-0.061468575 0.048249528 0.69400001
-0.075571433 0.054542862 0.69000006
-0.072216585 0.052749157 0.6906001
-0.067595959 0.053395793 0.69358343
-0.064112388 0.053537145 0.69400001
-0.075571433 0.059800003 0.69000006
-0.072363697 0.057891797 0.69075012
-0.068066992 0.057493448 0.6938889
-0.075927384 0.062780239 0.69025004
-0.072485805 0.062603429 0.6919167
-0.068038672 0.061433729 0.69360012
-0.081743822 0.068156831 0.69033337
-0.077985317 0.066981368 0.6914286
-0.072982863 0.065717623 0.69350004
-0.090028577 0.07294286 0.69000006
-0.087293535 0.072701335 0.69020003
-0.082911015 0.072385065 0.69093752
-0.078883074 0.072133228 0.69344455
-0.091158681 0.077873528 0.69060004
-0.083618902 0.076799214 0.69316673
-0.14683852 0.013348709 0.69585723
-0.14200366 0.012744071 0.69763643
-0.13736561 0.012622977 0.69762498
-0.13456596 0.012957858 0.69775003
-0.14826667 0.017540477 0.69500005
-0.14243633 0.017308574 0.69562507
-0.13787198 0.016897146 0.6967693
-0.13456596 0.016281191 0.69774997
-0.14145981 0.022311641 0.695889
-0.13768744 0.022553675 0.69650012
-0.14164764 0.025814287 0.69500005
-0.13754265 0.027466742 0.69561553
-0.13393144 0.028558098 0.69733334
-0.12662795 0.028556511 0.69733334
-0.12380795 0.026355876 0.69766665
-0.13257049 0.031154288 0.69600004
-0.11186191 0.031109527 0.69500005
-0.10741746 0.032557782 0.69766665
-0.096390486 0.032573335 0.69800001
-0.094260961 0.031862859 0.69700003
-0.084424764 0.033902861 0.69800001
-0.081514858 0.036775049 0.69700003
-0.069135241 0.044539049 0.69800001
-0.071027622 0.049121909 0.69700003
-0.067574799 0.047926292 0.69700003
-0.062418483 0.047730479 0.69673353
-0.057577144 0.047789961 0.69781822
-0.066996671 0.051407624 0.69650006
-0.062385645 0.052693922 0.6963079
-0.058499053 0.051851429 0.69800001
-0.065528587 0.057585716 0.69500005
-0.063348852 0.057858512 0.69600016
-0.066443816 0.063353024 0.69533342
-0.063915879 0.061927311 0.69666672
-0.075564764 0.068937145 0.69600004
-0.072404571 0.06803029 0.69620007
-0.067879431 0.067615569 0.69740009
-0.076316006 0.073136583 0.69560009
-0.072546668 0.072215006 0.69725001
-0.069135241 0.071129531 0.69800001
-0.13933334 0.012666668 0.70000005
-0.13266042 0.012708891 0.70233333
-0.12537906 0.010057144 0.70400006
-0.12269714 0.010057144 0.70400012
-0.13600001 0.019333335 0.70000005
-0.1321032 0.017497588 0.70126677
-0.12800001 0.018764129 0.70366669
-0.13533334 0.022666669 0.70000005
-0.13217662 0.022697082 0.70093763
-0.12730144 0.022536121 0.70192868
-0.12331182 0.022976764 0.7014001
-0.13212524 0.027359366 0.70066679
-0.12809128 0.027353493 0.70050001
-0.11189 0.028139526 0.70350003
-0.10717462 0.028356193 0.70333338
-0.10317953 0.028810002 0.70350003
-0.098560005 0.02883048 0.70400012
-0.092214607 0.027910478 0.70333338
-0.089046672 0.028789526 0.70300001
-0.13266668 0.030000001 0.70000005
-0.12751524 0.030042859 0.70100003
-0.11157563 0.030672384 0.70320004
-0.10769989 0.031002451 0.70114297
-0.10294208 0.031239918 0.70063639
-0.09787453 0.030898094 0.70150006
-0.093733341 0.030128574 0.70300001
-0.085699052 0.032806668 0.70300001
-0.08375001 0.033499524 0.70350003
-0.06226572 0.034145717 0.70300001
-0.061693761 0.037639789 0.70155561
-0.058089621 0.038061239 0.70110005
-0.066379808 0.043137532 0.70120007
-0.062827803 0.042775184 0.70181257
-0.057537977 0.04281738 0.70250005
-0.057372861 0.047368098 0.70050001
-0.053561907 0.048875242 0.70300001
-0.056581344 0.052445151 0.70060009
-0.052403949 0.052115645 0.70157158
-0.061250757 0.057059459 0.70014292
-0.057440065 0.057441134 0.7013126
-0.053008955 0.057148196 0.70100015
-0.061812289 0.063015334 0.70090008
-0.057705782 0.062579945 0.70221442
-0.054154288 0.061509527 0.70200002
-0.063074984 0.067456633 0.70254546
-0.058139868 0.066760272 0.70400012
-0.1311762 0.011434605 0.70633334
-0.12801926 0.012249969 0.70673329
-0.12269741 0.012790739 0.70681828
-0.11738213 0.012809207 0.7078889
-0.11217525 0.012998369 0.70771438
-0.10983096 0.013475715 0.70749998
-0.12731259 0.016669335 0.7058
-0.12273818 0.017380193 0.70733339
-0.11737169 0.017383873 0.70746672
-0.11249986 0.017515399 0.70733333
-0.10938144 0.017519524 0.70749998
-0.12123658 0.021981716 0.708
-0.1173717 0.0229534 0.70746666
-0.11287544 0.022925716 0.70800012
-0.10856001 0.023600003 0.70800006
-0.10249144 0.024948573 0.708
-0.11514001 0.026933335 0.70700002
-0.11225659 0.027021145 0.7058
-0.1077062 0.026702067 0.70683336
-0.10225566 0.027152384 0.70688885
-0.097559057 0.027255107 0.70785725
-0.09413334 0.028239049 0.70600003
-0.086308576 0.028994288 0.708
-0.082898103 0.028980639 0.70766664
-0.086861275 0.030973017 0.70699996
-0.081936195 0.031935897 0.70653844
-0.078281172 0.032522857 0.70655549
-0.071474291 0.034388572 0.708
-0.065313339 0.034340002 0.70700002
-0.063966669 0.034340002 0.70700002
-0.07922858 0.035585716 0.70500004
-0.070666671 0.03701397 0.70666671
-0.067161605 0.037549015 0.70659989
-0.063846037 0.036962226 0.70566672
-0.056970481 0.068115517 0.70614284
-0.11611715 0.0088276193 0.71300006
-0.11227402 0.008233198 0.71200007
-0.10815477 0.0084766671 0.71200001
-0.1210381 0.011495239 0.71000004
-0.11760736 0.011306125 0.71028578
-0.11256042 0.010917689 0.71014291
-0.10738255 0.012354606 0.71273339
-0.1210381 0.019609526 0.71000004
-0.11562858 0.019609526 0.71000004
-0.10711255 0.01739873 0.71183342
-0.10345133 0.018453691 0.71112502
-0.11562858 0.022314288 0.71000004
-0.11093406 0.022998333 0.71025002
-0.10764869 0.022342436 0.71088892
-0.10318049 0.022344097 0.71090007
-0.099140957 0.023766669 0.71300006
-0.10819048 0.02501905 0.71000004
-0.097405009 0.02502786 0.71025002
-0.092034981 0.026321214 0.71200019
-0.087351009 0.026566755 0.71200007
-0.083745338 0.02728248 0.71260005
-0.09128572 0.030428573 0.71000004
-0.089933336 0.030428573 0.71000004
-0.07537429 0.033952385 0.71300006
-0.073000006 0.033613335 0.713
-0.06796328 0.033739593 0.71057147
-0.072352387 0.03651429 0.71000004
-0.11572477 0.0075323815 0.71900004
-0.10569525 0.0088647623 0.71600002
-0.10433143 0.0088647623 0.71600002
-0.10569525 0.010228572 0.71600002
-0.10359033 0.012978572 0.71716666
-0.097512394 0.014320001 0.71600002
-0.10192509 0.016153654 0.7166667
-0.098263338 0.016377144 0.71650004
-0.092999056 0.019830476 0.71800005
-0.10160382 0.02250286 0.71600002
-0.095181912 0.021912381 0.71900004
-0.092724495 0.02276531 0.71814293
-0.087640196 0.022831049 0.71780008
-0.081220642 0.027833968 0.71866673
-0.076465085 0.028988255 0.71900004
-0.07656119 0.03144405 0.71775001
-0.072907627 0.031667624 0.71766675
-0.067791432 0.032183811 0.71900004
-0.095711432 0.0075742863 0.72300005
-0.10229198 0.012651157 0.72085726
-0.096954286 0.012548335 0.72200006
-0.092920147 0.013274423 0.72271436
-0.096400008 0.016525716 0.72300005
-0.092579246 0.017744955 0.7222001
-0.088702865 0.019940954 0.72200006
-0.091200009 0.021942858 0.72000003
-0.089203343 0.022300478 0.72050005
-0.080228575 0.028114287 0.72000003
-0.077805601 0.027136073 0.72137505
-0.072902702 0.028198257 0.72216672
-0.068719432 0.028231431 0.72300005
-0.07131429 0.030857146 0.72000003
-0.06871286 0.030921431 0.72150004
-0.10222548 0.008979287 0.72525001
-0.097357154 0.0089761913 0.72500008
-0.092649058 0.0089885723 0.72599995
-0.089440003 0.0090133343 0.72800004
-0.081694297 0.006711429 0.72900003
-0.079380006 0.0071742861 0.72900003
-0.10183182 0.010639048 0.72540003
-0.097817473 0.010817461 0.72500008
-0.092070162 0.011748468 0.72566664
-0.087653533 0.013293715 0.72700006
-0.083950952 0.013876667 0.72850001
-0.091770604 0.017455358 0.72587502
-0.087327227 0.017326906 0.72775
-0.083063655 0.01712143 0.72883338
-0.08608561 0.021924553 0.72700006
-0.082412064 0.022158574 0.72716665
-0.078218289 0.022839433 0.72680002
-0.071759723 0.022718195 0.72730005
-0.068545714 0.022846667 0.72700012
-0.082857147 0.02554762 0.72500002
-0.077333339 0.02554762 0.72500002
-0.072533339 0.025559366 0.72533339
-0.067271054 0.027488003 0.72519994
-0.064214289 0.027619049 0.72500002
-0.066285715 0.03107143 0.72500002
-0.089112386 0.0048733335 0.73100001
-0.087541133 0.0075326408 0.7310909
-0.082846671 0.0082548298 0.73100007
-0.077973336 0.0090504764 0.73100001
-0.087023817 0.011139048 0.73100007
-0.081852116 0.012332518 0.73100007
-0.077346675 0.012543651 0.73166668
-0.080990165 0.017636828 0.73100007
-0.077452913 0.017444024 0.73266673
-0.073120385 0.018594669 0.73400003
-0.069205716 0.018874288 0.73400003
-0.076882869 0.021136828 0.73166674
-0.073517725 0.020785144 0.7324
-0.075857624 0.0084280949 0.73750001
-0.073700003 0.0077209529 0.73700005
-0.07500191 0.014019049 0.73600006
-0.073900007 0.014780001 0.73900002
-0.07500191 0.016121905 0.73600006
-0.072311908 0.016848415 0.73716676
-0.068149939 0.017161636 0.73771435
-0.070054293 0.0035380954 0.74300003
-0.068639055 0.0021228574 0.74300003
-0.071810842 0.0081360722 0.74287504
-0.068167314 0.006840318 0.74300003
-0.075613335 0.011306668 0.74200004
-0.072071925 0.012414491 0.74192864
-0.068922147 0.013075953 0.74225003
-0.071253024 0.0040238099 0.74566674
-0.067227386 0.0037250002 0.745
-0.064204767 0.0038440002 0.74740005
-0.071661912 0.0070952387 0.74500006
-0.066931754 0.0082777794 0.74500006
-0.063457698 0.00802177 0.7462858
-0.059088096 0.0085423812 0.74750006
-0.066931754 0.012850265 0.745
-0.062566966 0.012798157 0.74656254
-0.058020242 0.012813573 0.74750012
-0.054780003 0.013517144 0.74700004
-0.066162862 0.016362859 0.74700004
-0.064740002 0.016362859 0.74700004
-0.056579053 -0.00071619055 0.75200003
-0.061988957 0.0027196191 0.75160009
-0.05751776 0.0022798274 0.75236368
-0.053068578 0.0028685718 0.75300002
-0.061576877 0.0068410886 0.75057149
-0.0571246 0.0070342859 0.75133336
-0.052496515 0.0073946035 0.75166672
-0.056428574 0.010714287 0.75000012
-0.053571433 0.010714286 0.75000006
-0.062857144 0.016428573 0.75000006
-0.052651435 -0.00072126993 0.7573334
-0.055366669 0.00071904768 0.75500005
-0.052537143 0.0021587303 0.75566673
-0.049286358 0.0031263493 0.7573334
-0.056085717 0.006471429 0.75500005
-0.052850008 0.006111905 0.75500005
-0.050624453 -0.0055711116 0.76300001
-0.048686668 -0.0050866669 0.76300001
-0.050695058 -0.0024702859 0.76260006
-0.048644133 -0.0021793654 0.76233339
-0.050699528 0.00072428578 0.76050007
-0.047201432 0.0021795239 0.76250005
-0.04432667 0.0036333336 0.76300001
-0.048814289 -0.0065571433 0.76500005
-0.047480956 -0.0021933336 0.76700008
-0.047037862 0.001822143 0.76575005
-0.046380002 -0.015460001 0.77300006
-0.042685956 -0.015455002 0.77275002
-0.037528891 -0.015453334 0.77266669
-0.046380002 -0.01398762 0.77300006
-0.042463724 -0.012638616 0.77236366
-0.038256668 -0.012507144 0.77250004
-0.046858672 -0.0063169533 0.77120006
-0.042653751 -0.007353751 0.77218765
-0.037711073 -0.0082777385 0.77262509
-0.034600955 -0.0095704766 0.77300006
-0.046200003 -0.0022000005 0.7700001
-0.043397147 -0.0022066669 0.77233344
-0.043339685 0.0014688892 0.7713334
-0.037095241 -0.020773334 0.77900004
-0.034780003 -0.021460002 0.77700001
-0.020921716 -0.021515239 0.77900004
-0.018547621 -0.022999048 0.77900004
-0.041333336 -0.016976191 0.77500004
-0.037528031 -0.01807769 0.77700007
-0.033163704 -0.016871007 0.77766669
-0.027410209 -0.016616464 0.77785724
-0.022034029 -0.016913682 0.77827281
-0.045761909 -0.01107143 0.77500004
-0.036166668 -0.01254762 0.77500004
-0.032531749 -0.01257016 0.77633333
-0.027380003 -0.01258 0.77700001
-0.022808362 -0.012927302 0.77811116
-0.046500005 -0.0095952386 0.77500004
-0.037297145 -0.0055390485 0.7755
-0.032547213 -0.0073948302 0.77671444
-0.027691621 -0.009031429 0.77740002
-0.024482859 -0.0096447626 0.77900004
-0.040595241 -0.002214286 0.77500004
-0.037695557 -0.0022174604 0.77611119
-0.03319101 -0.0023886776 0.77833349
-0.040647622 0.0014790477 0.77600002
-0.03803524 0.0013327621 0.77700007
-0.033355877 0.00074126991 0.77833337
-0.012693334 -0.03136 0.78400004
-0.021197144 -0.026405716 0.78100002
-0.01713397 -0.027564444 0.78222227
-0.013109661 -0.027393743 0.78342861
-0.031996191 -0.020835556 0.78133339
-0.02742615 -0.022147188 0.78218186
-0.022943204 -0.022672037 0.78163642
-0.016997058 -0.022280175 0.78218186
-0.012822512 -0.022592556 0.78363639
-0.0097066676 -0.022400003 0.78400004
-0.031942859 -0.018200001 0.78000003
-0.027485717 -0.018571429 0.78000003
-0.024514288 -0.018571429 0.78000003
-0.017142436 -0.017144129 0.78266668
-0.01368889 -0.018168891 0.7840001
-0.020569526 -0.011647619 0.78066671
-0.017162751 -0.012685715 0.78355557
-0.030457145 -0.0052000005 0.78000003
-0.027322724 -0.0062712934 0.78142864
-0.022444448 -0.008363599 0.78266668
-0.017173335 -0.0097066676 0.78400004
-0.03123905 -0.0022333334 0.78100002
-0.028373335 -0.0037333337 0.78400004
-0.036586668 0.0022400001 0.78400004
-0.011228573 -0.031440001 0.78600001
-0.0097685717 -0.030808574 0.78900003
-0.011228573 -0.028445717 0.78600001
-0.0080862436 -0.027431007 0.78788894
-0.0037571432 -0.026300002 0.78900003
-0.011228573 -0.02021143 0.78600001
-0.0071691843 -0.022475716 0.78664297
-0.0027547095 -0.022456298 0.78888893
-0.012226669 -0.016718097 0.78600001
-0.0075009521 -0.017253017 0.78766674
-0.0030057146 -0.017282858 0.78900003
-0.012735239 -0.01273651 0.78666675
-0.0075070648 -0.012761669 0.78825009
-0.0026300002 -0.012022858 0.78900003
0.0022542861 -0.014277143 0.78900003
-0.022476429 -0.0059950007 0.78675002
-0.017450614 -0.0082416339 0.78685719
-0.012763493 -0.008258095 0.78833336
-0.0080765486 -0.0088277385 0.78887504
-0.0030057146 -0.0097685717 0.78900003
-0.027392859 -0.0026257145 0.78800005
-0.024702858 -0.0037428574 0.78600001
-0.0063563273 -0.032214291 0.79185718
-0.0025678098 -0.031568956 0.79300004
0.0011328572 -0.032097623 0.79300004
-0.005775556 -0.02887778 0.79100007
-0.0020716668 -0.028061669 0.79099995
0.0022621166 -0.027889421 0.79144442
0.005286667 -0.026433336 0.79300004
-0.00075333344 -0.022851115 0.79100007
0.0022607939 -0.022604287 0.79116672
0.0059321094 -0.022972928 0.79271442
-0.00075333344 -0.017326668 0.79100007
0.0022610584 -0.017331958 0.79122221
0.0052733338 -0.016573334 0.79100001
-0.0019586668 -0.013409334 0.79100001
0.0022600004 -0.012053335 0.79100001
0.0052733338 -0.014313335 0.79100001
-0.021093335 -0.0052733338 0.79100001
-0.016970955 -0.0056566671 0.79200006
-0.014349525 -0.005286667 0.79300004
-0.030886669 -0.00075333338 0.79100001
-0.027895559 -0.00075396837 0.79166669
-0.023412382 -0.0030209525 0.79300004
-0.0070793657 -0.036151432 0.79633331
-0.0022722452 -0.036681227 0.79528582
0.0020847621 -0.036946192 0.79575002
0.0070896833 -0.036203973 0.79750007
-0.0090857148 -0.033314288 0.79500002
-0.0018928573 -0.033692859 0.79500002
0.0031800002 -0.032860003 0.79500002
0.0071392381 -0.032807242 0.7974
0.011400001 -0.034200002 0.79800004
0.0080007333 -0.027731137 0.79692316
0.0087795928 -0.021784492 0.79657149
0.012160001 -0.021280002 0.79800004
0.0079156477 -0.018322179 0.79685718
0.013017144 -0.040582858 0.80400002
0.01756762 -0.040481906 0.80200005
0.0094215889 -0.037937146 0.80200005
0.012561635 -0.037250068 0.80285722
0.016080001 -0.035988573 0.80400002
0.0099047627 -0.032000002 0.80000001
0.013160001 -0.03261143 0.80100006
0.01683905 -0.032911435 0.80366671
0.012961112 -0.027446829 0.80050009
0.017284764 -0.027225336 0.80299997
0.021184763 -0.026289526 0.80400008
0.013561904 -0.022704763 0.80000001
0.01738905 -0.022357143 0.80250001
0.021184763 -0.023226669 0.80400008
0.013000954 -0.018353336 0.80299997
0.01680381 -0.01909524 0.80200005
0.013573334 -0.041230481 0.80666673
0.017679049 -0.041502863 0.80700004
0.014584763 -0.038380954 0.80600005
0.017870478 -0.037851907 0.8070001
0.022316193 -0.036167622 0.80800003
0.019190479 -0.033007622 0.80600011
0.022449143 -0.032749336 0.80720007
0.025394287 -0.034628574 0.80800003
0.019190477 -0.029169526 0.80600005
0.021646859 -0.028401909 0.80600005
0.022391114 -0.04169143 0.81066674
0.026342383 -0.041836672 0.81350005
0.022400318 -0.038618736 0.81100005
0.026304446 -0.03791143 0.81233335
0.027034095 -0.032440193 0.81100005
0.030933335 -0.033255875 0.81200004
0.023914287 -0.028542859 0.81000006
0.025520002 -0.028613335 0.81200004
0.028719049 -0.041914288 0.81500006
0.031901907 -0.042017147 0.81700003
0.035014287 -0.041239049 0.81700003
0.028742542 -0.03806445 0.81566668
0.031747386 -0.037977859 0.81800008
0.035879999 -0.037440002 0.81900007
0.024180003 -0.026520003 0.81900007
0.025740001 -0.026520003 0.81900007
0.033621907 -0.037531432 0.82100004
0.035967622 -0.037531432 0.82100004
0.028930478 -0.030494288 0.82100004
0.030494288 -0.030494288 0.82100004
0.028171431 -0.027387623 0.82166672
0.030494288 -0.028930478 0.82100004
0.023755874 -0.023233335 0.82233334
0.026367305 -0.023755874 0.82233334
