# .PCD v0.7 - Point Cloud Data file format
VERSION 0.7
FIELDS x y z
SIZE 4 4 4
TYPE F F F
COUNT 1 1 1
WIDTH 670
HEIGHT 1
VIEWPOINT 0 0 0 1 0 0 0
POINTS 670
DATA ascii
-0.097133338 -0.011906668 0.65800005
-0.10089334 -0.0081466679 0.65800005
-0.099138677 -0.0083973352 0.65800005
-0.093373336 -0.0056400006 0.65800005
-0.080191433 -0.020837145 0.66300005
-0.096462868 -0.015761908 0.66200006
-0.092095718 -0.017032223 0.66233343
-0.086941399 -0.017330552 0.66261548
-0.082113095 -0.017785465 0.66220015
-0.077095866 -0.017541235 0.66194129
-0.073877148 -0.017680001 0.66300005
-0.097125456 -0.012634546 0.66027272
-0.092369631 -0.012486817 0.6607368
-0.087257288 -0.012696872 0.66185725
-0.082676962 -0.012470475 0.66133344
-0.07740508 -0.012726454 0.66077787
-0.073764771 -0.01219143 0.66200006
-0.096377581 -0.0078355856 0.66063643
-0.091774486 -0.007679366 0.66093338
-0.087304302 -0.0075675515 0.6622144
-0.082485944 -0.0077096713 0.66192323
-0.078036413 -0.0078208856 0.66078585
-0.074800007 -0.0081714299 0.66000003
-0.095273815 -0.0037861906 0.66250002
-0.091926076 -0.0037777382 0.66112506
-0.088017143 -0.0041014287 0.66250002
-0.080191433 -0.0044200001 0.66300005
-0.09620858 -0.021662857 0.66900003
-0.092601672 -0.021798098 0.66825008
-0.087666862 -0.022013718 0.66800004
-0.082667723 -0.022258004 0.66769999
-0.077352904 -0.022431431 0.66700006
-0.072655961 -0.022349127 0.66725004
-0.067989059 -0.021973575 0.66875011
-0.096905597 -0.018557502 0.666125
-0.092571676 -0.019655477 0.66575003
-0.088078104 -0.019220956 0.66533339
-0.071673028 -0.017760001 0.66600001
-0.067664586 -0.017797524 0.66900003
-0.071765453 -0.013699593 0.66685718
-0.067154869 -0.013889717 0.66900009
-0.085500002 -0.0057000006 0.66500002
-0.084233336 -0.0057000006 0.66500002
-0.076633342 -0.0057000006 0.66500002
-0.086094931 -0.0035952383 0.66633338
-0.082477793 -0.0028528571 0.66616672
-0.077418402 -0.0025372019 0.66631246
-0.074171431 -0.0015923812 0.66850007
-0.077326484 0.0017838096 0.66880012
-0.074227147 0.0015928573 0.66900003
-0.092434295 -0.030169526 0.67400002
-0.096805088 -0.026653653 0.67166674
-0.092286125 -0.027558653 0.67291665
-0.087683573 -0.027091196 0.67324996
-0.082041912 -0.026920956 0.67299998
-0.077273883 -0.027161501 0.67214286
-0.072809726 -0.027257526 0.67180008
-0.068359368 -0.027245719 0.6722222
-0.064190477 -0.025034288 0.67400002
-0.10172402 -0.022676002 0.67259997
-0.097562388 -0.023431113 0.671
-0.092602722 -0.024177419 0.67057151
-0.088008203 -0.024397526 0.67060006
-0.083335243 -0.024630478 0.67000002
-0.07848572 -0.024885718 0.67000002
-0.072104767 -0.024566669 0.67000002
-0.067196555 -0.023942502 0.67037505
-0.063125335 -0.022197338 0.6735999
-0.059697147 -0.021824764 0.67400002
-0.10181239 -0.019849842 0.67233342
-0.065723814 -0.018504763 0.67000002
-0.062799409 -0.017943216 0.67287493
-0.059697147 -0.019257145 0.67400002
-0.07205572 -0.011207143 0.67250001
-0.067912474 -0.012256712 0.67100006
-0.064308897 -0.012820001 0.67300004
-0.075574771 -0.0070480956 0.67250001
-0.072738394 -0.007349378 0.67315382
-0.068683811 -0.0075277933 0.67399997
-0.088050887 -0.0015578234 0.6734286
-0.083674297 -0.00063873024 0.67066669
-0.072308972 -0.0028754761 0.67091674
-0.068258516 -0.0023834014 0.6734286
-0.064768255 -0.0019250796 0.67333335
-0.086584777 0.001374422 0.6734286
-0.082520016 0.0025607937 0.67166662
-0.078505568 0.0038296827 0.67016667
-0.072309285 0.002875159 0.67091674
-0.067808628 0.0025586314 0.67168754
-0.063530959 0.0028119048 0.67110002
-0.081402227 0.0064098421 0.67300004
-0.077150002 0.0074227625 0.67170006
-0.072878689 0.0076717865 0.67124999
-0.067802146 0.0076763099 0.67162502
-0.062841088 0.0078079375 0.67193341
-0.07574477 0.011554287 0.67400002
-0.07256072 0.011694049 0.67275
-0.067967147 0.012824289 0.6732499
-0.06347914 0.01241472 0.67327279
-0.066478729 0.016459685 0.67333335
-0.064640008 0.016000001 0.67200005
-0.091973655 -0.032159049 0.67533338
-0.087665081 -0.031587776 0.67683339
-0.082610801 -0.031626347 0.67766678
-0.077457711 -0.031630076 0.67775005
-0.072293743 -0.031629764 0.67775005
-0.067202866 -0.031663336 0.67850006
-0.06243927 -0.031399261 0.67899996
-0.057524763 -0.03102508 0.67866671
-0.054320004 -0.030393336 0.67900002
-0.086464286 -0.028607145 0.67500001
-0.082376435 -0.028960716 0.67575008
-0.077396199 -0.028942859 0.67533338
-0.072750479 -0.02897143 0.67600006
-0.066360004 -0.028671432 0.67650002
-0.062526949 -0.027311975 0.67585725
-0.057825025 -0.02691759 0.67613339
-0.053531051 -0.027347812 0.67720008
-0.061714292 -0.023785716 0.67500001
-0.057384074 -0.022403117 0.67563647
-0.053620484 -0.021524098 0.67670006
-0.057838175 -0.017693555 0.67653859
-0.054455243 -0.01829524 0.67800009
-0.0615796 -0.012886261 0.67657155
-0.058106292 -0.013784763 0.67640013
-0.066138223 -0.0082070241 0.67587507
-0.062717229 -0.0079626208 0.67775005
-0.066214293 -0.0038571432 0.67500001
-0.064285718 -0.0045000003 0.67500001
-0.087198295 0.0034782861 0.67620003
-0.086346291 0.006841525 0.67760003
-0.082868576 0.0085072387 0.67660004
-0.079071432 0.0090000005 0.67500001
-0.081585534 0.011766097 0.67880005
-0.07772924 0.013245425 0.67707694
-0.072964571 0.014284573 0.67560005
-0.076053977 0.016589843 0.67866677
-0.071998104 0.016950002 0.67799997
-0.068271436 0.017614288 0.67500001
-0.067850009 0.028432859 0.67850006
-0.086381771 -0.036728986 0.68342865
-0.082230166 -0.036667839 0.6834445
-0.077788576 -0.0361281 0.68350005
-0.07241831 -0.036824234 0.68366671
-0.067955039 -0.036691327 0.68388891
-0.062790208 -0.036371984 0.68371433
-0.057283815 -0.036453813 0.68350005
-0.051968195 -0.036078673 0.68380004
-0.048205718 -0.035828575 0.68400002
-0.090019055 -0.034323812 0.68000001
-0.087002628 -0.034412146 0.68175006
-0.082410157 -0.034391113 0.68133342
-0.077942863 -0.034424763 0.68200004
-0.072799057 -0.034450002 0.6825
-0.067649528 -0.034475241 0.68300003
-0.061865583 -0.033670206 0.6817143
-0.05692276 -0.033549208 0.68177778
-0.051881656 -0.032638989 0.68266678
-0.048278373 -0.032837283 0.68371433
-0.050811432 -0.028662859 0.68400002
-0.048821431 -0.028641431 0.68350005
-0.060228575 -0.0071238098 0.68000001
-0.092757903 -0.0014310478 0.68300003
-0.09139508 0.0021709525 0.68383336
-0.088723816 0.0045333337 0.68000001
-0.090548575 0.0058628577 0.68400002
-0.087919056 0.008183429 0.68180007
-0.086251438 0.012042858 0.68350005
-0.083092742 0.013472738 0.68162495
-0.081724763 0.017419524 0.68375003
-0.078036465 0.01772354 0.68200004
-0.07334239 0.018498573 0.68150008
-0.080125719 0.020194286 0.68400002
-0.077166431 0.02051262 0.68375003
-0.072487622 0.021599481 0.68345463
-0.071005717 0.026057145 0.68400002
-0.06942191 0.027222289 0.68380004
-0.06905143 0.030617144 0.68400002
-0.081666864 -0.041816957 0.6882
-0.077253528 -0.04197219 0.68860006
-0.072512701 -0.041717466 0.68800008
-0.067587622 -0.040027626 0.68900001
-0.057088576 -0.040465083 0.68900001
-0.052713972 -0.040027626 0.68900001
-0.04790191 -0.040683813 0.68900007
-0.043964766 -0.041340001 0.68900001
-0.082057014 -0.039301634 0.68614286
-0.077149436 -0.038575333 0.68650001
-0.072900005 -0.039555717 0.68650001
-0.067946672 -0.038873337 0.68600005
-0.062364575 -0.038307812 0.68640006
-0.057562701 -0.039029688 0.68683338
-0.052314173 -0.03825536 0.68662512
-0.047049422 -0.037451323 0.6872223
-0.043964766 -0.03674667 0.68900001
-0.046275653 -0.032815512 0.68714297
-0.043964766 -0.034778096 0.68900001
-0.050380003 -0.026825717 0.68700004
-0.047184885 -0.027523931 0.68812507
-0.096180007 -0.0013085715 0.68700004
-0.094871432 -0.00065428577 0.68700004
-0.095733814 0.0026242859 0.68850005
-0.093485601 0.0028948304 0.68642867
-0.092322856 0.0065476196 0.6875
-0.089898102 0.0085304771 0.68900001
-0.086956672 0.013076668 0.68650007
-0.086445123 0.017027978 0.68762505
-0.083844453 0.018511113 0.68600005
-0.085960954 0.020341907 0.68900001
-0.08259429 0.022289116 0.68828589
-0.077389054 0.023138193 0.68629998
-0.073391117 0.023302224 0.68600005
-0.081367627 0.025591429 0.68900001
-0.077180512 0.027388129 0.6879335
-0.072866857 0.027735053 0.6868
-0.075461909 0.030840954 0.68900001
-0.071939573 0.032142539 0.6887778
-0.068700008 0.033368573 0.68700004
-0.071330957 -0.045572862 0.69350004
-0.068078101 -0.045605719 0.69400001
-0.061468575 -0.045605719 0.69400001
-0.076228574 -0.044028573 0.69000006
-0.071984455 -0.04367524 0.69133341
-0.06718231 -0.042485323 0.69158334
-0.062609702 -0.042002603 0.69200009
-0.057884235 -0.042666037 0.69155556
-0.052672066 -0.042798415 0.69133329
-0.047014862 -0.042934291 0.69140011
-0.042978693 -0.041663453 0.691625
-0.045342859 -0.038771432 0.69000006
-0.0418065 -0.037128747 0.69281822
-0.037674289 -0.035030477 0.69400001
-0.031725716 -0.037674289 0.69400001
-0.045342859 -0.03154286 0.69000006
-0.043348853 -0.032629117 0.69114292
-0.045392144 -0.027627859 0.69075006
-0.04296536 -0.02814631 0.69137502
-0.098377913 0.0028977143 0.69140005
-0.096732788 0.0068770074 0.69228578
-0.092594296 0.0090461913 0.69075
-0.09088096 0.012227619 0.69400001
-0.088714294 0.013142858 0.69000006
-0.090550482 0.016523812 0.69400001
-0.088907152 0.017124288 0.69150001
-0.087278925 0.022123268 0.69200003
-0.084771432 0.024314288 0.69000006
-0.086210482 0.025665715 0.69100004
-0.082351074 0.027287504 0.69037509
-0.079514287 0.029571431 0.69000006
-0.081297152 0.031064764 0.69400001
-0.077548578 0.032516886 0.69163638
-0.073081277 0.034238737 0.69133341
-0.069300003 0.034980003 0.69300002
-0.076450162 0.036352385 0.69400001
-0.072695799 0.037669927 0.6939168
-0.072413951 0.042107556 0.69392878
-0.069400005 0.042961907 0.69400001
-0.054198097 0.044283811 0.69400001
-0.071685635 0.047263335 0.69310009
-0.067350306 0.047540653 0.69331241
-0.061986353 0.048048157 0.69322222
-0.057958253 0.047901101 0.69338471
-0.054178335 0.047570959 0.69375002
-0.071382865 0.051554292 0.69400001
-0.067205422 0.052372303 0.69338465
-0.062278315 0.05276211 0.6925
-0.057951733 0.052671138 0.69330782
-0.05485905 0.051554289 0.69400001
-0.061439689 0.056153975 0.6936667
-0.071485713 -0.047657147 0.69500005
-0.067508191 -0.047401361 0.69608343
-0.062367972 -0.047184773 0.6960001
-0.057436194 -0.047091436 0.69640011
-0.05284461 -0.04621318 0.69650006
-0.047500141 -0.046363004 0.69685721
-0.042483244 -0.046865713 0.69700003
-0.038740322 -0.046267308 0.69733334
-0.029914288 -0.047198098 0.69800001
-0.065528579 -0.044347622 0.69500005
-0.061557144 -0.044347622 0.69500005
-0.058909528 -0.044347622 0.69500005
-0.041132655 -0.043023817 0.69500011
-0.037171904 -0.042485237 0.69700003
-0.032765526 -0.042183619 0.69640005
-0.040376194 -0.039052382 0.69500005
-0.037036259 -0.03721403 0.69526672
-0.032604575 -0.03697696 0.69580013
-0.029785717 -0.03574286 0.69500005
-0.041038096 -0.032433338 0.69500011
-0.037105795 -0.032467227 0.69575012
-0.032550476 -0.033546194 0.69749999
-0.10200714 0.0039747618 0.69550002
-0.10247926 0.0064952383 0.6960001
-0.098182544 0.0083841272 0.69500011
-0.096510798 0.011704445 0.69566673
-0.093561679 0.012751668 0.69550008
-0.095060959 0.016619049 0.69800001
-0.092757262 0.017018626 0.69622231
-0.091472074 0.021040954 0.69766665
-0.089001596 0.023188889 0.69566673
-0.082976192 0.02987143 0.69700003
-0.081844956 0.032763433 0.69640011
-0.080378577 0.035871908 0.69749999
-0.078066312 0.037624884 0.69612503
-0.068284646 0.038121313 0.69612503
-0.064481907 0.039220955 0.69800001
-0.077252626 0.040779762 0.69625008
-0.074795246 0.043685719 0.69500005
-0.067121916 0.04224997 0.69569236
-0.062348358 0.042942353 0.69700003
-0.057394769 0.042945433 0.69590008
-0.05265969 0.043590795 0.69700003
-0.049857147 0.044539049 0.69800001
-0.063218862 0.046253528 0.69580001
-0.056261908 0.045671433 0.69500005
-0.051646907 0.047674999 0.69525009
-0.048514813 0.04778944 0.69781816
-0.067514285 0.0549381 0.69500005
-0.053068984 0.052123412 0.69528586
-0.049642861 0.050966669 0.69500005
-0.065685719 0.05772572 0.69666672
-0.062500007 0.058083072 0.69566673
-0.05791742 0.056970481 0.69671434
-0.050285719 -0.055649526 0.70400006
-0.048875242 -0.056240004 0.70300001
-0.066475883 -0.050913341 0.70033336
-0.062743932 -0.050730601 0.70087504
-0.057791963 -0.051100116 0.70288891
-0.052009802 -0.05210558 0.70400017
-0.047474682 -0.052156746 0.70208347
-0.042737305 -0.05142048 0.70116675
-0.039054923 -0.050661277 0.70300007
-0.055333339 -0.048666671 0.70000005
-0.051814452 -0.048256986 0.70050013
-0.047333341 -0.048666671 0.70000005
-0.04266667 -0.048666671 0.70000005
-0.036883388 -0.047721487 0.7013334
-0.033275813 -0.047710478 0.70160002
-0.033485718 -0.031083811 0.70040005
-0.029333334 -0.034000002 0.70000005
-0.037070077 -0.029446127 0.70042861
-0.10309658 0.008402477 0.70020002
-0.10511524 0.011381906 0.70300001
-0.10247584 0.010867739 0.70212507
-0.098833889 0.012701905 0.70185721
-0.096291274 0.017790636 0.70050001
-0.094000004 0.019333335 0.70000005
-0.096008576 0.021745715 0.70249999
-0.092826486 0.023374477 0.70120007
-0.091458097 0.027182287 0.70300001
-0.087864771 0.027510241 0.70025009
-0.084666669 0.028666668 0.70000005
-0.090514295 0.030841906 0.70400006
-0.08768826 0.03213048 0.70283335
-0.08444839 0.032419052 0.70040005
-0.086152919 0.037008155 0.70366669
-0.082397245 0.0376601 0.70110005
-0.066844881 0.036428213 0.70187497
-0.062710881 0.037758976 0.70175004
-0.057542562 0.037467565 0.70256257
-0.052186873 0.037751634 0.7025001
-0.047513653 0.03814286 0.7026667
-0.043597054 0.037844669 0.7021001
-0.082156196 0.041997384 0.70275009
-0.078926675 0.042464446 0.70033336
-0.062888898 0.04066667 0.70000005
-0.057353098 0.040681195 0.70025003
-0.051810797 0.041581374 0.70044452
-0.047344446 0.042676359 0.70016664
-0.043600004 0.042400002 0.69999999
-0.046666671 0.046000004 0.70000005
-0.04466667 0.046000004 0.70000005
-0.071333341 0.054000005 0.70000005
-0.051313337 0.053725909 0.70340008
-0.061360009 -0.055965718 0.70800006
-0.056995999 -0.056457724 0.70740002
-0.052927513 -0.056959052 0.70544446
-0.061664447 -0.054040961 0.70633334
-0.057503004 -0.053854294 0.70557147
-0.054385718 -0.05371429 0.70500004
-0.0423581 -0.054462861 0.70600003
-0.037064385 -0.051621336 0.7076
-0.030994764 -0.0491881 0.70749998
-0.028994288 -0.04922286 0.708
-0.10556382 0.013448572 0.70600003
-0.10305619 0.013570857 0.70539999
-0.10181049 0.017174605 0.70716667
-0.098770015 0.017470952 0.70550001
-0.10107191 0.020888098 0.70749998
-0.09778969 0.023100793 0.70650005
-0.096960478 0.026934288 0.70700002
-0.093820959 0.027989842 0.70533341
-0.095074289 0.033714287 0.708
-0.092811912 0.032281749 0.70616663
-0.066920295 0.032986961 0.70690006
-0.062332578 0.032847431 0.70680004
-0.057760086 0.032859769 0.70658338
-0.052752294 0.033237435 0.70649999
-0.048048578 0.033781148 0.70660001
-0.043744132 0.034323812 0.70666671
-0.091744088 0.037063267 0.70757145
-0.088605054 0.038302999 0.70557147
-0.06177143 0.035585716 0.70500004
-0.052371431 0.035585716 0.70500004
-0.047671434 0.035585716 0.7050001
-0.042971432 0.035585716 0.70500004
-0.091028579 0.041131433 0.708
-0.087261222 0.042255159 0.70627278
-0.083928578 0.04364286 0.70500004
-0.083493337 0.045113336 0.70700002
-0.060773656 -0.06077493 0.71166676
-0.057663813 -0.060378738 0.71233338
-0.037534673 -0.060842097 0.71139997
-0.033244222 -0.061161231 0.71242863
-0.027013147 -0.060672957 0.71260005
-0.065590478 -0.057476193 0.71000004
-0.061787307 -0.057954609 0.71033335
-0.057855241 -0.058531906 0.7105
-0.040477782 -0.056760959 0.71233338
-0.037242863 -0.057557147 0.71100003
-0.032569528 -0.057679214 0.7125001
-0.027148178 -0.057685953 0.71258348
-0.023666669 -0.057476193 0.71000004
-0.037391435 -0.054009661 0.71014291
-0.032487802 -0.052793872 0.71068764
-0.027370751 -0.053000007 0.71085721
-0.027723812 -0.049361907 0.71000004
-0.10719655 0.017641071 0.71237504
-0.10450834 0.018602144 0.71025002
-0.1060062 0.021065239 0.71350002
-0.10229778 0.022582226 0.71133339
-0.099400006 0.023666669 0.71000004
-0.10141167 0.026455477 0.71224999
-0.098840475 0.027756669 0.71083343
-0.067178577 0.027989287 0.7125001
-0.06248403 0.027612092 0.71253854
-0.056999113 0.027299052 0.71306676
-0.052187145 0.027587906 0.71350014
-0.048960004 0.029240001 0.71400005
-0.038080003 0.029240001 0.71400005
-0.1011781 0.030557144 0.71300006
-0.098210022 0.032511592 0.71116674
-0.066942863 0.030428573 0.71000004
-0.062232144 0.030439287 0.71025002
-0.0568 0.030428573 0.71000004
-0.052341592 0.03090794 0.71066666
-0.047155809 0.031570859 0.71140003
-0.041993335 0.032080956 0.71207702
-0.037470624 0.032674879 0.71138465
-0.033558313 0.032049105 0.71266675
-0.096639067 0.037124224 0.71242863
-0.093476005 0.038824577 0.71020001
-0.039219052 0.035838097 0.71000004
-0.09574572 0.040063813 0.71300006
-0.092919067 0.042728852 0.712143
-0.089933336 0.043952383 0.71000004
-0.031504001 -0.063144378 0.71600002
-0.028640002 -0.062053338 0.71600002
-0.11024667 0.014380001 0.71900004
-0.10887715 0.014380001 0.71900004
-0.11024667 0.017803811 0.71900004
-0.11024667 0.021227621 0.71900004
-0.10728429 0.022778256 0.71750009
-0.10433143 0.023866668 0.71600002
-0.07137683 0.023031432 0.71833342
-0.067044452 0.023259684 0.71833342
-0.062604494 0.023341635 0.71785718
-0.05711887 0.02281848 0.71740001
-0.052604452 0.022542858 0.71733338
-0.048028957 0.022851432 0.7184
-0.042455241 0.023281906 0.71899998
-0.038004287 0.023624286 0.71900004
-0.032457717 0.023692764 0.71900004
-0.028075241 0.023966668 0.71900004
-0.1069207 0.027683949 0.71900004
-0.10366073 0.027666193 0.71724999
-0.070823506 0.025732066 0.71733344
-0.067579284 0.025597859 0.71675003
-0.062507942 0.025230478 0.71600002
-0.057961907 0.025230478 0.71600002
-0.053188577 0.025230478 0.71600002
-0.047576196 0.027004767 0.71657151
-0.042344172 0.027317265 0.717125
-0.037441716 0.026917716 0.71740001
-0.032800481 0.027331552 0.71749997
-0.027666667 0.027568851 0.71857142
-0.023966668 0.028075241 0.71900004
-0.10750762 0.030814288 0.71900004
-0.1038681 0.030750003 0.71750003
-0.030707143 0.03138905 0.71650004
-0.027997144 0.030728573 0.71700001
-0.11254033 0.013981588 0.72200006
-0.064037144 0.014460001 0.72300005
-0.11705716 0.01859143 0.72300005
-0.11338049 0.017865876 0.7215001
-0.066872813 0.018876193 0.72222227
-0.062917911 0.018172763 0.72280008
-0.057977717 0.019693146 0.72300005
-0.052560955 0.019968573 0.72300005
-0.047489531 0.019959368 0.72266674
-0.042691432 0.019968573 0.72300005
-0.036723815 0.019509528 0.72300005
-0.032707144 0.019624287 0.72300005
-0.026854288 0.019968573 0.72300005
-0.11774572 0.021345716 0.72300005
-0.1129729 0.022819828 0.72209102
-0.10902858 0.024000002 0.72000003
-0.071085721 0.02217143 0.72000003
-0.067611434 0.021531431 0.72000003
-0.062400006 0.021257143 0.72000003
-0.058971431 0.021257143 0.72000003
-0.04731429 0.021257143 0.72000003
-0.042514287 0.021257143 0.72000003
-0.037079051 0.021743812 0.72100008
-0.032944765 0.021962542 0.72066677
-0.027237359 0.022201378 0.72100002
-0.022717303 0.023406193 0.7228334
-0.11253124 0.027321432 0.72235721
-0.10848 0.027017144 0.72000003
-0.02537143 0.026057145 0.72000003
-0.023576193 0.026320955 0.72100008
-0.11154857 0.030985717 0.72300005
-0.10765715 0.030857146 0.72000003
-0.04096286 0.0090257153 0.72900003
-0.039574288 0.0090257153 0.72900003
-0.12011144 0.014580001 0.72900003
-0.11709382 0.013856034 0.72750008
-0.060237147 0.013846667 0.727
-0.057559215 0.01386905 0.72816676
-0.05254373 0.013308745 0.72854555
-0.047126777 0.013652066 0.72888893
-0.042153072 0.013588165 0.72900003
-0.037667017 0.01331221 0.72872734
-0.032842953 0.012747334 0.72750002
-0.028348573 0.014520001 0.72600001
-0.12150001 0.016662858 0.72900003
-0.11887176 0.017276829 0.7256667
-0.060657334 0.016994476 0.72540009
-0.057166554 0.017097503 0.725375
-0.052578177 0.01729437 0.72641671
-0.047287103 0.017188227 0.72727281
-0.042458959 0.017424477 0.72610003
-0.037598763 0.01700124 0.72569996
-0.032290716 0.017094763 0.72524995
-0.027650476 0.017281432 0.7258333
-0.023717461 0.018190477 0.72533339
-0.11807144 0.023476191 0.72500002
-0.051785719 0.020023812 0.72500002
-0.027849209 0.020023812 0.72500008
-0.023061907 0.020852381 0.72500002
-0.11738096 0.02554762 0.72500002
-0.022785716 0.02554762 0.72500002
-0.017476192 -0.070603818 0.73400003
-0.016777145 -0.06221525 0.73400009
-0.013980954 -0.061516196 0.73400003
-0.016078096 -0.058020957 0.73400009
-0.013681361 -0.058020953 0.73400009
-0.046836194 0.0048933337 0.73400003
-0.12138525 0.0083709527 0.73250002
-0.11828915 0.0082388576 0.73320001
-0.055923812 0.0090876194 0.73400003
-0.052310161 0.0083692074 0.73233342
-0.047227364 0.0077956705 0.73218185
-0.042865448 0.007658096 0.73100007
-0.039682861 0.0076580956 0.73100001
-0.1213075 0.012239457 0.73142856
-0.11773667 0.011146192 0.73150003
-0.062272955 0.013512953 0.73140007
-0.057487898 0.011058233 0.73228574
-0.052910481 0.010790952 0.73100001
-0.047440413 0.011039593 0.73100007
-0.042746101 0.01099981 0.73100001
-0.037176576 0.010721334 0.73100001
-0.022438813 -0.070820242 0.73625004
-0.017534763 -0.070844293 0.73650002
-0.014056192 -0.070988581 0.73800004
-0.026889406 -0.067135841 0.73812497
-0.022440657 -0.067320183 0.73631257
-0.017529286 -0.067314535 0.7362501
-0.012638276 -0.06741257 0.73731261
-0.0085773347 -0.06650953 0.73820007
-0.025970478 -0.063873336 0.73700005
-0.022264503 -0.062580884 0.73681825
-0.018925715 -0.062384766 0.73600006
-0.011916191 -0.062735245 0.73600006
-0.0077209533 -0.062469535 0.73700005
-0.0044574607 -0.061700642 0.73900002
-0.021107381 -0.057692148 0.73874998
-0.018002117 -0.057278521 0.73644447
-0.011760425 -0.056932915 0.73600006
-0.0077181756 -0.057536598 0.73675007
-0.0039774608 -0.057322223 0.73700005
-0.026672382 -0.051239051 0.73700005
-0.02210995 -0.052426565 0.73833334
-0.017549843 -0.052650157 0.73711115
-0.012628573 -0.05261841 0.73666668
-0.0077209533 -0.052642856 0.73700005
-0.0028076191 -0.052642863 0.73700011
-0.030140955 -0.049767621 0.73600006
-0.026951974 -0.048593607 0.73642862
-0.023608845 -0.048725855 0.73842865
-0.017595239 -0.049970478 0.73900002
-0.011433334 -0.048370004 0.73874998
-0.0076082256 -0.048014112 0.73845458
-0.002815238 -0.047859058 0.73900008
0.00070380955 -0.047155242 0.73900002
-0.010557144 -0.043636195 0.73900002
-0.0072726994 -0.043401591 0.73900002
-0.0035179597 -0.043501366 0.73842853
0.00070380955 -0.044340003 0.73900002
-0.011026351 -0.037771113 0.73900002
-0.0082111116 -0.037771113 0.73900002
-0.055600956 0.0042228573 0.73900002
-0.052684765 0.003913878 0.73757148
-0.048659623 0.0040664766 0.73620003
-0.061767623 0.0084228581 0.73700005
-0.057536431 0.0077173812 0.73675001
-0.052619051 0.0063142865 0.73666668
-0.049767621 0.0063085719 0.73600006
-0.061945718 0.01098635 0.73633337
-0.030304763 -0.066952385 0.74000001
-0.028581906 -0.068455242 0.741
-0.023609525 -0.056733336 0.74000001
-0.026076192 -0.053561907 0.74000001
-0.022920478 -0.05289286 0.74050003
-0.017619047 -0.050038099 0.74000001
-0.014800001 -0.050038099 0.74000001
-0.02148626 -0.047106672 0.74142867
-0.017657779 -0.048030801 0.74166673
-0.013648096 -0.047293495 0.74116677
-0.0091619054 -0.045809526 0.74000001
-0.012003929 -0.042363696 0.74137509
-0.0082263499 -0.041129209 0.74033344
-0.011980954 -0.038761906 0.74000001
-0.0091619054 -0.038761906 0.74000001
-0.060147624 -0.00070761907 0.74300003
-0.057056189 -0.0016504764 0.74266672
-0.061063919 0.0030643386 0.74266672
-0.057469238 0.0025406668 0.74130005
-0.054266669 0.0014095239 0.74000001
-0.062229052 0.0063642859 0.74250007
-0.059200004 0.0063428576 0.74000001
-0.030509526 -0.070242859 0.74500006
-0.03121905 -0.068823814 0.74500006
-0.017738096 -0.046119049 0.74500006
-0.014900001 -0.046119049 0.74500006
-0.021124765 -0.044385083 0.74766672
-0.017799322 -0.043836605 0.74757159
-0.014459684 -0.042191114 0.74666679
-0.013526192 -0.038442384 0.74750006
-0.063401908 -0.006411429 0.74800003
-0.066251434 -0.0021371429 0.74800003
-0.062782288 -0.002990921 0.74740005
-0.059048574 -0.0035590478 0.7470001
-0.065985717 0.0014190477 0.74500006
-0.063983276 0.0025353741 0.74528581
-0.064653337 0.0071038101 0.74600005
-0.021949049 -0.04174874 0.75150007
-0.017857146 -0.04128572 0.75000006
-0.025100002 -0.03944286 0.75300002
-0.021514289 -0.038367145 0.75300002
-0.018044157 -0.037454721 0.75236368
-0.014642858 -0.037500001 0.75000006
-0.067142859 -0.0057142861 0.75000006
-0.067285717 -0.0021428571 0.75000006
-0.025897145 -0.036686987 0.75533342
-0.022653932 -0.036857024 0.75512505
-0.015819049 -0.035233337 0.75500005
-0.022313097 -0.033468809 0.75575006
-0.018695239 -0.033795241 0.75500005
