# .PCD v0.7 - Point Cloud Data file format
VERSION 0.7
FIELDS x y z
SIZE 4 4 4
TYPE F F F
COUNT 1 1 1
WIDTH 627
HEIGHT 1
VIEWPOINT 0 0 0 1 0 0 0
POINTS 627
DATA ascii
-0.09247335 -0.031040002 0.67900002
-0.087946676 -0.031686667 0.67900002
-0.082624108 -0.031885643 0.67900002
-0.078893349 -0.031686671 0.67900002
-0.091438673 -0.027548004 0.67900002
-0.088334672 -0.028841335 0.67900002
-0.082773343 -0.028668892 0.67900002
-0.079108894 -0.028237781 0.67900008
-0.14224038 -0.016810359 0.67887497
-0.13706775 -0.016810359 0.67887497
-0.13246906 -0.016801432 0.67850006
-0.12978858 -0.016142858 0.67800003
-0.14155018 -0.012926987 0.67866671
-0.13704215 -0.012928572 0.67874998
-0.13246889 -0.012923492 0.67850006
-0.1298843 -0.012923335 0.6785
-0.14140832 -0.007931429 0.67854548
-0.1374003 -0.0079016862 0.67830777
-0.13303097 -0.0075648301 0.67807156
-0.12998001 -0.0071133338 0.67900002
-0.14082789 -0.002489388 0.67785716
-0.13753608 -0.0024895244 0.67800015
-0.13291392 -0.0027121273 0.67813349
-0.12983644 -0.0025830953 0.67825001
-0.1411889 0.001508889 0.67900008
-0.13709334 0.00064666668 0.67900002
-0.13256668 0.00064666668 0.67900002
-0.12998001 0.00064666668 0.67900002
-0.086825348 -0.036057718 0.68340003
-0.082117826 -0.036467213 0.68200004
-0.078208767 -0.036047246 0.68320006
-0.072960004 -0.035828575 0.68400002
-0.068800956 -0.036245402 0.68366671
-0.047554288 -0.037131432 0.68400002
-0.096507199 -0.031977255 0.6821112
-0.092548579 -0.033884089 0.68228573
-0.087729216 -0.03444159 0.68233341
-0.083542868 -0.034323812 0.68000001
-0.077004008 -0.032798097 0.68059999
-0.072892748 -0.032541551 0.683375
-0.067692325 -0.03254411 0.68343741
-0.062862858 -0.032245714 0.68400002
-0.11530288 -0.026708573 0.68400002
-0.11351018 -0.027999049 0.68366671
-0.10097144 -0.029314287 0.68400002
-0.097537637 -0.027308811 0.68274999
-0.092701174 -0.026721483 0.68066669
-0.087361813 -0.026479715 0.68150008
-0.08259315 -0.026361337 0.68180007
-0.07781408 -0.027671006 0.68277782
-0.07294175 -0.028872859 0.68383336
-0.06872572 -0.028988574 0.68400002
-0.14516239 -0.022133334 0.68350005
-0.14211226 -0.022308713 0.68314296
-0.13813972 -0.021594763 0.68290007
-0.11530287 -0.022800002 0.68400002
-0.10835429 -0.020628572 0.68400002
-0.097661078 -0.023438215 0.68362504
-0.092418455 -0.023429407 0.68337506
-0.087176837 -0.023222543 0.68366671
-0.083026439 -0.023768336 0.68375003
-0.1424762 -0.018780954 0.68000001
-0.13729525 -0.018780954 0.68000001
-0.13405715 -0.018780954 0.68000001
-0.14121677 0.0032426671 0.68080002
-0.13736191 0.0032403178 0.68033332
-0.1323888 0.0030456414 0.68115389
-0.12900256 0.0032425399 0.68066669
-0.14174469 0.007538192 0.68210006
-0.13771652 0.007673081 0.68273336
-0.13275769 0.0078097037 0.68331248
-0.12888722 0.0075269397 0.68300003
-0.14070858 0.011074287 0.68400002
-0.13762644 0.011387858 0.68325001
-0.13389954 0.011050001 0.6825
-0.081367627 -0.040027622 0.68900001
-0.077299252 -0.040290099 0.68900007
-0.072180957 -0.040027622 0.68900001
-0.068900004 -0.040027622 0.68900001
-0.057744768 -0.040355716 0.68900001
-0.051839054 -0.041340001 0.68900001
-0.047245719 -0.041340001 0.68900007
-0.043964766 -0.040683813 0.68900001
-0.11580858 -0.037294287 0.68700004
-0.11297303 -0.036930479 0.68833339
-0.10958382 -0.036090478 0.68900001
-0.10302191 -0.036090478 0.68900001
-0.097725719 -0.036729209 0.68866676
-0.092673525 -0.037044574 0.68720007
-0.087955795 -0.038042858 0.6870001
-0.082349293 -0.038560715 0.68625009
-0.076956868 -0.038058639 0.68728584
-0.072237283 -0.038034834 0.68685716
-0.067426547 -0.03747917 0.68737507
-0.062938094 -0.037216194 0.68772733
-0.057546087 -0.037509456 0.68723089
-0.05234167 -0.037949044 0.6870001
-0.047166463 -0.037827007 0.68650001
-0.043837145 -0.037948571 0.68700004
-0.12123119 -0.031989288 0.68900007
-0.11726049 -0.032754131 0.68783349
-0.11249582 -0.032703333 0.68675005
-0.10751356 -0.032280445 0.68738478
-0.10229861 -0.03287854 0.68766689
-0.098725244 -0.033344761 0.68650007
-0.062611118 -0.032775562 0.68599999
-0.057642113 -0.033030547 0.68778586
-0.052672666 -0.033673812 0.68790007
-0.047961671 -0.033555478 0.68750012
-0.14212763 -0.02648109 0.68771434
-0.13916001 -0.025480002 0.68600005
-0.12052032 -0.029091112 0.68900001
-0.11766785 -0.0277254 0.68766677
-0.11202154 -0.027289236 0.68599999
-0.10723352 -0.027461609 0.68656254
-0.10284235 -0.027300004 0.6870001
-0.076266676 -0.026032383 0.68680006
-0.072285235 -0.026581621 0.68750012
-0.067309253 -0.027105052 0.6875
-0.063030161 -0.028569421 0.68699998
-0.058400955 -0.029091112 0.68900001
-0.12008286 -0.020341907 0.68900001
-0.11742365 -0.022220522 0.68809098
-0.11238497 -0.022354351 0.68633336
-0.10692506 -0.022592748 0.6868462
-0.10258116 -0.022794859 0.68780005
-0.097254485 -0.021072764 0.68720001
-0.092840955 -0.02092143 0.68650001
-0.087640017 -0.020813335 0.68600005
-0.082282871 -0.021833679 0.68718195
-0.077535249 -0.023369314 0.68800002
-0.072618417 -0.02384159 0.68900007
-0.068243816 -0.024279049 0.68900001
-0.11614572 -0.018373333 0.68900001
-0.096131913 -0.01870143 0.68900001
-0.092259191 -0.017888848 0.68842864
-0.087801911 -0.018345715 0.68800008
-0.083602868 -0.018687621 0.68850005
-0.14590572 0.0098142866 0.68700004
-0.14308001 0.009800001 0.68600005
-0.14242077 0.012162859 0.68660009
-0.0958381 -0.046266671 0.69400001
-0.092467152 -0.046233337 0.69349992
-0.087906681 -0.045605719 0.69400001
-0.077257149 -0.04556191 0.69333339
-0.072415881 -0.04556191 0.69333339
-0.066847436 -0.045751818 0.69220001
-0.062961198 -0.045821194 0.69225001
-0.057502862 -0.045605719 0.69400001
-0.051847626 -0.045903336 0.69350004
-0.047416333 -0.04609688 0.69285715
-0.042278219 -0.046242032 0.69362497
-0.037225991 -0.046276059 0.69271433
-0.032896001 -0.045843814 0.69360006
-0.029742859 -0.045605719 0.69400001
-0.1112181 -0.041460004 0.69100004
-0.10759858 -0.040472861 0.69100004
-0.1027396 -0.040851433 0.69342864
-0.097347192 -0.041895024 0.69315386
-0.092184052 -0.042143453 0.69137502
-0.087479502 -0.042246815 0.69223082
-0.082909539 -0.042281594 0.69183338
-0.077674903 -0.04287421 0.6906364
-0.072338738 -0.042746037 0.69050002
-0.066935882 -0.042213716 0.69040012
-0.062154159 -0.042317148 0.69114292
-0.057656832 -0.042861275 0.6923334
-0.052886032 -0.043229744 0.69122225
-0.047082044 -0.04351062 0.69071442
-0.041814223 -0.042284559 0.69064295
-0.037474766 -0.04207715 0.69033337
-0.032918397 -0.042137202 0.69131255
-0.028525542 -0.042459052 0.69363642
-0.11111081 -0.037475877 0.69033337
-0.10764901 -0.03759706 0.69036371
-0.10253541 -0.037607271 0.69054556
-0.097363576 -0.038813572 0.69075
-0.093971431 -0.038771432 0.69000006
-0.062428575 -0.038771432 0.69000006
-0.041734289 -0.037389718 0.69119996
-0.037487093 -0.037486672 0.69055557
-0.032931991 -0.037541989 0.69158334
-0.028668383 -0.036727432 0.6936
-0.12288572 -0.033514287 0.69000006
-0.1071143 -0.034828573 0.69000006
-0.057828575 -0.030885717 0.69000006
-0.05214588 -0.031331271 0.69016671
-0.046509527 -0.032046907 0.69025004
-0.042172801 -0.032948989 0.69193745
-0.037407406 -0.032940298 0.69284618
-0.033017501 -0.034338217 0.69337493
-0.023100002 -0.033660002 0.69300002
-0.065057144 -0.025628572 0.69000006
-0.062102862 -0.026213067 0.69057149
-0.057659134 -0.027454367 0.6919167
-0.052813865 -0.027725775 0.69318748
-0.047529258 -0.028007077 0.69314295
-0.042664595 -0.028382687 0.69309098
-0.038996194 -0.029081907 0.69400001
-0.12025715 -0.021685716 0.69000006
-0.11368572 -0.02037143 0.69000006
-0.080828577 -0.02037143 0.69000006
-0.0772928 -0.020943131 0.6902858
-0.072033428 -0.021425812 0.69010007
-0.066908441 -0.022083541 0.6907143
-0.062129032 -0.022555174 0.69253331
-0.057767242 -0.02392648 0.69400001
-0.051554289 -0.02445524 0.69400001
-0.046046358 -0.02357397 0.69400001
-0.12079886 -0.017516572 0.69160002
-0.1182254 -0.017345397 0.69177788
-0.096404284 -0.01643254 0.69016671
-0.092093892 -0.015865309 0.69000012
-0.087400012 -0.015771432 0.69000006
-0.082570493 -0.016556669 0.69083345
-0.077760428 -0.01713161 0.69193745
-0.072547153 -0.017145716 0.6925
-0.067367621 -0.017171429 0.69350004
-0.063583635 -0.018110096 0.69400001
-0.12095429 -0.01388 0.69400001
-0.11963239 -0.01388 0.69400001
-0.095423818 -0.013820001 0.69100004
-0.092185125 -0.013167977 0.69137502
-0.087388575 -0.012387811 0.69200009
-0.082901999 -0.012647621 0.69236368
-0.077909298 -0.012544206 0.69325006
-0.072660252 -0.01255008 0.69358343
-0.068739057 -0.012558095 0.69400001
-0.12359811 -0.007931429 0.69400001
-0.11963239 -0.0085923811 0.69400001
-0.087466046 -0.0099142864 0.69400001
-0.083280012 -0.0085923821 0.69400001
-0.077838294 -0.0096470481 0.69380003
-0.072440393 -0.0088567631 0.69400007
-0.069400005 -0.0092533343 0.69400001
-0.1439143 0.012485716 0.69000006
-0.084424764 -0.05118667 0.69800001
-0.033238098 -0.05118667 0.69800001
-0.10254157 -0.047071088 0.69790912
-0.098067865 -0.047376905 0.69575012
-0.092225403 -0.048760321 0.69500011
-0.08744964 -0.047368933 0.69562507
-0.082703374 -0.047114119 0.69672734
-0.076869525 -0.047396388 0.69700003
-0.072609767 -0.046748813 0.69625008
-0.067732148 -0.047479764 0.69725001
-0.06200096 -0.047131624 0.69700003
-0.057544287 -0.0470981 0.69650006
-0.053040482 -0.047517624 0.69616669
-0.047516357 -0.048401114 0.69616669
-0.042886671 -0.048854925 0.69633335
-0.037066668 -0.048319049 0.69500005
-0.03267606 -0.048400141 0.69614291
-0.028554427 -0.047149803 0.69728577
-0.10524286 -0.043023814 0.69500005
-0.10242708 -0.043871429 0.69642866
-0.099285722 -0.043685719 0.69500005
-0.085385717 -0.044347622 0.69500005
-0.026153335 -0.042087048 0.69700003
-0.026280319 -0.037544765 0.69566673
-0.024560954 -0.037174765 0.69700003
-0.035080954 -0.031109527 0.69500005
-0.032502383 -0.031839207 0.69650006
-0.027866669 -0.032509208 0.69666672
-0.024194766 -0.032479052 0.69600004
-0.047657147 -0.025814287 0.69500005
-0.041541338 -0.026412195 0.69680005
-0.037098356 -0.028048139 0.69672734
-0.031686988 -0.029471114 0.69800007
-0.027920002 -0.029914288 0.69800001
-0.024596192 -0.029914288 0.69800001
-0.060233336 -0.02051905 0.69500005
-0.05674677 -0.021612098 0.69610012
-0.052727275 -0.022354463 0.6960001
-0.048035242 -0.022259856 0.69530773
-0.04274442 -0.022746874 0.69664294
-0.037891433 -0.024596192 0.69800001
-0.12245239 -0.01522381 0.69500005
-0.099049531 -0.015954286 0.69800001
-0.061604425 -0.016801301 0.69554555
-0.057757542 -0.017260399 0.69708335
-0.052491751 -0.019268891 0.69766665
-0.047845479 -0.019271191 0.69774997
-0.044074606 -0.018382542 0.69766665
-0.13156001 -0.012625081 0.69766665
-0.128049 -0.012767937 0.69744444
-0.12320981 -0.01242422 0.6971429
-0.11891544 -0.012062859 0.6960001
-0.10170858 -0.011300954 0.69800007
-0.09788619 -0.012464287 0.69800001
-0.092801914 -0.011268572 0.6960001
-0.066190481 -0.012576192 0.69500011
-0.062328812 -0.012597858 0.69625008
-0.058249529 -0.012845397 0.69766665
-0.13190784 -0.0087550264 0.69522232
-0.12734455 -0.0086227786 0.69641674
-0.12212504 -0.0087979604 0.69528586
-0.11980477 -0.0086047621 0.69500005
-0.10148774 -0.008471786 0.69762498
-0.097673342 -0.0086384136 0.69766665
-0.093479268 -0.0089273015 0.69722223
-0.086856619 -0.0080164028 0.69500011
-0.081465505 -0.0072851861 0.69544452
-0.07704515 -0.0070272386 0.69620007
-0.07247857 -0.0062880958 0.69500005
-0.067442648 -0.0079003666 0.69584632
-0.063492931 -0.0088259866 0.69757146
-0.085992068 -0.0041996827 0.69633341
-0.082231022 -0.0026499406 0.69631243
-0.07713493 -0.0025208259 0.69700003
-0.072686672 -0.0029850795 0.69700003
-0.069323502 -0.0031003177 0.69766665
-0.081195921 0.001994286 0.69800007
-0.077302322 0.0023741496 0.69800007
-0.073788576 0.00066476193 0.69800001
-0.077777147 0.037891433 0.69800007
-0.080879375 0.043652698 0.69800007
-0.077302322 0.04282967 0.69800007
-0.072704196 0.043994859 0.69780004
-0.069800004 0.044539049 0.69800001
-0.067271113 -0.05564953 0.70400012
-0.056635 -0.055964999 0.70375001
-0.054308575 -0.055649526 0.70400006
-0.041569524 -0.055649526 0.70400006
-0.036876194 -0.055649526 0.70400006
-0.032853335 -0.05564953 0.70400012
-0.087066673 -0.050800003 0.70000005
-0.081958227 -0.051046949 0.70128578
-0.077489451 -0.051438026 0.70141673
-0.072294764 -0.052215002 0.70287514
-0.067041494 -0.052292682 0.70393765
-0.062281117 -0.052236032 0.70316672
-0.057584111 -0.052228741 0.70306253
-0.052154165 -0.052066803 0.70266688
-0.047534633 -0.052272126 0.70118189
-0.042524152 -0.052345924 0.70078582
-0.037410539 -0.052109826 0.70143753
-0.032517012 -0.052542318 0.70085722
-0.027906796 -0.05194591 0.70106673
-0.023234433 -0.052084986 0.70323086
-0.01944381 -0.050285719 0.70400006
-0.086000003 -0.048666671 0.70000005
-0.081333339 -0.048666671 0.70000005
-0.077591434 -0.048689842 0.70033336
-0.072000012 -0.048666671 0.70000005
-0.068000004 -0.048666671 0.70000005
-0.062000003 -0.048666671 0.70000005
-0.056000005 -0.048666671 0.70000005
-0.026333336 -0.047666673 0.70000005
-0.022902772 -0.047571868 0.70172739
-0.018987622 -0.048474606 0.70366669
-0.023646289 -0.042753335 0.7014001
-0.022682859 -0.038694762 0.70050007
-0.036222227 -0.026444448 0.70000005
-0.032440871 -0.027347192 0.70036364
-0.028302725 -0.027540002 0.70042866
-0.10214572 -0.020696191 0.70100003
-0.04066667 -0.021333335 0.70000005
-0.037245717 -0.022385446 0.7001428
-0.032032859 -0.02269024 0.70074993
-0.028456194 -0.022845907 0.70140004
-0.126 -0.015333334 0.70000005
-0.10673293 -0.016559593 0.7035715
-0.10269058 -0.016683174 0.70066673
-0.055333339 -0.017333334 0.70000005
-0.05201818 -0.016672302 0.70025003
-0.047363598 -0.016676614 0.70044446
-0.042326011 -0.017083813 0.70030773
-0.037412386 -0.017369526 0.70150012
-0.033320241 -0.017915001 0.70325005
-0.028830478 -0.018773334 0.70400006
-0.12644444 -0.012222223 0.70000005
-0.12200001 -0.012666668 0.70000005
-0.11933334 -0.012666668 0.70000005
-0.11107557 -0.013186033 0.70400012
-0.10773347 -0.013119321 0.70385724
-0.1031317 -0.012550219 0.70027274
-0.060666669 -0.010000001 0.70000005
-0.056674581 -0.011468477 0.70010006
-0.05210131 -0.012022739 0.70137513
-0.047463413 -0.012030875 0.70191681
-0.043023948 -0.012331295 0.70271438
-0.038193338 -0.013305443 0.7035715
-0.10466667 -0.0086666672 0.70000005
-0.066000007 -0.0060000005 0.70000005
-0.06201084 -0.0070010722 0.70012498
-0.057367228 -0.0073370636 0.70041656
-0.052725401 -0.0070640212 0.70277786
-0.047335621 -0.0076434291 0.70400006
-0.044921909 -0.0080457143 0.70400006
-0.086697377 -0.0013335715 0.70025003
-0.071333341 -0.00066666672 0.70000005
-0.067066677 -0.0024000003 0.69999999
-0.062699407 -0.0026680958 0.70037496
-0.057530776 -0.0026752979 0.70243758
-0.053257249 -0.003053651 0.70388895
-0.048944764 -0.0046933335 0.70400006
-0.086184293 0.0026728574 0.70150006
-0.08365652 0.0031864555 0.70022225
-0.076000005 0.004666667 0.70000005
-0.071907818 0.002802413 0.70040005
-0.067429051 0.0026722222 0.70100009
-0.062838636 0.0026763694 0.70193762
-0.0580041 0.0018760952 0.70330006
-0.053861596 0.0011174604 0.70400012
-0.086122863 0.006676191 0.70100003
-0.082560442 0.0072191353 0.70063645
-0.077423975 0.0073430156 0.70083332
-0.072586961 0.0070987628 0.70310003
-0.067023337 0.0067026196 0.70375001
-0.063248262 0.0064812708 0.70400012
-0.081878841 0.01182635 0.7027778
-0.07763572 0.012048573 0.70275003
-0.073493876 0.01198889 0.70366675
-0.081127621 0.015420954 0.70400006
-0.07823085 0.017275972 0.70392317
-0.07408762 0.016761906 0.70400006
-0.081127621 0.020784764 0.70400006
-0.077698752 0.022773989 0.70331258
-0.074422859 0.022796193 0.70400006
-0.077204667 0.027174393 0.70355558
-0.07408762 0.027824763 0.70400006
-0.082309842 0.034129526 0.7026667
-0.077134848 0.032259606 0.70325005
-0.072597586 0.032407694 0.70330775
-0.06770175 0.033515718 0.70383334
-0.061954051 0.033822622 0.70325005
-0.057498258 0.032758098 0.70200008
-0.052407909 0.033020858 0.70190012
-0.047789719 0.033599999 0.70280004
-0.042910479 0.033523813 0.70400006
-0.082009763 0.037337542 0.70008337
-0.076827422 0.036820427 0.70011109
-0.072025716 0.037345957 0.70025003
-0.067288943 0.037267547 0.70169246
-0.062658101 0.037540387 0.70140016
-0.057400186 0.037376374 0.70081264
-0.052114822 0.03741768 0.70156258
-0.047656715 0.037311085 0.70300007
-0.044921912 0.036876194 0.70400012
-0.081733339 0.041200005 0.70000005
-0.076000005 0.04066667 0.70000005
-0.071733348 0.041733336 0.69999999
-0.067397147 0.042706668 0.70066679
-0.063049257 0.042511705 0.70214295
-0.05789829 0.041051056 0.70200002
-0.052668955 0.041144002 0.70360011
-0.048205718 0.040840954 0.70300001
-0.076928221 0.046893455 0.7008751
-0.072154291 0.046768099 0.70150006
-0.067757696 0.04711606 0.70242864
-0.064943813 0.046197146 0.70300001
-0.038434289 -0.060011432 0.708
-0.071171433 -0.055728573 0.70500004
-0.066919051 -0.056623813 0.7050001
-0.052228313 -0.057238705 0.70554543
-0.047469717 -0.057288196 0.70599997
-0.043337625 -0.057112865 0.70550001
-0.037710048 -0.057268485 0.70590907
-0.034242861 -0.057071432 0.70500004
-0.053042859 -0.054385718 0.70500004
-0.020814288 -0.053042859 0.7050001
-0.018150583 -0.052213658 0.70588887
-0.020814287 -0.046328574 0.70500004
-0.019471429 -0.046328574 0.70500004
-0.021399811 -0.043471053 0.70660001
-0.019517463 -0.043744132 0.70666671
-0.11078572 -0.015442858 0.70500004
-0.1081 -0.016785715 0.70500004
-0.031086192 -0.016970478 0.70574999
-0.027452739 -0.016674405 0.70737505
-0.11133811 -0.010976192 0.70566672
-0.10843068 -0.010614286 0.70539999
-0.041628577 -0.010071429 0.70500004
-0.037153654 -0.011137356 0.70644444
-0.032302741 -0.0121125 0.70662493
-0.02830762 -0.012186805 0.70528573
-0.10773334 -0.0087533342 0.70700002
-0.050804764 -0.0082809534 0.7050001
-0.048007146 -0.0070500011 0.70500004
-0.042634007 -0.007261619 0.70609999
-0.037923813 -0.0075355852 0.70763642
-0.032339767 -0.0074107153 0.70741665
-0.02887143 -0.0080571435 0.70500004
-0.051124491 -0.0022061227 0.70500004
-0.047205497 -0.0023254945 0.70576918
-0.042798985 -0.0028849666 0.70692855
-0.038303338 -0.0024714291 0.70766675
-0.032177925 -0.0032482257 0.70790917
-0.057071432 0.0040285718 0.70500004
-0.052077003 0.0030522346 0.70592302
-0.047145061 0.0026950596 0.70718741
-0.042737335 0.0012135239 0.70780003
-0.039108574 0.00067428575 0.708
-0.071171433 0.0087285722 0.70500004
-0.067142859 0.0087285722 0.70500004
-0.061995238 0.0078333337 0.70500004
-0.057810318 0.0073950803 0.70583338
-0.052532062 0.0074087307 0.70716661
-0.048669528 0.0071457149 0.70780003
-0.071075521 0.012181635 0.70500004
-0.067189284 0.012095002 0.70549995
-0.062266201 0.012319254 0.70735717
-0.05774511 0.011329179 0.70727265
-0.053101804 0.011160001 0.70777786
-0.081578575 0.017457144 0.70500004
-0.07587143 0.018128572 0.7050001
-0.071954772 0.017680954 0.70500004
-0.067479692 0.017375685 0.70713335
-0.062371433 0.015845716 0.708
-0.071842864 0.022828577 0.70500004
-0.067297027 0.022880359 0.70662493
-0.063158102 0.023150478 0.70800006
-0.08197286 0.028219527 0.70550001
-0.079452388 0.028423812 0.7050001
-0.07167501 0.027360715 0.70499998
-0.067236193 0.027567621 0.70599997
-0.062367816 0.027479429 0.70719999
-0.058017254 0.028072914 0.70744449
-0.053268574 0.028657144 0.708
-0.048548575 0.028994288 0.708
-0.037234642 0.027798928 0.70762491
-0.032213338 0.028708193 0.70760006
-0.02897381 0.028299525 0.70749998
-0.018734857 0.027630478 0.70760006
-0.081914291 0.031557143 0.70500004
-0.079564288 0.031892858 0.70500004
-0.071395248 0.031109527 0.7050001
-0.066739999 0.031422861 0.70499998
-0.062655479 0.031410716 0.70549995
-0.057785239 0.030235717 0.70550001
-0.052045085 0.030733971 0.70666665
-0.047243219 0.031101787 0.70612496
-0.042735107 0.031018373 0.70585716
-0.037632264 0.03225679 0.70562494
-0.03232 0.032320008 0.7069999
-0.027632065 0.032350477 0.70766675
-0.024274286 0.032365717 0.70800006
-0.019554287 0.030342858 0.708
-0.045720957 0.039670482 0.70600003
-0.042353336 0.036976401 0.70588887
-0.037745956 0.035724524 0.70775002
-0.031894449 0.036160797 0.70749998
-0.028544765 0.036636196 0.70800006
-0.062442861 0.044985719 0.70500004
-0.057548713 0.043138105 0.70614284
-0.052610289 0.042923048 0.70640004
-0.048480004 0.042420004 0.70700002
-0.067814291 0.049014289 0.70500004
-0.062619999 0.045786671 0.70700002
-0.027067143 -0.019623335 0.7105
-0.11037429 -0.0088028582 0.71100003
-0.035838097 -0.0060857148 0.71000004
-0.036176194 -0.0033809526 0.71000004
-0.032871433 -0.0014878096 0.71020001
-0.029117145 -0.00067714287 0.71100003
-0.04212869 0.003892262 0.71062505
-0.037578538 0.0028684989 0.7114616
-0.032812387 0.002151429 0.7128334
-0.027564762 0.0029459263 0.71366674
-0.023766669 0.0047533335 0.71300006
-0.046289258 0.0076348311 0.71028578
-0.042034842 0.0074583343 0.7119168
-0.038080007 0.0074800001 0.71400011
-0.025682479 0.007745333 0.71340007
-0.057476193 0.014200001 0.71000004
-0.052076872 0.013430069 0.71014291
-0.047387086 0.012185774 0.71081257
-0.042047497 0.012208213 0.71212518
-0.037386909 0.012235001 0.71375012
-0.032640003 0.014280001 0.71400005
-0.02662437 0.012462938 0.71375012
-0.065590478 0.019609526 0.71000004
-0.062175952 0.018168334 0.7109167
-0.057557471 0.017606668 0.71099997
-0.052807622 0.017602978 0.71087515
-0.0474406 0.017621312 0.7116251
-0.042085476 0.017649524 0.7127502
-0.037351828 0.01765722 0.71308351
-0.0326281 0.017673334 0.71375006
-0.02788 0.017151114 0.71400011
-0.023800002 0.015640002 0.71400005
-0.060914289 0.022334605 0.71066666
-0.057557147 0.022345716 0.71100003
-0.052798659 0.022337541 0.71075004
-0.047400005 0.022345718 0.71100008
-0.042080324 0.022397783 0.71266687
-0.037300214 0.022379791 0.71211118
-0.032563813 0.022386353 0.71233344
-0.027364157 0.022546494 0.7134546
-0.022977335 0.022977335 0.71380007
-0.060180955 0.02501905 0.71000004
-0.057237722 0.025574097 0.71040004
-0.052523892 0.026487067 0.71008337
-0.047178231 0.026778508 0.71057147
-0.042459857 0.026933266 0.71115392
-0.038187489 0.026392384 0.71057147
-0.032535244 0.0262613 0.71036369
-0.02679803 0.026893131 0.71107143
-0.022361115 0.027102858 0.71150005
-0.019623335 0.026389049 0.7105
-0.021645717 0.032469288 0.71025002
-0.019609526 0.033133335 0.71000004
-0.042244133 0.03953556 0.7116667
-0.03733794 0.038018577 0.71283334
-0.034680001 0.038080003 0.71400005
-0.026371431 0.035838097 0.71000004
-0.051426195 0.043983337 0.7105
-0.041933339 0.040573336 0.71400011
-0.037128001 0.040664002 0.71400005
-0.11100446 -0.0066088899 0.71800005
-0.10918048 -0.0075061908 0.71650004
-0.11640953 -0.0047933338 0.71900004
-0.11298572 -0.0047933338 0.71900004
-0.032049522 0.0044323811 0.71600002
-0.028640002 0.0047733337 0.71600002
-0.036140956 0.007500953 0.71600002
-0.032731429 0.0075009521 0.71600002
-0.028347757 0.0073061232 0.71600002
-0.032731432 0.011592383 0.71600002
-0.028980955 0.011592383 0.71600002
-0.026404493 0.018415377 0.71614295
-0.023206351 0.018429209 0.7166667
-0.025230478 0.02113905 0.71600002
-0.021820953 0.021820955 0.71600002
-0.032435715 0.038581431 0.71700001
-0.11314286 -0.0068571432 0.72000003
