# .PCD v0.7 - Point Cloud Data file format
VERSION 0.7
FIELDS x y z
SIZE 4 4 4
TYPE F F F
COUNT 1 1 1
WIDTH 294
HEIGHT 1
VIEWPOINT 0 0 0 1 0 0 0
POINTS 294
DATA ascii
-0.050326988 0.0030330159 0.63666672
-0.047547761 0.0025997278 0.63657153
-0.050511431 0.005477143 0.63900006
-0.048324052 0.0057745241 0.63824999
-0.065117151 0.013997144 0.63900006
-0.061465722 0.013997144 0.63900006
-0.059031431 0.013997144 0.63900006
-0.051728576 0.013997144 0.63900006
-0.046860002 0.013997144 0.63900006
-0.042600002 0.013997144 0.63900006
-0.038948573 0.013997144 0.63900006
-0.066334292 0.018257145 0.63900006
-0.06155064 0.017339369 0.63883334
-0.05730715 0.01734429 0.639
-0.051863812 0.016972382 0.639
-0.047257144 0.01602307 0.6388889
-0.042426128 0.016779188 0.63900006
-0.03915143 0.016634287 0.63900006
-0.062962621 0.020987384 0.63875008
-0.04181762 0.0039680954 0.64100003
-0.060813576 0.0082507152 0.64175004
-0.057451196 0.0091678575 0.64175004
-0.052378625 0.0080534192 0.64154559
-0.047323655 0.0078357151 0.64116663
-0.04277524 0.0073320242 0.64162505
-0.039253719 0.0072148577 0.64200002
-0.062049441 0.011921299 0.64045459
-0.057209153 0.012075304 0.64040005
-0.052615467 0.011780735 0.64069229
-0.04770638 0.011773482 0.64030766
-0.042688891 0.011586351 0.64033329
-0.038800549 0.011769524 0.64085716
-0.06678322 0.017686788 0.64037502
-0.063745238 0.016164763 0.64050007
-0.056990478 0.016152382 0.64000005
-0.053028576 0.017153744 0.6400001
-0.04783633 0.018385444 0.64042866
-0.043885715 0.018895239 0.64000005
-0.037152696 0.017184233 0.64188892
-0.032813337 0.018546669 0.64200008
-0.067285605 0.022020714 0.64225006
-0.061914291 0.022265241 0.64050001
-0.057379231 0.021975536 0.64093751
-0.05257732 0.022011369 0.64193755
-0.047623821 0.021916006 0.64273345
-0.042939559 0.021981588 0.64226675
-0.038140163 0.020601112 0.64250004
-0.033733334 0.021466669 0.64400005
-0.070533335 0.028826669 0.64400005
-0.06734965 0.026940359 0.64287508
-0.062426787 0.026929881 0.64262509
-0.057668198 0.026815627 0.64280009
-0.053114671 0.025392001 0.64400005
-0.043546673 0.025146669 0.64400005
-0.070533335 0.030053336 0.64400005
-0.067466676 0.030666668 0.64400005
-0.062822863 0.030579049 0.64400005
-0.059493337 0.030053336 0.64400005
-0.035260003 0.017568571 0.64500004
-0.033785716 0.017200001 0.64500004
-0.070642859 0.021500003 0.6450001
-0.049757145 0.023957144 0.64500004
-0.041157145 0.022728574 0.64500004
-0.037165653 0.022756401 0.64578569
-0.032147624 0.021909527 0.64500004
-0.070971437 0.026537145 0.648
-0.055986669 0.028916193 0.64600003
-0.052786671 0.027821651 0.64654547
-0.04783782 0.027198486 0.64641178
-0.042320821 0.02710123 0.64671433
-0.037000161 0.026517466 0.64749998
-0.033890478 0.025263811 0.64700001
-0.070861906 0.033274285 0.64700001
-0.067637265 0.03320393 0.645625
-0.062602013 0.033047095 0.64655554
-0.057887502 0.031100359 0.64662504
-0.053457782 0.030635875 0.64766669
-0.04875429 0.030240003 0.648
-0.066274606 0.035497464 0.64633334
-0.063310325 0.035561115 0.64750004
-0.040888101 0.029117621 0.65050006
-0.037142858 0.02909524 0.65000004
-0.034047622 0.027857145 0.65000004
-0.060047623 0.034047622 0.65000004
-0.057007022 0.033461075 0.65062505
-0.051896021 0.03296442 0.65081823
-0.046988778 0.032539122 0.65164292
-0.042224288 0.032291189 0.65199995
-0.037249763 0.032285359 0.65187502
-0.034152385 0.031669848 0.65200007
-0.065000005 0.037761908 0.65000004
-0.061721437 0.037737466 0.65133333
-0.057110541 0.037247688 0.65181249
-0.052447911 0.036416288 0.65249997
-0.047622859 0.035686482 0.65280002
-0.04415524 0.035448574 0.65300006
-0.065200001 0.040982857 0.65200001
-0.062153935 0.041022263 0.65262502
-0.058085907 0.040921338 0.65300006
-0.060786672 -0.016293334 0.65800005
-0.059533339 -0.01692 0.65800005
-0.066618897 -0.011486191 0.65783334
-0.063013814 -0.012904095 0.6577
-0.066986039 -0.0093904771 0.65733337
-0.051984131 0.038884129 0.65500003
-0.047311168 0.038225286 0.65600014
-0.042380258 0.037631307 0.65633339
-0.03785773 0.037185796 0.6566155
-0.06684985 0.043733977 0.65600002
-0.062417503 0.04369203 0.65537506
-0.057131547 0.0426156 0.65562505
-0.052451659 0.042146016 0.65746164
-0.04761786 0.042604998 0.657875
-0.043153021 0.041762758 0.6566667
-0.039420001 0.040671431 0.65700001
-0.066325717 0.045677144 0.65700001
-0.062476192 0.045607623 0.65600002
-0.048253335 0.045746669 0.65800005
-0.072298586 -0.017890478 0.66300011
-0.067752242 -0.017218171 0.66200012
-0.063203916 -0.017010475 0.66144454
-0.05998572 -0.01831143 0.66300005
-0.070912547 -0.013046827 0.66283339
-0.068265595 -0.013054644 0.66062498
-0.064742863 -0.014457144 0.66000003
-0.056571431 0.044628575 0.66000003
-0.053428575 0.044628575 0.66000003
-0.05594286 0.045885716 0.66000003
-0.052800007 0.045885716 0.66000003
-0.048400003 0.045885716 0.66000003
-0.053520001 -0.026122859 0.66900003
-0.076798379 -0.021903949 0.6680001
-0.072640635 -0.021814605 0.6671111
-0.067426912 -0.022265321 0.66791672
-0.06261006 -0.021861272 0.66855562
-0.058617145 -0.021662857 0.66900003
-0.053583432 -0.023292763 0.66820002
-0.081554294 -0.016565714 0.66900003
-0.077421136 -0.017768631 0.66631252
-0.0722 -0.017733335 0.66500002
-0.066500001 -0.019633334 0.66500008
-0.06208929 -0.019640716 0.66525006
-0.057833653 -0.019702224 0.66733336
-0.081842154 -0.013374525 0.66875005
-0.077580303 -0.01271649 0.66768748
-0.073480591 -0.012668692 0.66512501
-0.081174292 -0.0085942866 0.66850007
-0.078226998 -0.0082828579 0.66900009
-0.074434295 -0.0089057144 0.66800004
-0.056487624 -0.030811429 0.67400002
-0.080238104 -0.025034288 0.67400002
-0.077127956 -0.027419792 0.67299992
-0.072854288 -0.02670699 0.67300004
-0.068300955 -0.026680954 0.67233342
-0.062552541 -0.026687466 0.67250007
-0.057611313 -0.02688536 0.67212498
-0.082141429 -0.022257144 0.67250001
-0.078171842 -0.023624085 0.67042863
-0.072500423 -0.024349388 0.67028582
-0.067638099 -0.024885716 0.67000002
-0.062311847 -0.024359459 0.67057151
-0.05701746 -0.023403015 0.67016673
-0.05298762 -0.021067619 0.67033339
-0.082057148 -0.019476667 0.67050004
-0.056691028 -0.018166397 0.67100006
-0.052498933 -0.017925719 0.67224997
-0.049111243 -0.018081907 0.67320007
-0.055845719 -0.014763811 0.67400002
-0.05199429 -0.014030206 0.67400008
-0.049426671 -0.014121906 0.67400002
-0.080000006 -0.0057600006 0.67200005
-0.076880485 -0.0070261909 0.67083335
-0.080000006 -0.0032000002 0.67200011
-0.077402227 -0.0025587305 0.67166674
-0.078720003 0.00064000004 0.67200005
-0.056177147 -0.035514288 0.67800003
-0.081705853 -0.031482451 0.67857146
-0.077399455 -0.031606745 0.67725009
-0.072292149 -0.030983809 0.67774999
-0.067127697 -0.031850036 0.67823082
-0.062115833 -0.032326378 0.67776924
-0.058181811 -0.032513052 0.67730004
-0.054885719 -0.03422286 0.67800003
-0.086437784 -0.025651112 0.67900008
-0.082505241 -0.027072724 0.67678583
-0.077142864 -0.028928574 0.67500001
-0.072170861 -0.028688574 0.67540002
-0.066988893 -0.028556511 0.67633343
-0.062926866 -0.028440002 0.67560005
-0.057879288 -0.028939288 0.67524999
-0.085880004 -0.02389143 0.67800003
-0.083571434 -0.023785716 0.67500001
-0.055928577 -0.013500001 0.67500001
-0.053034429 -0.012224083 0.6755715
-0.081960954 -0.035776194 0.68300003
-0.070901908 -0.035776194 0.68300003
-0.067141145 -0.036492765 0.68180007
-0.061986983 -0.036068257 0.68033338
-0.058285717 -0.03626667 0.68000001
-0.090416193 -0.031222858 0.68300003
-0.087113522 -0.03185467 0.68260008
-0.083253495 -0.033087462 0.68116665
-0.078193977 -0.03444159 0.68233335
-0.072719768 -0.033764049 0.68175006
-0.067632392 -0.034357466 0.68066669
-0.064302862 -0.034424763 0.68200004
-0.087751679 -0.02757548 0.68125004
-0.0848381 -0.029142858 0.68000001
-0.083336197 -0.040027626 0.68900001
-0.071524769 -0.04035572 0.68900001
-0.067850105 -0.040815052 0.68900007
-0.064306676 -0.041996192 0.68900001
-0.08638683 -0.03730524 0.68716669
-0.082423933 -0.037942264 0.68687499
-0.077318102 -0.036694285 0.68800008
-0.072297335 -0.037589338 0.68760014
-0.068700008 -0.038602859 0.68700004
-0.086240008 -0.03462667 0.68600005
-0.077746674 -0.03462667 0.68600005
-0.085262865 -0.045605719 0.69400001
-0.082619056 -0.045605719 0.69400001
-0.078653336 -0.045605719 0.69400001
-0.071992382 -0.045903336 0.69350004
-0.068689525 -0.04623381 0.69350004
-0.086613484 -0.042129941 0.69271439
-0.08265961 -0.042485163 0.69158334
-0.077753335 -0.042174403 0.69187498
-0.072584532 -0.042652152 0.69075
-0.067112498 -0.043427266 0.69087505
-0.064112388 -0.044283811 0.69400001
-0.077542864 -0.038771432 0.69000006
-0.087357298 -0.04676082 0.6971429
-0.082734868 -0.047409911 0.6972
-0.076825336 -0.046838671 0.69660008
-0.072455838 -0.048085123 0.69637507
-0.067327969 -0.048041388 0.69618195
-0.063311435 -0.047034971 0.69557154
-0.090876669 -0.041128099 0.69650006
-0.089044452 -0.042865083 0.69600004
-0.090999246 -0.051329531 0.70360005
-0.087379128 -0.051852677 0.70284629
-0.082380719 -0.050567385 0.70324999
-0.077181809 -0.051280428 0.70333338
-0.072336495 -0.052596852 0.70176929
-0.067397878 -0.052273232 0.70066667
-0.064666674 -0.050666671 0.70000005
-0.092626132 -0.047699872 0.70257151
-0.089000002 -0.048333339 0.70000005
-0.08200001 -0.048666671 0.70000005
-0.077361196 -0.048684049 0.70025003
-0.092132382 -0.043729529 0.70100003
-0.091028579 -0.055965718 0.708
-0.087625481 -0.055945959 0.70774996
-0.0818583 -0.056235433 0.708
-0.077506676 -0.056613654 0.70766664
-0.072441056 -0.056957055 0.70689994
-0.068895005 -0.056797858 0.70574999
-0.096286669 -0.050500002 0.70700002
-0.093092151 -0.052427862 0.70574999
-0.085799694 -0.05398953 0.70566672
-0.082390592 -0.053409845 0.70588887
-0.07840699 -0.05354191 0.70566666
-0.091767862 -0.060838811 0.71375006
-0.087127246 -0.060758103 0.7136001
-0.08228001 -0.060520004 0.71400011
-0.077246845 -0.061686322 0.71318197
-0.072661623 -0.061953623 0.71170002
-0.06977842 -0.061650798 0.71133339
-0.0970641 -0.057309255 0.71271437
-0.092705294 -0.057913549 0.71166676
-0.087667629 -0.058091294 0.7104286
-0.08283525 -0.058284495 0.7104286
-0.077167869 -0.058890715 0.71074998
-0.073704764 -0.058828574 0.71000004
-0.096478872 -0.054261338 0.71040004
-0.093990482 -0.054771431 0.71000004
-0.096094929 -0.065508895 0.71900004
-0.093127623 -0.065737143 0.71900004
-0.082399696 -0.065965407 0.71900004
-0.07809253 -0.066782594 0.71657151
-0.097219191 -0.06192014 0.71671432
-0.093024135 -0.062850371 0.71644449
-0.087405406 -0.063051119 0.71700001
-0.082568102 -0.062779531 0.71650004
-0.078190491 -0.06454438 0.71640009
-0.097512394 -0.059325717 0.71600002
-0.09562318 -0.068106353 0.72233343
-0.092705362 -0.067595124 0.72237504
-0.087293781 -0.06692633 0.72172737
-0.084087864 -0.067957863 0.72075003
-0.0909127 -0.071579374 0.72500008
-0.089440003 -0.071413338 0.72800004
-0.091174528 -0.069071665 0.72525001
-0.08913286 -0.069095716 0.72549999
