# .PCD v0.7 - Point Cloud Data file format
VERSION 0.7
FIELDS x y z
SIZE 4 4 4
TYPE F F F
COUNT 1 1 1
WIDTH 298
HEIGHT 1
VIEWPOINT 0 0 0 1 0 0 0
POINTS 298
DATA ascii
-0.04138286 0.013997144 0.63900006
-0.03915143 0.01359143 0.63900006
-0.042194292 0.017040005 0.639
-0.038948573 0.017039999 0.639
-0.04077429 0.020082859 0.63900006
-0.039557144 0.020082859 0.63900006
-0.046905305 0.0082979603 0.64200002
-0.04263429 0.0076001361 0.64214295
-0.037952267 0.0073435712 0.64275002
-0.034319527 0.0085795242 0.64350003
-0.04708707 0.012229606 0.64208341
-0.042879734 0.01193905 0.64057153
-0.037480444 0.011867255 0.64030772
-0.03272583 0.01224762 0.64300001
-0.027600002 0.012266668 0.64400005
-0.047647029 0.017102975 0.64137506
-0.043885715 0.017066667 0.64000005
-0.036628101 0.017094525 0.64100003
-0.033702862 0.016020682 0.64342862
-0.047734946 0.022031253 0.64256257
-0.042926036 0.022138352 0.64206672
-0.03798167 0.021135954 0.64325005
-0.04768667 0.026526667 0.64400005
-0.044160001 0.025146669 0.64400005
-0.03512286 0.0043133334 0.64700001
-0.031474289 0.0030857145 0.648
-0.027771434 0.0030857145 0.64800006
-0.035041429 0.0061471434 0.64550006
-0.031738982 0.0072074151 0.64621431
-0.027087305 0.0075210803 0.64740002
-0.022690795 0.0076996842 0.6468333
-0.030100003 0.012285715 0.64500004
-0.026980679 0.012305034 0.64600009
-0.022816289 0.01171724 0.64749998
-0.052297782 0.018458096 0.64600003
-0.035014287 0.019042859 0.64500004
-0.031688176 0.017742936 0.64608335
-0.027731908 0.016640477 0.64709997
-0.052833151 0.022043178 0.64653337
-0.036914725 0.023023466 0.64700001
-0.032524765 0.021066535 0.64785713
-0.052860133 0.027229778 0.64686668
-0.048094884 0.027506074 0.64537501
-0.043201275 0.027194923 0.64649999
-0.052284766 0.030842861 0.64585716
-0.048092261 0.031748511 0.64686668
-0.043817144 0.030240001 0.648
-0.048728578 0.035159051 0.64766669
-0.045399051 -0.010572381 0.65300006
-0.032190479 0.0037142863 0.6500001
-0.027857145 0.0024761907 0.65000004
-0.027857145 0.0055714292 0.65000004
-0.021296509 0.013440637 0.65133339
-0.01927905 0.013681905 0.65300006
-0.026239527 0.018389367 0.65083337
-0.022761041 0.016775412 0.65236366
-0.01927905 0.016169526 0.65300006
-0.060324766 0.024254287 0.65300006
-0.057100322 0.023790797 0.65166676
-0.031857356 0.023188151 0.6502223
-0.027589593 0.022180069 0.65207148
-0.057250224 0.026904246 0.65145463
-0.040723652 0.027701749 0.65116668
-0.037245184 0.027315419 0.65181249
-0.032056097 0.026465431 0.65230006
-0.027970796 0.025485082 0.65266675
-0.045699622 0.033067625 0.65020007
-0.042351723 0.032231133 0.65176922
-0.038173337 0.030961527 0.65280002
-0.046085823 0.037132178 0.65100002
-0.043827385 0.03636786 0.65275002
-0.05666858 -0.011906667 0.65800011
-0.05286286 -0.012344493 0.65742862
-0.048420001 -0.010933811 0.65600002
-0.057237219 -0.0076547996 0.65707701
-0.052445184 -0.0074929171 0.65556258
-0.047518454 -0.0075019058 0.65649998
-0.044425718 -0.0068828575 0.65700001
-0.056052763 -0.0033708573 0.65539998
-0.052495722 -0.0027661913 0.65621442
-0.047696296 -0.0035511116 0.65800005
-0.043866668 -0.0037600002 0.65800005
-0.02158381 0.01883905 0.65500003
-0.01831159 0.018521113 0.65550005
-0.025576193 0.023704764 0.65500003
-0.022500418 0.022503631 0.65631253
-0.017444763 0.02156177 0.65757149
-0.060509529 0.025576193 0.65500003
-0.032878257 0.028925559 0.65550005
-0.027613757 0.028033443 0.65733337
-0.040578574 0.033711907 0.65550005
-0.037087452 0.033113249 0.65600008
-0.032761909 0.031510904 0.65733337
-0.027573336 0.030706668 0.65800005
-0.042005405 0.037836991 0.65666676
-0.037581369 0.037582323 0.65768749
-0.042548578 0.041297149 0.65700001
-0.037510585 0.041547835 0.65766674
-0.061669525 -0.016206667 0.66300005
-0.057824682 -0.0169071 0.66190916
-0.053902861 -0.016780002 0.6606667
-0.06604743 -0.012628572 0.66300005
-0.062472627 -0.01262119 0.66258347
-0.058626983 -0.013067408 0.6603334
-0.065037146 -0.0082085719 0.66300005
-0.062397044 -0.0081938626 0.66177785
-0.059714291 -0.0094285719 0.66000003
-0.050991431 -0.00062952383 0.66100001
-0.04771252 -0.0011677552 0.66042864
-0.043186195 -0.0022066669 0.66200006
-0.052802291 0.0013874286 0.66160005
-0.04832305 0.00088342867 0.66240007
-0.01807837 0.023657961 0.66114295
-0.027028574 0.027971432 0.66000003
-0.022675121 0.027716907 0.66137511
-0.019304 0.027379051 0.66240007
-0.03245075 0.034069531 0.66071433
-0.028332099 0.032992668 0.66110003
-0.032761253 0.037804112 0.66156256
-0.029123405 0.037599593 0.66271436
-0.034068573 0.041862857 0.66000003
-0.052485242 -0.026402384 0.6680001
-0.070722863 -0.021025715 0.66900003
-0.067112386 -0.021450479 0.66900009
-0.062308047 -0.021853866 0.66833341
-0.057270639 -0.022273179 0.66816676
-0.052314147 -0.022653472 0.66871434
-0.075820006 -0.016565714 0.66900003
-0.072337985 -0.01776774 0.66625005
-0.067145951 -0.017737025 0.66512501
-0.062504329 -0.018377058 0.66536361
-0.057000004 -0.019633334 0.66500002
-0.053120479 -0.019404287 0.66800004
-0.075820006 -0.014654287 0.66900003
-0.072014906 -0.012862789 0.66578573
-0.068663023 -0.012676033 0.66550004
-0.071253337 -0.0089057144 0.66800004
-0.067879431 -0.0090417145 0.66860002
-0.045034289 -0.00063428574 0.66600001
-0.043131433 -0.00063428574 0.66600001
-0.051756937 0.0034511113 0.66544443
-0.046988335 0.0029643651 0.66675007
-0.04383143 0.00063523813 0.66700006
-0.055348575 0.0063628578 0.66800004
-0.052152004 0.0067426674 0.66780013
-0.047443625 0.0059780958 0.66780007
-0.017125715 0.024737144 0.66600001
-0.016738098 0.027233338 0.66500008
-0.026639048 0.033617146 0.66600001
-0.024774287 0.03303238 0.66700006
-0.066116191 -0.030811429 0.67400002
-0.062649913 -0.031196574 0.67399997
-0.05774286 -0.03143841 0.67366666
-0.053856384 -0.031085718 0.67159998
-0.076386675 -0.025676193 0.67400002
-0.072291434 -0.027212249 0.6734286
-0.067857303 -0.027528416 0.67216671
-0.062681042 -0.027503572 0.67158335
-0.057528891 -0.027486831 0.67116666
-0.053312767 -0.028254479 0.67119998
-0.076857947 -0.02241762 0.67250007
-0.073022418 -0.023148764 0.67139995
-0.067954294 -0.023886669 0.67060006
-0.06267783 -0.024360005 0.67057151
-0.057428572 -0.024885716 0.67000002
-0.052961908 -0.024885716 0.67000002
-0.0479206 -0.022202265 0.67087501
-0.080178581 -0.017961429 0.6735
-0.077639155 -0.018161049 0.67150003
-0.051685717 -0.019142859 0.67000002
-0.047976833 -0.01983016 0.67166674
-0.080000006 -0.014720001 0.67200005
-0.078195244 -0.014741906 0.67300004
-0.068033814 -0.0068230163 0.6718334
-0.071893334 -0.0038514286 0.67400002
-0.068133608 -0.0039431294 0.67400008
-0.044028573 0.0038285716 0.67000002
-0.055514291 0.0082952389 0.67000002
-0.0542381 0.0082952389 0.67000002
-0.065313339 -0.035566669 0.67900002
-0.063157789 -0.035997786 0.67900008
-0.080833338 -0.031040002 0.67900002
-0.077477388 -0.031637065 0.67791671
-0.072204337 -0.03144883 0.67636377
-0.0676606 -0.032062024 0.67662501
-0.063277535 -0.033637907 0.6766001
-0.059874289 -0.034121908 0.67600006
-0.081387624 -0.026882861 0.67900002
-0.077689879 -0.027691429 0.67618191
-0.073285721 -0.028928574 0.67500001
-0.086006671 -0.021986667 0.67900002
-0.082476377 -0.022483638 0.67799997
-0.079149529 -0.022522857 0.67566675
-0.070071436 -0.0057857148 0.67500001
-0.06878572 -0.0057857148 0.67500001
-0.067368738 -0.0017160319 0.6758334
-0.067600004 0.00064380956 0.67600006
-0.082020476 -0.035802387 0.68350005
-0.076217145 -0.035828575 0.68400002
-0.072548382 -0.036078673 0.68380004
-0.068650715 -0.036115006 0.68325007
-0.08609391 -0.031389907 0.68380004
-0.082726099 -0.032728001 0.68180007
-0.077887148 -0.034399528 0.68150008
-0.072595619 -0.034155622 0.68180007
-0.068000004 -0.034323812 0.68000001
-0.086620614 -0.027494548 0.68290919
-0.083583817 -0.027214287 0.68033338
-0.086133339 -0.023961907 0.68000001
-0.0848381 -0.023961907 0.68000001
-0.072312199 -0.040815052 0.68900007
-0.0667127 -0.040465083 0.68900001
-0.063388005 -0.040552575 0.68900007
-0.086533964 -0.037367307 0.68833339
-0.082724877 -0.037471537 0.68755561
-0.077340536 -0.03747154 0.68755555
-0.072206534 -0.038579326 0.68657148
-0.067792796 -0.038058918 0.68728578
-0.063769296 -0.038262144 0.68675005
-0.087691791 -0.033374645 0.68712503
-0.090550482 -0.045605719 0.69400001
-0.087183818 -0.045572862 0.69349998
-0.082619056 -0.045936197 0.69400001
-0.07799238 -0.045605719 0.69400001
-0.072753221 -0.046357982 0.69287503
-0.068112865 -0.04573762 0.69100004
-0.06308572 -0.045342859 0.69000006
-0.090882391 -0.041810956 0.69316667
-0.087363459 -0.042290777 0.69130778
-0.08284267 -0.042016894 0.69146669
-0.077746719 -0.042170074 0.69181246
-0.072540008 -0.043173447 0.69033337
-0.067280017 -0.042626038 0.69033337
-0.063304767 -0.043152384 0.69000006
-0.091820963 -0.037333913 0.69260007
-0.088714294 -0.037457146 0.69000006
-0.080828577 -0.038771432 0.69000006
-0.079514287 -0.038771432 0.69000006
-0.091213532 -0.034088954 0.69100004
-0.095060959 -0.045868576 0.69800001
-0.0923362 -0.046500005 0.69749999
-0.087435722 -0.047029048 0.69550002
-0.082200557 -0.047880277 0.69685721
-0.077574447 -0.047737624 0.69616675
-0.072941914 -0.048848569 0.69500011
-0.095725715 -0.04254476 0.69800001
-0.093021594 -0.04286509 0.69600004
-0.096545912 -0.037316956 0.6972
-0.094652385 -0.037066668 0.69500005
-0.096252389 -0.033854287 0.69700003
-0.094652385 -0.033757146 0.69500005
-0.076210797 -0.056096517 0.70400012
-0.073490962 -0.056120481 0.70150006
-0.09654858 -0.050285719 0.70400006
-0.092460006 -0.050920479 0.70350003
-0.086991437 -0.051421694 0.70322227
-0.08243005 -0.051650483 0.70263642
-0.077486195 -0.052104525 0.70137501
-0.072911195 -0.052890483 0.70075005
-0.097847119 -0.04761507 0.70236367
-0.093033575 -0.048350714 0.70025003
-0.088000007 -0.048666671 0.70000005
-0.098726988 -0.04234159 0.70200008
-0.098544769 -0.037748575 0.7015
-0.080240004 -0.060011432 0.708
-0.078891434 -0.060011432 0.708
-0.095074289 -0.055965718 0.708
-0.092334293 -0.055939373 0.70766664
-0.087262318 -0.056475922 0.70714289
-0.082320355 -0.057349443 0.706909
-0.077759258 -0.057891957 0.70588887
-0.10069881 -0.051528815 0.70725
-0.097587302 -0.052721485 0.70666665
-0.092756435 -0.053772148 0.70574999
-0.087733343 -0.053938102 0.70500004
-0.083257154 -0.054385718 0.70500004
-0.10138572 -0.049014289 0.70500004
-0.10210779 -0.061354768 0.71316671
-0.097828589 -0.061822858 0.71333349
-0.092911273 -0.060959212 0.71383345
-0.087458581 -0.061646193 0.71325004
-0.082817756 -0.061760437 0.71118182
-0.078493342 -0.06225381 0.7105
-0.10247312 -0.057683494 0.71255559
-0.097706676 -0.057688665 0.71109092
-0.092511036 -0.058414154 0.71200007
-0.087966673 -0.058531906 0.7105
-0.10217714 -0.05447191 0.7105
-0.099400006 -0.054771431 0.71000004
-0.092442863 -0.065052383 0.71900004
-0.095181912 -0.063682862 0.71900004
-0.091913722 -0.062960193 0.71700001
-0.089329533 -0.063417144 0.71600002
-0.10122 -0.066102862 0.72300005
-0.097875521 -0.066004492 0.72300011
-0.094203815 -0.065323815 0.72200006
-0.10057937 -0.068817466 0.72500008
-0.097633339 -0.068357147 0.72500002
