# .PCD v0.7 - Point Cloud Data file format
VERSION 0.7
FIELDS x y z
SIZE 4 4 4
TYPE F F F
COUNT 1 1 1
WIDTH 562
HEIGHT 1
VIEWPOINT 0 0 0 1 0 0 0
POINTS 562
DATA ascii
-0.041972917 -0.012042117 0.65777785
-0.041951437 -0.0081397891 0.65744448
-0.038082067 -0.007491271 0.65549999
-0.052408576 -0.020837147 0.66300005
-0.057156008 -0.017412761 0.66240007
-0.05291447 -0.017639227 0.66143751
-0.048081022 -0.017542351 0.6625334
-0.04415524 -0.01724286 0.66233343
-0.061248574 -0.01389143 0.66300005
-0.057671286 -0.012949672 0.66207707
-0.053006798 -0.012735556 0.66206682
-0.047912799 -0.012608511 0.66193748
-0.044033818 -0.012999843 0.66050005
-0.057460003 -0.0094714295 0.66300005
-0.04700667 -0.0080442866 0.66250008
-0.043628301 -0.0067469394 0.66114295
-0.042953607 -0.0038719731 0.66185725
-0.056705721 -0.026122859 0.66900003
-0.052206196 -0.026103336 0.66850007
-0.040140003 -0.026122859 0.66900003
-0.038865715 -0.026122859 0.66900003
-0.061347943 -0.021864764 0.66866678
-0.057178162 -0.022872798 0.66706252
-0.051876046 -0.023280149 0.66615385
-0.047289941 -0.023058373 0.66714293
-0.042491212 -0.023033777 0.66746157
-0.038639154 -0.022818627 0.66755557
-0.061703093 -0.017993413 0.66675007
-0.058900002 -0.019000001 0.66500002
-0.046233337 -0.019633334 0.66500002
-0.043066669 -0.019633334 0.66500002
-0.039295718 -0.019648097 0.66550004
-0.062700003 -0.014566667 0.66500002
-0.05256667 -0.010766667 0.66500002
-0.056904912 -0.0074280268 0.66600007
-0.052164264 -0.0074870479 0.66633344
-0.048542287 -0.0072234287 0.66540003
-0.057020959 -0.0034360003 0.66820008
-0.052862622 -0.0035030954 0.66875011
-0.047389526 -0.0039377147 0.66700006
-0.063548572 -0.030169526 0.67400002
-0.057687625 -0.030124765 0.67299998
-0.052636195 -0.030169526 0.67400002
-0.047027305 -0.030567622 0.67333335
-0.042233214 -0.030874884 0.671875
-0.038981907 -0.031313334 0.671
-0.06782794 -0.026853021 0.67399997
-0.062706038 -0.027514447 0.6718334
-0.057717673 -0.027901378 0.6708889
-0.052461192 -0.02815024 0.67175001
-0.047343891 -0.027510401 0.67175001
-0.042329095 -0.027580522 0.67063642
-0.038952857 -0.028097622 0.67050004
-0.066737689 -0.022978233 0.67285717
-0.063219339 -0.023627717 0.67050004
-0.042752385 -0.024885716 0.67000002
-0.065723814 -0.019142859 0.67000002
-0.064447626 -0.019780954 0.67000002
-0.05794064 -0.001064762 0.671
-0.051742863 -0.0015964287 0.67075002
-0.047813214 -0.0014379764 0.67162502
-0.060980957 0.00064190483 0.67400002
-0.057664763 0.0012826191 0.67275
-0.052931748 0.0010669843 0.67233336
-0.047205992 0.001191837 0.6737144
-0.04783643 -0.035553575 0.67875004
-0.075660005 -0.031686667 0.67900002
-0.072321281 -0.031640954 0.67799997
-0.067332797 -0.032240272 0.67699999
-0.06228229 -0.031595238 0.67699999
-0.05752445 -0.031671114 0.67866671
-0.052949369 -0.03228746 0.67800009
-0.047949623 -0.033127528 0.67670006
-0.043500002 -0.03321429 0.67500007
-0.072349608 -0.027519448 0.67725003
-0.06878572 -0.028928574 0.67500001
-0.070071436 -0.023142859 0.67500001
-0.06878572 -0.023785716 0.67500001
-0.065572008 0.0027160004 0.67900002
-0.06267181 0.0029670482 0.67700005
-0.057941902 0.0038638101 0.676
-0.052682962 0.0034880955 0.67790002
-0.048915815 0.0032281906 0.67760003
-0.065313339 0.0064666672 0.67900002
-0.061764084 0.007571158 0.67857146
-0.057532143 0.0077578574 0.67874998
-0.053673338 0.0062511116 0.67900008
-0.061433338 0.010993334 0.67900002
-0.058200002 0.010993334 0.67900002
-0.071904525 -0.036115002 0.68325007
-0.067443393 -0.036650587 0.68311119
-0.062639751 -0.036969788 0.68318194
-0.057188094 -0.037042066 0.68233341
-0.052680213 -0.037072383 0.68288893
-0.048651978 -0.037903678 0.68114299
-0.072749525 -0.034424763 0.68200004
-0.065409526 -0.034323812 0.68000001
-0.062113531 -0.034105148 0.68080008
-0.057766832 -0.033750638 0.68150008
-0.053104766 -0.034323812 0.68000001
-0.047276195 0.0045333337 0.68000001
-0.04234286 0.0045600003 0.68400002
-0.064114287 0.0090666674 0.68000001
-0.055047624 0.0090666674 0.68000001
-0.052233487 0.0081339944 0.68099999
-0.048063181 0.0073636519 0.68200004
-0.044470482 0.0062907944 0.6833334
-0.039737146 0.0058628577 0.68400002
-0.062067449 0.0129355 0.68209094
-0.056971978 0.01327143 0.68199998
-0.052218735 0.012892636 0.68366671
-0.047717143 0.012540001 0.68400002
-0.060582861 0.016937144 0.68400002
-0.058302864 0.016611431 0.68400002
-0.066737145 -0.041220002 0.68700004
-0.057088576 -0.040027626 0.68900001
-0.053151436 -0.040027626 0.68900001
-0.075461909 -0.03674667 0.68900001
-0.072867058 -0.038068958 0.6868
-0.067854866 -0.039092574 0.68640012
-0.061255243 -0.039456513 0.68666673
-0.059453338 -0.039853334 0.68600005
-0.041160002 0.0045733335 0.68600005
-0.037608001 0.0043241908 0.68800002
-0.066179052 0.0091742864 0.68800002
-0.04579905 0.0091604777 0.68700004
-0.04243486 0.0078607639 0.68760008
-0.039094608 0.0067701596 0.68800008
-0.066800192 0.012205143 0.68900007
-0.06477429 0.013740001 0.68700004
-0.045455955 0.012101667 0.68675005
-0.042599209 0.011796985 0.68816662
-0.066275239 0.016842224 0.68900001
-0.063396588 0.017349923 0.68741679
-0.057054646 0.018147264 0.68662494
-0.052804291 0.01742867 0.68790007
-0.048016354 0.015934445 0.6875
-0.062288895 0.021637464 0.68844455
-0.058795087 0.021202065 0.68850011
-0.081498861 0.048426863 0.68900007
-0.078742862 0.047245715 0.68900001
-0.079314291 -0.045605719 0.69400001
-0.066660009 -0.045540001 0.69300002
-0.062106434 -0.045589291 0.69375002
-0.057048738 -0.046476036 0.69383335
-0.053625003 -0.046695005 0.69299996
-0.081958108 -0.042080637 0.69400001
-0.077922851 -0.042264409 0.69337505
-0.072381511 -0.041942455 0.69271445
-0.067547627 -0.042513333 0.69200003
-0.06222064 -0.043167517 0.69255555
-0.057808239 -0.042714547 0.69190913
-0.052778874 -0.042617846 0.69036371
-0.081737787 -0.038555559 0.69400001
-0.078168318 -0.03743498 0.69181824
-0.077325724 -0.03323048 0.69100004
-0.072982863 -0.0019809525 0.69350004
-0.072593577 0.0030783338 0.69291681
-0.068342865 0.0046000001 0.69000006
-0.033350002 0.0034500002 0.69000006
-0.0719136 0.0074966233 0.69272727
-0.068367869 0.0078883339 0.69025004
-0.04096191 0.0094190482 0.69000006
-0.037060872 0.008204936 0.69154549
-0.033191837 0.0066770073 0.69114292
-0.071229376 0.012531906 0.69250005
-0.068671435 0.012814286 0.69000006
-0.041794099 0.013053143 0.69220006
-0.038307145 0.011228096 0.69350004
-0.071331911 0.017172381 0.69350004
-0.068157151 0.017167302 0.69033337
-0.050648894 0.017760636 0.69066668
-0.047009315 0.01791323 0.69088894
-0.043439623 0.016241524 0.69320005
-0.071357384 0.022463812 0.69375002
-0.067134112 0.022377443 0.69106257
-0.062428575 0.02431429 0.69000006
-0.05727743 0.023043906 0.69130009
-0.052926533 0.022266673 0.6934287
-0.048035316 0.022315312 0.69384629
-0.071707532 0.027996097 0.69329995
-0.067200005 0.027671313 0.69174999
-0.06204408 0.027797464 0.69160008
-0.058208987 0.026511295 0.69342864
-0.072267056 0.032500576 0.6936
-0.067535669 0.032237493 0.69336367
-0.062347084 0.031599049 0.69328576
-0.058824766 0.032386668 0.69400001
-0.076670483 0.038996194 0.69400001
-0.072988033 0.036352385 0.69400001
-0.069400005 0.036352385 0.69400001
-0.087097555 0.043123677 0.69357145
-0.082470492 0.042495243 0.69183338
-0.07789357 0.042246073 0.69312501
-0.074687622 0.042300954 0.69400001
-0.086570725 0.046412144 0.69125003
-0.083046362 0.046379898 0.69022226
-0.077652387 0.045408577 0.69100004
-0.074687622 0.045605719 0.69400001
-0.08214286 0.050600003 0.69000006
-0.05783429 -0.05118667 0.69800001
-0.086295247 -0.045802861 0.69700003
-0.08243005 -0.047215328 0.69645458
-0.077185407 -0.047256723 0.69666672
-0.072659329 -0.046325721 0.69628584
-0.068470478 -0.047198098 0.69800001
-0.061434485 -0.047634859 0.69660008
-0.057982672 -0.048697334 0.69660008
-0.085385725 -0.04214127 0.69500005
-0.083400011 -0.042582542 0.69500011
-0.074133337 -0.044347622 0.69500005
-0.082221672 -0.037131194 0.69625002
-0.080320954 -0.031199049 0.69700003
-0.078766674 -0.031771429 0.69500005
-0.080436192 -0.028584763 0.69800007
-0.078083493 -0.027650056 0.69677782
-0.079106674 -0.019278096 0.69800001
-0.076392859 -0.0066423817 0.69749999
-0.074795246 -0.0072809528 0.69500005
-0.076365478 -0.002656905 0.69725001
-0.074795246 -0.0019857143 0.69500005
-0.077030241 0.0026554761 0.69725001
-0.074795246 0.0013238096 0.69500005
-0.077306904 0.0073000002 0.69675004
-0.074265718 0.0088695241 0.69500011
-0.035080954 0.009928572 0.69500005
-0.03250175 0.0092868255 0.69650006
-0.029214129 0.0086328574 0.69716668
-0.075489528 0.01261778 0.69733334
-0.073802389 0.012245239 0.69500005
-0.040376194 0.013900001 0.69500005
-0.036874097 0.012867239 0.69640011
-0.033238098 0.011965714 0.69800001
-0.075118102 0.01728381 0.69800001
-0.07368286 0.017259048 0.69700003
-0.042036194 0.017505715 0.69620007
-0.038247488 0.016419457 0.69757146
-0.075543344 0.022817623 0.69783342
-0.073630005 0.022551905 0.69650006
-0.052290481 0.023828574 0.69500005
-0.045715243 0.023188889 0.69566673
-0.043751974 0.022304358 0.69757146
-0.076725483 0.027900005 0.69749999
-0.074265718 0.027667621 0.69500011
-0.056886267 0.029059868 0.69571435
-0.052895248 0.027709719 0.69599998
-0.048205718 0.027701542 0.69630772
-0.043209527 0.025925716 0.69800001
-0.081100956 0.033902861 0.69800001
-0.077303141 0.032722455 0.6971429
-0.074795246 0.031771429 0.69500005
-0.065528579 0.033757146 0.69500005
-0.061892003 0.033531241 0.69580001
-0.057347082 0.031945176 0.69671434
-0.086919367 0.039146036 0.69666672
-0.082186975 0.037114702 0.69593745
-0.077620581 0.036690101 0.69540012
-0.072588891 0.037581481 0.69500011
-0.06719546 0.037298758 0.69646162
-0.062701434 0.036996126 0.69721431
-0.059163813 0.035232384 0.69800001
-0.090680957 0.041700002 0.69500005
-0.087476358 0.04108651 0.69583344
-0.084061913 0.040376194 0.69500005
-0.072250485 0.042423815 0.6960001
-0.068836085 0.042276725 0.69722223
-0.063817143 0.040550478 0.69800001
-0.075118102 0.047198098 0.69800001
-0.072389215 0.046489529 0.69733334
-0.069800004 0.046533339 0.69800001
-0.093196198 -0.054308575 0.70400006
-0.086265318 -0.051222865 0.70371431
-0.082460478 -0.051351197 0.70250005
-0.077591598 -0.051506035 0.70233339
-0.072391212 -0.051710334 0.70230782
-0.06741105 -0.050525345 0.70360005
-0.062266268 -0.051363684 0.70300001
-0.059333336 -0.050666671 0.70000005
-0.087292388 -0.048258103 0.70180005
-0.075333342 -0.048666671 0.70000005
-0.07162001 -0.048413906 0.70020002
-0.067124389 -0.048175048 0.70060003
-0.064253025 -0.0482454 0.70033336
-0.082000002 -0.035333335 0.70000005
-0.081560008 -0.032970667 0.7008
-0.08180362 -0.02762343 0.70060003
-0.081682622 -0.022763811 0.70300007
-0.07850191 -0.024385717 0.7015
-0.08158651 -0.017609049 0.70216674
-0.079333335 -0.015333334 0.70000005
-0.081711665 -0.012390239 0.70325005
-0.079333335 -0.010666667 0.70000005
-0.081127621 -0.0073752385 0.70400006
-0.079004005 -0.007085524 0.70180005
-0.081070006 -0.0026804763 0.70350003
-0.078793935 -0.0026713097 0.70112509
-0.08095476 0.0020042858 0.70250005
-0.079418339 0.0026688098 0.70074999
-0.078666672 0.0086666672 0.70000005
-0.078261055 0.012537249 0.70100003
-0.031792384 0.013340002 0.70033336
-0.028524883 0.012511548 0.70062494
-0.078178495 0.017372463 0.70158339
-0.04066667 0.019333335 0.70000005
-0.036535557 0.018008996 0.70033342
-0.032066666 0.017371787 0.70150006
-0.027596671 0.017014762 0.7033
-0.078424953 0.022578478 0.7014001
-0.041735977 0.022907833 0.70055562
-0.037857149 0.022407329 0.70307708
-0.032837778 0.022115877 0.70366669
-0.081405245 0.027804764 0.70350003
-0.079085007 0.027029287 0.70075005
-0.046000004 0.028000001 0.70000005
-0.042708486 0.027523207 0.70172727
-0.037975244 0.026583178 0.70366669
-0.034194287 0.026148573 0.70400006
-0.096279055 0.033731114 0.70366669
-0.092525721 0.034194287 0.70400006
-0.087131679 0.034182142 0.70375007
-0.082125947 0.031945478 0.70250005
-0.079333335 0.031333335 0.70000005
-0.056333341 0.03366667 0.70000005
-0.052005954 0.032670721 0.70008337
-0.04721972 0.032414 0.70030004
-0.043141618 0.031726666 0.70192319
-0.096376918 0.037480243 0.70275003
-0.09234561 0.03747274 0.70262504
-0.087499693 0.036734607 0.7013334
-0.060666669 0.038666669 0.70000005
-0.057237532 0.037492003 0.70046669
-0.052556992 0.036936834 0.70300007
-0.047904767 0.035845242 0.70350003
-0.044921909 0.035535239 0.70400006
-0.097126365 0.040860321 0.70333338
-0.092888579 0.040763497 0.70166671
-0.090000004 0.04066667 0.70000005
-0.066571444 0.042952385 0.70000011
-0.062488575 0.04296137 0.7001428
-0.057799932 0.042388212 0.70130777
-0.071333349 0.048666671 0.70000005
-0.067450263 0.04741725 0.70122224
-0.063447505 0.047042742 0.70312506
-0.059672385 0.04626286 0.70400006
-0.091650009 -0.056064285 0.70500004
-0.08747115 -0.056925427 0.70650005
-0.082185403 -0.056362551 0.70733333
-0.07743334 -0.055886671 0.70700002
-0.07303001 -0.056402069 0.70783329
-0.067236908 -0.056788575 0.70775002
-0.063785717 -0.056400001 0.70500004
-0.091717146 -0.052371431 0.70499998
-0.087957159 -0.053192068 0.70499998
-0.082250006 -0.054050002 0.70500004
-0.077885717 -0.054385718 0.70500004
-0.071909532 -0.054437146 0.70566672
-0.067046151 -0.053234726 0.70590907
-0.062778577 -0.053378575 0.70500004
-0.059757147 -0.053042859 0.70500004
-0.091314286 -0.049014289 0.70500004
-0.085513338 -0.036360003 0.70700002
-0.083928578 -0.035585716 0.70500004
-0.085573815 -0.032342859 0.70749998
-0.08404763 -0.032274291 0.70599997
-0.086217865 -0.02761643 0.70725
-0.083928578 -0.027528573 0.7050001
-0.086768702 -0.022577262 0.70762491
-0.084166676 -0.022893336 0.70700002
-0.085855626 -0.017387429 0.70760006
-0.0838743 -0.017367622 0.70679998
-0.083067439 -0.011982857 0.70680004
-0.081914291 -0.0077214288 0.70500004
-0.081914291 -0.0020142859 0.70500004
-0.081914291 0.0023500002 0.70500004
-0.081722625 0.0070645241 0.70625001
-0.081111431 0.011700001 0.70620006
-0.081300482 0.017468097 0.70550001
-0.026857145 0.019471429 0.70500004
-0.082258575 0.023382859 0.70650005
-0.03603334 0.02439524 0.7050001
-0.031377554 0.023701908 0.70528579
-0.028096072 0.022377264 0.70662498
-0.095074289 0.028994288 0.708
-0.092333019 0.028980639 0.70766675
-0.08722838 0.028716384 0.70780003
-0.083581917 0.027322097 0.70660001
-0.037152387 0.028423812 0.70500004
-0.032605123 0.02739512 0.70587504
-0.096014291 0.031557146 0.70500004
-0.092810325 0.031608097 0.70616663
-0.087471746 0.0316227 0.70649999
-0.08404763 0.030928575 0.70600003
-0.041522861 0.033892386 0.70700002
-0.037994288 0.032128986 0.70700002
-0.034388572 0.030342858 0.708
-0.098700009 0.038942859 0.70500004
-0.051453575 0.039347861 0.70624995
-0.046787981 0.03837464 0.70687497
-0.042946313 0.036716074 0.70737499
-0.095074289 0.043154288 0.708
-0.093725719 0.043154288 0.708
-0.056400001 0.044314288 0.70500004
-0.053545039 0.04220273 0.70657146
-0.062150478 0.048713334 0.70550007
-0.057904288 0.046458576 0.70700002
-0.053942859 0.045177147 0.708
-0.077706665 -0.06153943 0.71320009
-0.073426358 -0.060773656 0.7116667
-0.085876197 -0.058828574 0.71000004
-0.082630321 -0.058474448 0.71116674
-0.077531435 -0.058367353 0.7114287
-0.072373144 -0.058304191 0.71020001
-0.068746038 -0.058377784 0.71000004
-0.091800004 -0.040120002 0.71400005
-0.092082329 -0.037028998 0.71266681
-0.088130169 -0.036288895 0.71000004
-0.09150064 -0.032534607 0.71166676
-0.08792036 -0.032462738 0.71012503
-0.091688581 -0.027404763 0.7105
-0.088592134 -0.026989356 0.71009094
-0.087904766 -0.023666669 0.71000004
-0.087769531 -0.017716192 0.71000004
-0.087296724 -0.012011861 0.71154547
-0.084523812 -0.010819049 0.71000004
-0.086651437 -0.0083701592 0.71266669
-0.084334053 -0.0071111908 0.71125001
-0.086278737 -0.0024901591 0.71333337
-0.083661914 -0.0038333337 0.71033335
-0.085906677 0.0020400002 0.71400011
-0.084084764 0.0040685716 0.71200001
-0.086360008 0.0081600007 0.71400005
-0.084290855 0.0077369525 0.71260005
-0.086360008 0.012240001 0.71400005
-0.084084764 0.012205714 0.71200013
-0.090440005 0.019720001 0.71400005
-0.087334648 0.018350359 0.71362507
-0.083995953 0.017610477 0.71125001
-0.091752276 0.022767739 0.71362507
-0.087516092 0.022386774 0.71233338
-0.084215477 0.021983575 0.71025002
-0.025660193 0.022673143 0.71280003
-0.023783335 0.021745238 0.71350002
-0.097181924 0.027862998 0.71357149
-0.092232138 0.026447065 0.71208334
-0.087444171 0.026215836 0.71037501
-0.03090794 0.028652065 0.71066666
-0.027200954 0.026994361 0.71269244
-0.023783335 0.025822382 0.71350002
-0.097782865 0.030557144 0.71300006
-0.035888575 0.033857144 0.71100003
-0.032592386 0.032386672 0.71184623
-0.028679622 0.031670481 0.71360004
-0.048685715 0.03989524 0.71000004
-0.042329527 0.039354291 0.71000004
-0.038464922 0.037563175 0.71066666
-0.034631431 0.035989527 0.71300006
-0.051283814 0.042894859 0.71040004
-0.04738342 0.042645477 0.71075004
-0.042230744 0.042850308 0.71209109
-0.038677622 0.041732386 0.71250004
-0.086402051 -0.062191162 0.7175715
-0.082455143 -0.062388092 0.71670002
-0.09342096 -0.040232383 0.71600002
-0.088263445 -0.0066847624 0.71620005
-0.086740695 -0.0028266669 0.71714294
-0.087840535 0.0029615876 0.71744448
-0.088568442 0.0073240828 0.71771437
-0.091073349 0.013010478 0.71900004
-0.088787273 0.012292976 0.717125
-0.097099252 0.019310286 0.71900004
-0.092592552 0.017765399 0.71749997
-0.088647626 0.016365714 0.71600002
-0.023231905 0.019816667 0.71750003
-0.10175286 0.02274381 0.71825004
-0.097648568 0.022534288 0.71700001
-0.094135955 0.021828335 0.71625
-0.022156192 0.022742044 0.71742862
-0.017879898 0.023053654 0.71899998
-0.10659461 0.025792701 0.71900004
-0.10243001 0.027313214 0.71700001
-0.097921915 0.025589049 0.71650004
-0.025912382 0.029321907 0.71600002
-0.022251526 0.027575335 0.71670002
-0.017796906 0.027380956 0.71874994
-0.031367622 0.034777146 0.71600002
-0.026627883 0.033209179 0.71690917
-0.022739645 0.031974643 0.71812499
-0.018762479 0.031636003 0.71900004
-0.036216669 0.038265239 0.71750003
-0.033344358 0.037451841 0.71871436
-0.088457152 -0.063771434 0.72000003
-0.092268571 -0.0068857148 0.72300005
-0.090971984 -0.0030489799 0.72285724
-0.089265719 -0.0013742859 0.72100008
-0.092567526 0.0030252382 0.72210002
-0.089828581 0.0013714286 0.72000003
-0.095711432 0.0089514293 0.72300005
-0.09275905 0.0075575667 0.72144455
-0.096170485 0.014000954 0.72300005
-0.093201704 0.012135239 0.72133338
-0.10535143 0.019968573 0.72300005
-0.10212457 0.019379431 0.72160006
-0.097593218 0.017181788 0.72162509
-0.017214287 0.019968573 0.72300005
-0.11070667 0.024066668 0.72200006
-0.1068564 0.022965718 0.72200006
-0.10445715 0.022628574 0.72000003
-0.017600002 0.021257143 0.72000003
-0.013033016 0.022635136 0.72022235
-0.10628572 0.028114287 0.72000003
-0.012825055 0.027605718 0.72046167
-0.022628572 0.034285717 0.72000003
-0.017847858 0.032263573 0.72075003
-0.014460001 0.030985717 0.72300005
-0.022026431 0.035793573 0.72275007
-0.019968573 0.035117146 0.72300005
-0.094595246 -0.0069047622 0.72500002
-0.10053334 -0.0020800002 0.72800004
-0.097448669 -0.002351715 0.72670001
-0.093937382 -0.0027623812 0.72525001
-0.10178272 0.0024782314 0.72842866
-0.097537935 0.0027669843 0.72633332
-0.094595246 0.0013809525 0.72500002
-0.10113429 0.0085628582 0.72900003
-0.097608455 0.007614695 0.72685724
-0.11594572 0.014580001 0.72900003
-0.11201143 0.014117146 0.72900003
-0.1076143 0.014580002 0.72900003
-0.10200962 0.012932209 0.72863644
-0.097754605 0.011901694 0.7256667
-0.021522857 0.014580002 0.72900003
-0.017603049 0.013441144 0.72760004
-0.014520001 0.014520001 0.72600001
-0.11196795 0.017159263 0.72722226
-0.10761116 0.017448477 0.72710001
-0.10285096 0.016766192 0.72599995
-0.098738104 0.015880954 0.72500002
-0.021482859 0.017324554 0.72766668
-0.017272914 0.017272064 0.72544444
-0.013310002 0.017458575 0.72599995
-0.11215308 0.021207487 0.72500002
-0.10860206 0.021010209 0.72500002
-0.020714287 0.020023812 0.72500002
-0.017261906 0.020023812 0.72500002
-0.013119048 0.020023812 0.72500008
-0.016348574 0.033388577 0.72533339
-0.01275347 0.032129254 0.7265715
-0.10573334 0.0044152383 0.73200005
-0.10234001 0.0048733335 0.73100007
-0.11502858 0.0090628574 0.73200005
-0.11236515 0.008493524 0.73100001
-0.10703649 0.007943905 0.7317
-0.10282779 0.0071957149 0.73116672
-0.099555247 0.0062657148 0.73100001
-0.1156462 0.011842858 0.73150003
-0.11264763 0.011665002 0.73124999
-0.10722581 0.011836588 0.73108333
-0.10373238 0.011139048 0.73100001
-0.020885717 0.01253143 0.73100001
-0.018797144 0.01322762 0.73100001
-0.11487143 0.016012382 0.73100001
-0.023162859 0.013336191 0.73700005
