# .PCD v0.7 - Point Cloud Data file format
VERSION 0.7
FIELDS x y z
SIZE 4 4 4
TYPE F F F
COUNT 1 1 1
WIDTH 605
HEIGHT 1
VIEWPOINT 0 0 0 1 0 0 0
POINTS 605
DATA ascii
-0.10366763 -0.025676193 0.67400002
-0.07221429 -0.02663905 0.67400002
-0.10206287 -0.021610796 0.67400002
-0.10578605 -0.030809527 0.67866677
-0.10198453 -0.030983571 0.67775005
-0.098508894 -0.030824449 0.67900008
-0.091826677 -0.030393336 0.67900002
-0.087300003 -0.030393338 0.67900008
-0.082557783 -0.031255558 0.67899996
-0.077496119 -0.031645156 0.67808336
-0.072501816 -0.031350762 0.67729998
-0.067667469 -0.030816985 0.67883337
-0.062080007 -0.03104 0.67899996
-0.057510953 -0.03101762 0.67850006
-0.052794181 -0.03124561 0.67877775
-0.047849014 -0.03185004 0.67823082
-0.042475246 -0.032148637 0.67779994
-0.038647436 -0.031150667 0.67860001
-0.10743334 -0.027101433 0.67750001
-0.10235854 -0.027300004 0.67518193
-0.097693004 -0.026802804 0.6767059
-0.092360646 -0.027128097 0.67816675
-0.087664001 -0.027074348 0.67681241
-0.082558818 -0.027091194 0.67725009
-0.077272035 -0.027044525 0.67612499
-0.071919136 -0.027116589 0.67525005
-0.067071848 -0.027088871 0.67718744
-0.062239468 -0.027294153 0.67771441
-0.057799865 -0.026919052 0.67757154
-0.052943993 -0.027118636 0.67793757
-0.047787443 -0.02712268 0.67806262
-0.042593934 -0.027104409 0.67762506
-0.037481725 -0.027142681 0.67856252
-0.034273334 -0.026513334 0.67900008
-0.11106192 -0.022601906 0.67800003
-0.10775781 -0.022402193 0.67590016
-0.10308869 -0.022789419 0.67511117
-0.09743239 -0.02247797 0.67693341
-0.092725858 -0.021774698 0.67814296
-0.087910622 -0.022207214 0.67728573
-0.082457706 -0.022547064 0.67641675
-0.077234171 -0.022047365 0.67693341
-0.072232448 -0.02192542 0.6771875
-0.067067981 -0.02192417 0.67712498
-0.062473103 -0.021934208 0.67741674
-0.05790915 -0.022053909 0.67713338
-0.052874472 -0.02192256 0.67706263
-0.047817141 -0.021970479 0.67850006
-0.042680006 -0.022263814 0.67900002
-0.037496492 -0.021980064 0.67881244
-0.1105743 -0.01867651 0.67633337
-0.10727192 -0.017861022 0.67678577
-0.10238158 -0.01809171 0.67711771
-0.097567849 -0.01792286 0.6777693
-0.092881046 -0.017565196 0.67854548
-0.087651439 -0.017805308 0.67814296
-0.082651429 -0.018077619 0.67799997
-0.077704333 -0.017647916 0.67861539
-0.07048668 -0.017460003 0.67900008
-0.067253344 -0.017460003 0.67900002
-0.062198278 -0.017912902 0.67836362
-0.057553336 -0.018322226 0.67900008
-0.11058 -0.014873334 0.67900002
-0.10734667 -0.014873334 0.67900002
-0.10242885 -0.01431592 0.67885715
-0.09700001 -0.014226668 0.67899996
-0.092796668 -0.01455 0.67900002
-0.089455567 -0.014442223 0.67900008
-0.078246668 -0.014873334 0.67900002
-0.067037784 -0.014011113 0.67900008
-0.064020008 -0.014226668 0.67900002
-0.095060006 0.0012933334 0.67900002
-0.093335569 0.001508889 0.67900008
-0.094274297 0.0071028578 0.67800003
-0.12572572 -0.035828575 0.68400002
-0.12442286 -0.035828575 0.68400002
-0.11530287 -0.035828575 0.68400002
-0.11153904 -0.03684191 0.68400002
-0.10813715 -0.036480002 0.68400002
-0.10270858 -0.035828575 0.68400002
-0.097560145 -0.036364492 0.68357152
-0.0928661 -0.036078673 0.68380004
-0.086900584 -0.036089148 0.68400002
-0.082035363 -0.036460359 0.68362504
-0.077816911 -0.036141194 0.68375003
-0.074914292 -0.035828575 0.68400002
-0.061234288 -0.035828575 0.68400002
-0.057053763 -0.036662012 0.6833334
-0.051881909 -0.036974199 0.68327284
-0.047744196 -0.036296573 0.68300003
-0.039620955 -0.035723813 0.68200004
-0.020608254 -0.036227942 0.6833334
-0.018226191 -0.036453336 0.68350005
-0.12572572 -0.033222862 0.68400002
-0.12231969 -0.031880796 0.68316674
-0.11697466 -0.032084841 0.68323082
-0.11242066 -0.032700662 0.68353844
-0.10803637 -0.032695241 0.68200004
-0.10268155 -0.033794168 0.68237507
-0.096948884 -0.032783441 0.68107694
-0.092173077 -0.032736603 0.68157154
-0.087247886 -0.033259485 0.68227273
-0.082700573 -0.033886477 0.68160003
-0.078027859 -0.034462623 0.68274999
-0.072421908 -0.033936191 0.68260002
-0.067002699 -0.032637306 0.68083334
-0.06207484 -0.033684086 0.68200004
-0.057106551 -0.033745598 0.68137503
-0.052763622 -0.033836003 0.68060005
-0.047707941 -0.034323812 0.68000001
-0.044685718 -0.034323812 0.68000001
-0.037293531 -0.032876574 0.68220007
-0.033713717 -0.03137162 0.68340009
-0.020194288 -0.031920001 0.68400002
-0.017685974 -0.032355584 0.68318194
-0.1209889 -0.027969843 0.68300009
-0.11710739 -0.027324647 0.68312496
-0.11232787 -0.027270239 0.68175006
-0.10944763 -0.029142858 0.68000001
-0.095631748 -0.028711114 0.68000001
-0.032345027 -0.027497407 0.68300003
-0.029314287 -0.026708573 0.68400002
-0.017834097 -0.02850762 0.68340009
-0.014960953 -0.027970478 0.68300003
-0.11701716 -0.022957008 0.6831429
-0.11392649 -0.023512764 0.6820001
-0.04274286 -0.020076191 0.68000001
-0.073205292 -0.017491007 0.68022221
-0.058933336 -0.018780954 0.68000001
-0.051541753 -0.017108096 0.68216676
-0.047853943 -0.017642338 0.6815455
-0.042848419 -0.017527618 0.68166673
-0.038952384 -0.017526668 0.68166673
-0.11106858 -0.012990477 0.68200004
-0.10755759 -0.012447447 0.68145466
-0.10224169 -0.011887408 0.68088895
-0.097357154 -0.011682382 0.68150002
-0.092259251 -0.012083239 0.68220001
-0.087166011 -0.012635898 0.68184614
-0.082904257 -0.013324911 0.68130773
-0.077202678 -0.014142096 0.68120009
-0.072596259 -0.013114606 0.68180013
-0.06757722 -0.012733555 0.68176925
-0.063653335 -0.012340954 0.68200004
-0.051425882 -0.014320477 0.68350005
-0.047461271 -0.014303492 0.68266672
-0.04488286 -0.013660001 0.68300003
-0.10686036 -0.0082941679 0.68312508
-0.10266298 -0.0077965478 0.68225008
-0.097465128 -0.007797739 0.68225002
-0.092239596 -0.0077958941 0.68206251
-0.088205084 -0.0080177784 0.68266672
-0.08419048 -0.0097142868 0.68000001
-0.070901908 -0.0097571434 0.68300003
-0.1022712 -0.0029280158 0.68325007
-0.097376093 -0.0025973814 0.68162507
-0.092086613 -0.0025933932 0.68093747
-0.088659525 -0.0023836512 0.68283337
-0.10082382 0.00065047626 0.68300003
-0.096089914 0.002723048 0.68080008
-0.09182997 0.0028440298 0.68161547
-0.088620573 0.0016906668 0.68320006
-0.09548001 0.0058457148 0.68200004
-0.092405722 0.0063500958 0.68040007
-0.095147625 -0.045933336 0.68900001
-0.092850953 -0.045605239 0.68900001
-0.088585727 -0.045277145 0.68900001
-0.10367811 -0.040027622 0.68900001
-0.095475718 -0.041011907 0.68900001
-0.092260383 -0.041864958 0.68900007
-0.088272199 -0.042497147 0.68860006
-0.08219105 -0.041554477 0.68820012
-0.077922627 -0.041340001 0.68900007
-0.074149527 -0.040027622 0.68900001
-0.066931427 -0.040027622 0.68900001
-0.062755883 -0.041326668 0.68877786
-0.057744764 -0.041340001 0.68900001
-0.052495241 -0.04068381 0.68900001
-0.045277145 -0.040027622 0.68900001
-0.042214926 -0.040027626 0.68900001
-0.12740001 -0.035933334 0.68600005
-0.10671465 -0.038077977 0.68637502
-0.10257751 -0.037792981 0.68712497
-0.097779766 -0.038262144 0.68675005
-0.092590079 -0.038026534 0.68671435
-0.087771267 -0.038686588 0.68636364
-0.08233536 -0.039207265 0.68612504
-0.076892391 -0.038026806 0.68671435
-0.072031826 -0.037327703 0.68758345
-0.067446142 -0.037325926 0.68755561
-0.062879831 -0.037776105 0.68709099
-0.057821229 -0.039326534 0.68657154
-0.053843182 -0.039456513 0.68666673
-0.047073908 -0.037895244 0.68840009
-0.041685339 -0.037621524 0.68820012
-0.037427016 -0.037785631 0.68727279
-0.032978628 -0.036912177 0.68800002
-0.027524523 -0.037353098 0.68808341
-0.023325082 -0.037058096 0.68666673
-0.131017 -0.032098573 0.68783331
-0.12792268 -0.033581335 0.68600005
-0.072520003 -0.03462667 0.68600005
-0.067946672 -0.03462667 0.68600005
-0.064680003 -0.03462667 0.68600005
-0.035933334 -0.03462667 0.68600005
-0.032169789 -0.033242166 0.68681824
-0.027517676 -0.032761011 0.68793762
-0.022691285 -0.032854218 0.68676931
-0.030706668 -0.029400002 0.68600005
-0.027337059 -0.028289786 0.68790925
-0.022258971 -0.028150558 0.68741679
-0.017717144 -0.026903812 0.68900001
-0.097257152 -0.045342859 0.69000006
-0.072126046 -0.045958098 0.69266671
-0.067335084 -0.046872385 0.69316673
-0.062331535 -0.046617057 0.69329995
-0.057218093 -0.046694502 0.69055557
-0.052621596 -0.046702065 0.69066668
-0.047839057 -0.0466501 0.69380009
-0.042767514 -0.046581909 0.69322228
-0.10200318 -0.041546039 0.69000006
-0.09784025 -0.042401671 0.6902501
-0.093971431 -0.04271429 0.69000006
-0.086085722 -0.043371432 0.69000006
-0.083457142 -0.043371435 0.69000006
-0.077050008 -0.042714294 0.69000006
-0.072259381 -0.042251624 0.69100004
-0.067262501 -0.042565942 0.69084626
-0.062580645 -0.044134926 0.69166672
-0.05786036 -0.043395363 0.69037503
-0.052346196 -0.04300867 0.69050002
-0.047536764 -0.042272136 0.69133341
-0.042102627 -0.042761192 0.69075006
-0.03882762 -0.042776193 0.6910001
-0.045342859 -0.038114287 0.69000006
-0.044028573 -0.038114287 0.69000006
0.0079993652 -0.031925924 0.69355565
0.0046266671 -0.027099049 0.69400001
0.0079159532 -0.027710952 0.69274998
0.0030335241 -0.02071848 0.69279999
0.0079099415 -0.022414582 0.69218749
0.01118762 -0.020400954 0.69100004
-0.00066031748 -0.016508574 0.69333333
0.0026346431 -0.017133217 0.69187498
0.0077719381 -0.017165339 0.69146669
0.011211906 -0.01846524 0.6925
-0.00066095241 -0.01388 0.69400001
0.002701126 -0.012663725 0.69327289
0.0079253186 -0.012547223 0.6934166
0.0077992394 -0.0096499054 0.69400001
-0.10711429 0.029571431 0.69000006
-0.11022001 0.034980003 0.69300002
-0.10784953 0.032881908 0.69050002
-0.11032604 0.037655558 0.6936667
-0.10827849 0.03758591 0.69240004
-0.10777143 0.040085718 0.69000006
-0.046333335 -0.048319049 0.69500005
0.003588381 -0.035754096 0.69780004
0.0081949215 -0.036655881 0.69766665
0.011284763 -0.035845716 0.69700003
-0.00066428573 -0.032550953 0.69749999
0.002649365 -0.03247286 0.69583344
0.0077222227 -0.033757146 0.69500005
0.011268573 -0.033143811 0.69600004
-0.00066412706 -0.028556829 0.69733334
0.0025166352 -0.027880704 0.69593346
-0.0011076191 -0.021040954 0.69766665
0.0024701299 -0.023332993 0.69636369
-0.025925716 -0.015289525 0.69800001
-0.0017232382 -0.017628001 0.69580001
0.011252382 -0.015885714 0.69500005
-0.0017700002 -0.012603652 0.69650006
0.0019857143 -0.011252382 0.69500005
0.011789143 -0.012318667 0.69540006
-0.0013287303 -0.0086350804 0.69749999
0.0026523015 -0.0086205564 0.69641674
0.0080504771 -0.0078602722 0.69614297
0.011268573 -0.0086152386 0.69600004
-0.00066380959 -0.0033190479 0.69700003
0.00066476193 -0.0033238097 0.69800001
-0.097020246 0.044523098 0.69774997
-0.092358425 0.044517782 0.69766665
-0.088413343 0.044539049 0.69800007
-0.10037906 0.045868576 0.69800001
-0.096997231 0.047169924 0.69758338
-0.092299581 0.047145084 0.69722223
-0.088771753 0.046931118 0.69733334
-0.084303819 0.04713048 0.69700003
0.003115556 -0.041169845 0.70100009
0.0069685718 -0.042287216 0.70157152
0.010042857 -0.04351905 0.70300001
0.0022437233 -0.038035065 0.70063639
0.0073333336 -0.039000005 0.70000005
-0.002010159 -0.026099049 0.70266676
-0.021172065 -0.02117016 0.70200002
-0.017045479 -0.022171509 0.70191669
-0.012063572 -0.020777384 0.70375001
-0.0079116197 -0.021589337 0.70400006
-0.0025453337 -0.023024574 0.70280004
-0.027333336 -0.015333334 0.70000005
-0.022544287 -0.01718905 0.70316672
-0.017576706 -0.017884836 0.70353854
-0.012050859 -0.018345717 0.70300001
-0.0073684133 -0.017416988 0.70333338
-0.0040188096 -0.017414285 0.70325005
-0.026704764 -0.014020001 0.70100003
-0.023366667 -0.014020002 0.70100009
-0.0066952389 -0.014060001 0.70300001
-0.0046866671 -0.014060001 0.70300001
-0.00066666672 -0.0060000005 0.70000005
0.0026678573 -0.0060021435 0.70025003
0.0073374612 -0.0060028578 0.70033336
0.01167881 -0.0063397624 0.70075005
-0.00066666672 -0.004666667 0.70000005
0.0031792859 -0.0038447618 0.70225006
0.0073584127 -0.0040126983 0.70233339
0.010468889 -0.0042314292 0.70166671
-0.10224763 0.013409525 0.70400006
-0.098560005 0.014080001 0.70400012
-0.10124191 0.015420954 0.70400006
-0.09811303 0.01631492 0.70400006
-0.10660573 0.034194287 0.70400012
-0.10325334 0.034194287 0.70400006
-0.10669539 0.037557073 0.7032308
-0.10232803 0.037451349 0.70225012
-0.098120451 0.037856709 0.70307708
-0.086156197 0.039222859 0.70400006
-0.082241535 0.037904765 0.70320004
-0.077567756 0.037644323 0.70333338
-0.072228923 0.037736803 0.70221442
-0.067537047 0.038347412 0.70366675
-0.063217461 0.039539367 0.70366669
-0.05736177 0.038975377 0.70385724
-0.052278813 0.038873576 0.70375001
-0.047570005 0.038859528 0.70350003
-0.043725722 0.038909335 0.70200008
-0.10673992 0.042439312 0.70327282
-0.10218342 0.042741831 0.70125008
-0.097493649 0.042068735 0.70116675
-0.092457414 0.04200165 0.70209098
-0.087398022 0.042305321 0.70141673
-0.082627311 0.042848516 0.70080012
-0.077457741 0.04273488 0.70112514
-0.072077855 0.042712383 0.70075005
-0.067381434 0.042696517 0.70050001
-0.062732741 0.042711075 0.70075005
-0.057445843 0.042749409 0.70137513
-0.052131187 0.042772144 0.7017501
-0.047372937 0.04270215 0.7005834
-0.043618958 0.042418577 0.70029992
-0.10111111 0.048222225 0.70000005
-0.086000003 0.046000004 0.70000005
-0.082290478 0.04712053 0.7012223
-0.077534765 0.047458254 0.70183343
-0.072135508 0.047342431 0.70190918
-0.067516305 0.047462333 0.70188886
-0.062666669 0.047333341 0.69999999
-0.057575244 0.047261652 0.70072728
-0.052148581 0.046800956 0.70200008
-0.048205718 0.046197146 0.70300001
-0.096137151 0.050071433 0.70100003
-0.092131443 0.050071433 0.70100003
-0.015508573 -0.027645716 0.708
-0.011007938 -0.026733652 0.70766664
-0.0060685719 -0.026297145 0.708
-0.0043783337 -0.027616905 0.70725
-0.012090795 -0.023511749 0.70533335
-0.0070246262 -0.023768846 0.70728576
-0.0047044447 -0.023523495 0.70566672
-0.020814287 -0.015442858 0.70500004
-0.020814287 -0.014100001 0.70500004
-0.019471429 -0.014100001 0.70500004
-0.10541429 0.014100001 0.70500004
-0.10272858 0.014100001 0.70500004
-0.10611238 0.017948255 0.70666671
-0.10259144 0.018025542 0.70572728
-0.098437786 0.018611748 0.70633334
-0.10759868 0.023028003 0.70699996
-0.10225774 0.022873452 0.70637488
-0.09846206 0.023196192 0.70742863
-0.10770747 0.027600475 0.7068333
-0.10234667 0.027606672 0.70699996
-0.098174296 0.027857464 0.70766664
-0.10667525 0.031454291 0.70700008
-0.10214416 0.032027017 0.70692849
-0.097287223 0.032235108 0.70728576
-0.092483282 0.033323493 0.70766664
-0.08761587 0.033023812 0.70766675
-0.082175955 0.033677861 0.70725
-0.077207439 0.033820003 0.70740002
-0.073730007 0.034002859 0.70700002
-0.067833148 0.034118857 0.708
-0.061882105 0.033839431 0.70779997
-0.057505608 0.033275347 0.70666665
-0.052994292 0.033906668 0.70733333
-0.047165714 0.034364287 0.70750004
-0.041131433 0.034388572 0.708
-0.096461914 0.03603334 0.7050001
-0.092795879 0.037655063 0.70606244
-0.087725088 0.037082862 0.70583332
-0.083257154 0.035585716 0.70500004
-0.079900004 0.035585716 0.70500004
-0.07261429 0.035636194 0.70600003
-0.06678953 0.036083814 0.70600003
-0.062513724 0.037237909 0.7058
-0.058021069 0.036514606 0.70566666
-0.052389286 0.036269765 0.70525002
-0.047392115 0.036241096 0.70657146
-0.042908005 0.036452007 0.70620006
-0.07318572 0.049014289 0.70500004
-0.055728573 0.049014289 0.70500004
-0.05386667 0.049153335 0.70700002
-0.078330487 0.050949529 0.70700002
-0.072148576 0.05057143 0.708
-0.062034294 0.05057143 0.708
-0.059294768 0.050535716 0.70749998
-0.096334301 0.018726349 0.71066666
-0.096462592 0.022156192 0.7111429
-0.094453812 0.023103334 0.71350002
-0.042840004 0.023120001 0.71400005
-0.096221678 0.026887622 0.71025002
-0.092535317 0.027263081 0.71161544
-0.087691329 0.028274603 0.71255559
-0.08263512 0.028645443 0.71371436
-0.078145251 0.028539523 0.71350002
-0.072063349 0.028779842 0.71383333
-0.067272872 0.028539523 0.71350002
-0.062237252 0.028288255 0.71288902
-0.057032626 0.027496271 0.71291679
-0.052477952 0.027307257 0.71276933
-0.047748417 0.027719526 0.7128334
-0.042426117 0.027377067 0.71275014
-0.039951432 0.029117145 0.71100003
-0.095342867 0.031780954 0.71000004
-0.09297619 0.03076667 0.71000004
-0.087935008 0.030439287 0.71025002
-0.082682975 0.03117512 0.7116251
-0.077515244 0.031411961 0.71188891
-0.07233943 0.03210343 0.71120006
-0.067512818 0.0316936 0.71081823
-0.062515043 0.031527624 0.71040004
-0.057496432 0.030777384 0.71025002
-0.052486863 0.031519052 0.71020001
-0.047360875 0.031798974 0.71041673
-0.042744942 0.032288492 0.71036369
-0.03989524 0.033133335 0.71000004
-0.043952383 0.035838097 0.71000004
-0.095181912 0.018488573 0.71900004
-0.094364762 0.019830476 0.71800005
-0.092435777 0.02225503 0.71777779
-0.087649539 0.022597147 0.71899998
-0.082444005 0.022421336 0.71780008
-0.077717319 0.022674201 0.71754551
-0.072789945 0.023046248 0.71877778
-0.067106679 0.023966668 0.71900004
-0.062285088 0.023270797 0.71866673
-0.057232473 0.022679918 0.71772724
-0.052604452 0.022542858 0.71733332
-0.047947098 0.022697406 0.71827275
-0.044426989 0.022553971 0.71766675
-0.091438577 0.025248097 0.71650004
-0.08721783 0.025880683 0.71785718
-0.082530007 0.025918256 0.71616673
-0.077359907 0.02646867 0.71630007
-0.072381727 0.026357144 0.71700001
-0.067634925 0.025960319 0.71733332
-0.063077554 0.025835102 0.71657151
-0.057961911 0.025230478 0.71600002
-0.047067381 0.02558024 0.71625006
-0.044323813 0.025230478 0.71600002
-0.094334289 0.014460001 0.72300005
-0.095446676 0.016479049 0.72100008
-0.092121102 0.017873608 0.72185725
-0.087407947 0.019270796 0.72266674
-0.082586072 0.019269645 0.72262508
-0.077488691 0.018726071 0.72162503
-0.073327467 0.019477621 0.72183341
-0.066990487 0.019500321 0.72266674
-0.062438238 0.018977009 0.72271436
-0.058066864 0.018850477 0.72240013
-0.052223135 0.019374423 0.72285724
-0.0475008 0.019275401 0.7228334
-0.044726193 0.019266192 0.72250009
-0.072000012 0.021257143 0.72000003
-0.067200005 0.02194286 0.72000003
-0.062400006 0.021257143 0.72000003
-0.059657145 0.021257143 0.72000003
-0.04731429 0.021257143 0.72000003
-0.077760011 -0.010414287 0.72900003
-0.095117152 0.011802858 0.72900003
-0.09270449 0.013023525 0.72750008
-0.087429762 0.013183254 0.72858346
-0.082737967 0.013573879 0.72828573
-0.077679291 0.014565001 0.72825003
-0.072205722 0.014580001 0.72900003
-0.066882864 0.013654288 0.72900003
-0.062378339 0.013166904 0.72775
-0.057559215 0.01386905 0.72816676
-0.052729528 0.013875715 0.72850007
-0.04732798 0.013347503 0.72812504
-0.04494286 0.013828572 0.72600001
-0.090452388 0.015880954 0.72500002
-0.087364502 0.016485309 0.72557145
-0.082609802 0.016679458 0.72542852
-0.077438429 0.016363177 0.72600007
-0.072216198 0.016994605 0.72677785
-0.067816295 0.017125929 0.72577775
-0.062617943 0.016344924 0.72516668
-0.057064574 0.016442096 0.72539997
-0.052585084 0.016811326 0.72544438
-0.047665082 0.016578732 0.72533339
-0.044880956 0.016571429 0.72500002
-0.071740955 -0.010447619 0.73133337
-0.067530483 -0.010790952 0.73100001
-0.064223811 -0.01047143 0.73300004
-0.076607384 -0.0083569046 0.73124999
-0.073082067 -0.0086119054 0.73316669
-0.067341596 -0.0090876203 0.73400009
-0.062215243 -0.0090876194 0.73400003
-0.092338115 0.008067348 0.73214287
-0.087592915 0.0081313225 0.73188895
-0.082317621 0.0083714286 0.73250002
-0.077943817 0.0080390479 0.73400003
-0.072467946 0.0083885714 0.73400009
-0.067426957 0.0075368579 0.73290008
-0.062801488 0.0081297355 0.73177779
-0.057243817 0.0083761904 0.7330001
-0.052333973 0.0083726998 0.73266673
-0.047373336 0.0083595244 0.73150003
-0.091665082 0.010906985 0.73100007
-0.087720007 0.010442858 0.73100001
-0.081655949 0.011316667 0.73124999
-0.077464238 0.011862329 0.73277783
-0.072328977 0.012440715 0.7325834
-0.067994609 0.011371112 0.73100007
-0.062657148 0.010442858 0.73100001
-0.057407759 0.011043674 0.73128575
-0.052612111 0.011238505 0.73100007
-0.047805082 0.010906985 0.73100007
-0.086334288 -0.010528572 0.73700005
-0.08493048 -0.010528572 0.73700005
-0.087084763 -0.0085815247 0.73860002
-0.082420558 -0.0073288442 0.73785716
-0.077260479 -0.0063214293 0.73750007
-0.072346672 -0.0070223818 0.73750007
-0.067205533 -0.0079971431 0.7366001
-0.062925965 -0.0080845244 0.73825002
-0.058416195 -0.0084457146 0.73900002
-0.082345724 -0.0035190478 0.73900002
-0.078122869 -0.0049266675 0.73900002
-0.091660008 0.0045647621 0.73750007
-0.087315127 0.0038639288 0.73787504
-0.082470484 0.0036516197 0.73760003
-0.077271812 0.0037923814 0.73760003
-0.072545476 0.0036871431 0.73774999
-0.06726265 0.0032934071 0.73746163
-0.062502488 0.0032291431 0.7374
-0.057795718 0.0031085035 0.73750013
-0.052925579 0.0039155106 0.73814291
-0.048817337 0.0043609529 0.73860002
-0.044340003 0.0035190478 0.73900002
-0.09331049 0.0063142865 0.73666668
-0.088320002 0.0063085719 0.73600006
-0.082712382 0.0063085719 0.73600006
-0.076834291 0.0075126532 0.73628581
-0.072198093 0.0066590481 0.73600006
-0.061683811 0.0063085719 0.73600006
-0.0574781 0.0063085719 0.73600006
-0.052571431 0.0063085719 0.73600006
-0.048451435 0.0063200006 0.73733342
-0.044340003 0.0077419053 0.73900002
-0.07500191 0.010514286 0.73600006
-0.073600002 0.011916191 0.73600006
-0.091513336 -0.0074200006 0.74200004
-0.088000797 -0.0068233339 0.74116677
-0.071180955 -0.0063428576 0.74000001
-0.067748576 -0.006351429 0.74100006
-0.062723815 -0.0063428576 0.74000001
-0.057449527 -0.0074461387 0.74066663
-0.052292701 -0.0077731749 0.74200004
-0.048064291 -0.0077747628 0.7421667
-0.09189786 -0.0028271431 0.74225003
-0.087518051 -0.0028232739 0.7410624
-0.082457155 -0.0021142859 0.74000001
-0.07742478 -0.002332015 0.74061537
-0.07270398 -0.002823333 0.74116671
-0.067805842 -0.0028263095 0.74162495
-0.062186673 -0.0028266667 0.74199992
-0.057226833 -0.0028265079 0.74183333
-0.052293338 -0.0028266669 0.74199992
-0.047310244 -0.0028253177 0.74141669
-0.044400003 -0.0035238098 0.74000001
-0.092317633 0.0021192066 0.74183339
-0.087592654 0.0013096599 0.74085718
-0.082530171 0.00070539693 0.74066675
-0.077557787 0.0011749207 0.74033344
-0.072286196 0.0010576191 0.74050003
-0.068361908 0.00070476194 0.74000001
-0.062723815 0.00070476194 0.74000001
-0.056380957 0.00070476194 0.74000001
-0.051869668 0.0013091158 0.74028575
-0.046976302 0.0022728045 0.74111116
-0.044400003 0.0035238098 0.74000001
-0.045809526 0.0063428576 0.74000001
-0.044400003 0.0063428576 0.74000001
