# .PCD v0.7 - Point Cloud Data file format
VERSION 0.7
FIELDS x y z
SIZE 4 4 4
TYPE F F F
COUNT 1 1 1
WIDTH 606
HEIGHT 1
VIEWPOINT 0 0 0 1 0 0 0
POINTS 606
DATA ascii
-0.033349525 -0.032056194 0.67900002
-0.056508575 -0.040920004 0.68200004
-0.06709715 -0.035828575 0.68400002
-0.062219732 -0.03636422 0.68357152
-0.057186034 -0.037041273 0.68233341
-0.051888365 -0.036691327 0.68388891
-0.047531117 -0.037113972 0.68366671
-0.042954084 -0.037469462 0.68335718
-0.037755243 -0.03775619 0.68349993
-0.033198193 -0.037105054 0.68350005
-0.028272001 -0.036349718 0.68400002
-0.080777153 -0.033222858 0.68400002
-0.078822859 -0.034525715 0.68400002
-0.072569154 -0.033353146 0.68400002
-0.068291441 -0.032788575 0.68400002
-0.062145062 -0.032699343 0.68353856
-0.057226133 -0.032514464 0.68281245
-0.052047502 -0.032529403 0.68312496
-0.047456272 -0.032503732 0.68258345
-0.042838339 -0.032451905 0.68150008
-0.037610836 -0.032422498 0.68087506
-0.031675875 -0.032689843 0.68188888
-0.028452978 -0.032195121 0.68287504
-0.060582861 -0.029314287 0.68400002
-0.057057049 -0.028267715 0.68390006
-0.052109346 -0.027357321 0.68393755
-0.047525637 -0.027342781 0.68358338
-0.042943634 -0.027326727 0.68318743
-0.037696015 -0.027296964 0.68243748
-0.032475594 -0.027277503 0.68199992
-0.027626149 -0.02798078 0.68327284
-0.050160002 -0.024102859 0.68400002
-0.047293719 -0.023581717 0.68400002
-0.042715106 -0.023358371 0.68400007
-0.038021337 -0.023046477 0.68360007
-0.033767078 -0.022603814 0.68371433
-0.086617142 -0.040027622 0.68900001
-0.081367627 -0.040027622 0.68900001
-0.077430487 -0.040027622 0.68900001
-0.073712066 -0.040465083 0.68900001
-0.062338099 -0.040027626 0.68900001
-0.057663813 -0.040623814 0.68800002
-0.052455716 -0.041310001 0.68849999
-0.047108572 -0.041220002 0.68700004
-0.042887621 -0.041578099 0.68750006
-0.037839431 -0.04150648 0.68740004
-0.033153526 -0.041542478 0.68800002
-0.026903814 -0.04152748 0.68900007
-0.022966668 -0.041011907 0.68900001
-0.019029524 -0.041340001 0.68900001
-0.011155238 -0.040027622 0.68900001
-0.097116202 -0.037184134 0.68900007
-0.09279117 -0.037201215 0.6874547
-0.087748498 -0.037327386 0.68758345
-0.082480326 -0.037314132 0.68733335
-0.077233583 -0.037309766 0.68725008
-0.072177671 -0.037429616 0.68727285
-0.067737289 -0.037653472 0.68671435
-0.063168578 -0.038319048 0.68660009
-0.052591302 -0.03932599 0.68657154
-0.047040004 -0.039853334 0.68600005
-0.041160002 -0.039853334 0.68600005
-0.031593021 -0.039001592 0.68633336
-0.027194669 -0.038439054 0.68640006
-0.022411799 -0.037521545 0.68746173
-0.017553097 -0.03691072 0.68900007
-0.012467619 -0.037402861 0.68900001
-0.0098428577 -0.038059048 0.68900001
-0.096460007 -0.034340635 0.68900001
-0.092564762 -0.033112384 0.68850011
-0.087738819 -0.032737147 0.68750018
-0.082549609 -0.032589734 0.6863572
-0.077261686 -0.032321762 0.68615389
-0.073173337 -0.03136 0.68600005
-0.066313334 -0.032013334 0.68600005
-0.064244449 -0.032013334 0.68600005
-0.026305955 -0.033005238 0.68625003
-0.022356058 -0.032928031 0.68757159
-0.018756002 -0.033183049 0.68860006
-0.091866672 -0.029528573 0.68900001
-0.087535813 -0.029266095 0.68900007
-0.082321532 -0.028444383 0.68820012
-0.07709109 -0.027784696 0.68764299
-0.07220684 -0.028035931 0.68754554
-0.067598358 -0.028050479 0.68790925
-0.063016579 -0.027379494 0.68780011
-0.057971276 -0.02593413 0.68650007
-0.0267941 -0.026010478 0.68620008
-0.023765875 -0.027909687 0.68683332
-0.019029524 -0.029528573 0.68900001
-0.06102572 -0.024279049 0.68900001
-0.057660956 -0.023587622 0.68800008
-0.05233971 -0.022414727 0.68761551
-0.047087908 -0.021450572 0.68670005
-0.04249762 -0.020921431 0.68650007
-0.037457779 -0.02068889 0.68600005
-0.031737886 -0.021860847 0.68633336
-0.028103573 -0.022221034 0.68624997
-0.045802098 -0.01797962 0.68900007
-0.042303972 -0.017051749 0.68866676
-0.037853274 -0.017157145 0.68766677
-0.03296008 -0.017569605 0.68758339
-0.02826901 -0.01719784 0.68736374
-0.040027622 -0.013780001 0.68900001
-0.038059048 -0.013780001 0.68900001
-0.032153334 -0.013780001 0.68900001
-0.028872382 -0.013780001 0.68900001
-0.0819581 -0.045605719 0.69400001
-0.077963576 -0.045589291 0.69375002
-0.072653338 -0.045572862 0.69350004
-0.067604132 -0.045583814 0.6936667
-0.062790483 -0.045605719 0.69400001
-0.05684191 -0.045605719 0.69400001
-0.054198097 -0.045605719 0.69400001
-0.041588031 -0.046304766 0.69314295
-0.037163466 -0.047011781 0.69345468
-0.032705002 -0.046415485 0.69375002
-0.028080717 -0.045919769 0.69375002
-0.10494 -0.040260002 0.69300002
-0.097467117 -0.041817442 0.69184613
-0.092217021 -0.042159174 0.691625
-0.087498799 -0.042704161 0.69172734
-0.082942873 -0.042257447 0.69076931
-0.077626914 -0.042761993 0.69075006
-0.0720203 -0.042464405 0.69084626
-0.06726411 -0.042208161 0.69243753
-0.062107235 -0.042946905 0.69375002
-0.057574157 -0.043250892 0.69257152
-0.052685477 -0.043466672 0.69150001
-0.047383338 -0.043435007 0.69099998
-0.041783817 -0.043474428 0.69014293
-0.037478477 -0.043528385 0.69040006
-0.03263633 -0.043547079 0.69128579
-0.028553907 -0.043553915 0.69080007
-0.021685716 -0.04107143 0.69000006
-0.016804084 -0.040648982 0.69000012
-0.013142858 -0.040742859 0.69000006
-0.10232798 -0.037104074 0.6923638
-0.098242864 -0.038114291 0.69000006
-0.016100001 -0.038442861 0.69000006
-0.012923811 -0.038333338 0.69000006
-0.10186058 -0.033688765 0.69360006
-0.097752228 -0.0323627 0.69116676
-0.093971431 -0.030885717 0.69000006
-0.021685716 -0.03154286 0.69000006
-0.10112572 -0.029742859 0.69400001
-0.096866779 -0.028480742 0.69188893
-0.092223376 -0.027165497 0.69053859
-0.087643698 -0.026802264 0.69062501
-0.083238095 -0.026066666 0.69000006
-0.078857146 -0.025628572 0.69000006
-0.072285719 -0.025628572 0.69000006
-0.068342865 -0.025628572 0.69000006
-0.021314425 -0.02807497 0.69014293
-0.019070953 -0.027619526 0.69050002
-0.0958381 -0.02445524 0.69400001
-0.092240773 -0.024148574 0.69280005
-0.086986609 -0.022493996 0.69315386
-0.08279001 -0.022756351 0.69266671
-0.07783857 -0.02242488 0.69262505
-0.072488874 -0.02240232 0.69193757
-0.067114294 -0.022369642 0.69087499
-0.06257274 -0.022171691 0.69027281
-0.057828575 -0.021028575 0.69000006
-0.053885721 -0.02037143 0.69000006
-0.085262865 -0.019167621 0.69400001
-0.083280012 -0.019167621 0.69400001
-0.076538287 -0.017316952 0.69400001
-0.071823508 -0.018066034 0.69400001
-0.066968657 -0.017623099 0.69391674
-0.062220015 -0.01704032 0.69353342
-0.05754514 -0.017287988 0.69207692
-0.052706793 -0.017128333 0.69174999
-0.048054636 -0.016694807 0.69118184
-0.044028573 -0.015114287 0.69000006
-0.032200001 -0.015442858 0.69000006
-0.077331431 -0.01388 0.69400001
-0.060587309 -0.013439367 0.69400001
-0.057490755 -0.012932925 0.69385725
-0.052863806 -0.012554763 0.69383347
-0.047471356 -0.012525636 0.69225001
-0.042253256 -0.012370651 0.69027281
-0.037277419 -0.012112519 0.69014293
-0.033356313 -0.012159168 0.69012505
-0.052215241 -0.0099142864 0.69400001
-0.04689946 -0.0091527905 0.69357151
-0.042034015 -0.0081974166 0.69271433
-0.037391286 -0.0077599282 0.6925385
-0.032969054 -0.0081935395 0.69235718
-0.04097905 -0.0046266671 0.69400001
-0.037013337 -0.0046266671 0.69400001
-0.032827303 -0.0041860323 0.69400001
-0.04097905 0.038996194 0.69400001
-0.037013337 0.038996194 0.69400001
-0.041640002 0.04097905 0.69400001
-0.056423813 -0.051113337 0.69700003
-0.10037906 -0.045868576 0.69800001
-0.09724123 -0.046581097 0.69728577
-0.092648044 -0.046372391 0.69700009
-0.087356739 -0.046382051 0.6971429
-0.082104854 -0.047962572 0.69750005
-0.077190198 -0.04822772 0.69749999
-0.072304294 -0.0477608 0.69650006
-0.0675053 -0.047482859 0.69566673
-0.062156051 -0.048186518 0.69600004
-0.057510763 -0.048104294 0.69570011
-0.053329885 -0.047367979 0.69562507
-0.047288459 -0.046625361 0.69687504
-0.043326862 -0.047831245 0.69560003
-0.032433338 -0.048319049 0.69500005
-0.029123813 -0.047657143 0.69500005
-0.10636191 -0.041880004 0.69800001
-0.10235692 -0.042967148 0.69675004
-0.09862382 -0.044347622 0.69500005
-0.10668381 -0.036776435 0.69575006
-0.10598516 -0.032762289 0.69640005
-0.10291982 -0.031656954 0.69540006
-0.15090096 -0.025925716 0.69800001
-0.14225906 -0.025925716 0.69800001
-0.13757454 -0.027050242 0.69700003
-0.10569715 -0.029914288 0.69800001
-0.10239916 -0.027939476 0.69666672
-0.098671123 -0.026929846 0.69533342
-0.15090096 -0.024596192 0.69800001
-0.14259143 -0.023266668 0.69800001
-0.13822097 -0.022594051 0.69774997
-0.10104382 -0.024596192 0.69800001
-0.096520416 -0.023061635 0.69757152
-0.092138104 -0.021707859 0.69600004
-0.089357145 -0.021180954 0.69500005
-0.08141429 -0.02051905 0.69500005
-0.091765724 -0.01845867 0.6972
-0.087630607 -0.017100064 0.6960001
-0.081887089 -0.016925855 0.69500005
-0.078010201 -0.017114967 0.69500011
-0.073339052 -0.01668 0.69500011
-0.068838105 -0.015885714 0.69500005
-0.08733768 -0.012919259 0.69766665
-0.082186118 -0.012591986 0.69591677
-0.077442855 -0.012410715 0.69500011
-0.072809525 -0.012576191 0.69500011
-0.067514293 -0.012576193 0.69500011
-0.062774502 -0.012289207 0.69544452
-0.057585716 -0.011252382 0.69500005
-0.080879375 -0.0090850806 0.69800007
-0.077017702 -0.0079658506 0.6971429
-0.072551064 -0.0081175091 0.69692314
-0.067847751 -0.0080990475 0.69706678
-0.062310006 -0.0086351437 0.69749999
-0.057521831 -0.0078072534 0.69669241
-0.05295239 -0.0076119057 0.69500011
-0.04817196 -0.0069867731 0.69500011
-0.043685719 -0.0059571434 0.69500005
-0.075525403 -0.0031003177 0.69766665
-0.072398335 -0.0026559522 0.69741672
-0.068732813 -0.003174074 0.6976667
-0.056229845 -0.0037631746 0.69733334
-0.05237215 -0.0026496034 0.69608343
-0.047734648 -0.0026501191 0.69612515
-0.042594697 -0.0023648981 0.69571429
-0.037102222 -0.0019863492 0.69566679
-0.033265721 -0.0017217143 0.69580001
-0.073123813 0.00066476193 0.69800001
-0.051814765 0.00066428573 0.69749999
-0.047937967 0.0012342859 0.69771427
-0.04240562 0.0017282857 0.6979
-0.037146561 0.0015510054 0.69788891
-0.033000953 0.0011076191 0.69766665
-0.036118731 0.033459686 0.69800007
-0.032573335 0.033902861 0.69800001
-0.048031688 0.038002081 0.69781822
-0.042459451 0.037149765 0.69658339
-0.037596311 0.037429649 0.69562513
-0.047758732 0.041410156 0.69755554
-0.042182256 0.04230433 0.69700003
-0.03752733 0.042225793 0.69692308
-0.11015715 -0.050071433 0.70100003
-0.10882191 -0.050071433 0.70100003
-0.10243715 -0.050214291 0.70300001
-0.092014134 -0.051143341 0.70350003
-0.087542556 -0.050787307 0.70166671
-0.082666665 -0.051333338 0.70000005
-0.077254958 -0.051637437 0.70050013
-0.072167389 -0.052123453 0.70162505
-0.067551576 -0.050973613 0.70028579
-0.058000002 -0.050666671 0.70000005
-0.11700097 -0.046800956 0.70200008
-0.11192515 -0.04714705 0.70120013
-0.10748668 -0.047400955 0.70100009
-0.10292884 -0.047492128 0.70054549
-0.097403809 -0.048701428 0.70050001
-0.092097864 -0.04871881 0.70074999
-0.088000007 -0.048333339 0.70000005
-0.084666669 -0.048666671 0.70000005
-0.051080953 -0.048147243 0.70020002
-0.048000004 -0.048666671 0.70000005
-0.14012954 -0.043580957 0.70400006
-0.13878858 -0.043580957 0.70400006
-0.11701299 -0.042667329 0.70084631
-0.11211018 -0.042708993 0.70068759
-0.10764688 -0.043044131 0.70011121
-0.104 -0.04466667 0.70000005
-0.14714161 -0.035948575 0.70333338
-0.14216223 -0.036676303 0.70300007
-0.13883938 -0.035881273 0.70200008
-0.12066668 -0.036000002 0.70000005
-0.11728941 -0.037227433 0.70053339
-0.11234294 -0.037351772 0.70035714
-0.10866667 -0.039333336 0.70000005
-0.15085375 -0.031924218 0.70042861
-0.14738382 -0.032219481 0.70081836
-0.1427858 -0.032694366 0.7005834
-0.13879874 -0.032698415 0.70066679
-0.12083905 -0.034048572 0.70100003
-0.11727779 -0.03366635 0.70233339
-0.11203001 -0.032924477 0.70270002
-0.10822223 -0.031777781 0.70000005
-0.15133335 -0.027777778 0.70000005
-0.14746667 -0.027600003 0.69999999
-0.14266667 -0.028285719 0.69999999
-0.13866667 -0.030000001 0.70000005
-0.1071416 -0.028508892 0.70166671
-0.10427207 -0.026456829 0.70033336
-0.15099999 -0.023000002 0.70000005
-0.14733337 -0.022666669 0.69999999
-0.14255556 -0.022444448 0.69999999
-0.1026535 -0.022575876 0.70066679
-0.098271035 -0.021636466 0.70057148
-0.15042858 -0.017377144 0.70200002
-0.14761335 -0.017233701 0.70230782
-0.14264205 -0.017479112 0.70053339
-0.13837011 -0.017228004 0.70120013
-0.10124191 -0.015420954 0.70400006
-0.097614527 -0.017382383 0.70200008
-0.093047626 -0.016476192 0.70000011
-0.14656611 -0.013543621 0.70400006
-0.14234193 -0.013497007 0.7035715
-0.13878858 -0.014080001 0.70400006
-0.09627524 -0.013371429 0.70200002
-0.092317522 -0.012289715 0.7014001
-0.088222228 -0.010888889 0.70000005
-0.083333336 -0.010000001 0.70000005
-0.09089563 -0.0076293335 0.70280004
-0.087500326 -0.0073462445 0.70133334
-0.082981139 -0.0070702857 0.70039999
-0.079333335 -0.0060000005 0.70000005
-0.066000007 -0.0060000005 0.70000005
-0.062888898 -0.0068888897 0.70000005
-0.090514295 -0.0046933335 0.70400006
-0.086931437 -0.0025242497 0.7033847
-0.082314 -0.0028235903 0.70092314
-0.078277998 -0.0024000956 0.70009995
-0.066775382 -0.0020001363 0.70014292
-0.06270048 -0.0026672622 0.70037496
-0.057875153 -0.0020000956 0.70009995
-0.091184765 0.0026819049 0.70400006
-0.086735435 0.00093847624 0.70380002
-0.082213812 0.0018428573 0.70324999
-0.07748884 0.0025421588 0.70180005
-0.071993135 0.0029626533 0.7017858
-0.067509055 0.0026763496 0.70183349
-0.062779054 0.002672143 0.70125014
-0.057420537 0.0026719645 0.70106256
-0.052377224 0.0032254762 0.7005834
-0.047343269 0.0037152385 0.70014292
-0.042888895 0.0042222226 0.70000005
-0.037428576 0.0040952386 0.70000011
-0.031971086 0.0034576629 0.70072728
-0.028180955 0.0030708574 0.70120001
-0.090514295 0.0060342862 0.70400006
-0.081798099 0.0073752385 0.70400006
-0.077748097 0.0067021428 0.70375001
-0.073081911 0.006570667 0.70400006
-0.065483183 0.0064812703 0.70400012
-0.0622808 0.0066969856 0.70316672
-0.057396971 0.0072437241 0.70300007
-0.052211113 0.0073639695 0.70283335
-0.047446031 0.0073520639 0.70166671
-0.042748101 0.0073485724 0.7013334
-0.037423022 0.0073523819 0.70166677
-0.032106508 0.0073590479 0.70233339
-0.028040003 0.0066761915 0.70100003
-0.056635477 0.01038881 0.70375001
-0.052269526 0.012062978 0.70362502
-0.047558732 0.012058573 0.70333338
-0.042408019 0.011607542 0.7030834
-0.037519407 0.012060598 0.70350015
-0.032853335 0.01072762 0.70400012
-0.052297153 0.015867937 0.70400012
-0.04626286 0.01944381 0.70400006
-0.042094287 0.017829714 0.70380008
-0.03751637 0.017418992 0.70343763
-0.034182146 0.017426906 0.70375001
-0.04626286 0.022572702 0.70400012
-0.043044575 0.022662103 0.70400017
-0.038042739 0.021619167 0.70387501
-0.033300322 0.021231748 0.70400012
-0.04626286 0.027489526 0.70400012
-0.042900637 0.0274827 0.70383346
-0.038664129 0.026595559 0.70400012
-0.095878102 0.034194287 0.70400006
-0.092749223 0.034194287 0.70400012
-0.087414421 0.033605717 0.70371431
-0.082037143 0.033589907 0.7026
-0.077418678 0.033082671 0.7032001
-0.072731435 0.033887241 0.70320004
-0.067685403 0.034178101 0.70366669
-0.062957861 0.034157861 0.70324999
-0.057425287 0.032599047 0.70300007
-0.052366383 0.032590996 0.70284629
-0.047402173 0.032309182 0.70281827
-0.042751666 0.032060597 0.70137507
-0.038694445 0.03268937 0.70050001
-0.090514295 0.037546672 0.70400006
-0.087550037 0.037358981 0.7033847
-0.082651243 0.0375202 0.70100021
-0.077457741 0.037392981 0.70112514
-0.072116077 0.037392974 0.70112514
-0.067477308 0.037412226 0.70150012
-0.0627781 0.037398688 0.70125008
-0.057400897 0.037375901 0.70081258
-0.052461542 0.037179492 0.69999999
-0.047000006 0.035666667 0.70000005
-0.044000003 0.035333335 0.70000005
-0.038666669 0.035333335 0.70000005
-0.087058894 0.041743651 0.70316672
-0.082538337 0.042218179 0.70175016
-0.077776015 0.042705402 0.70280015
-0.072437942 0.042302698 0.70316672
-0.067541599 0.042801112 0.70216674
-0.062806256 0.042763636 0.70156264
-0.057452559 0.042756017 0.70143759
-0.052285723 0.042857151 0.69999999
-0.047333337 0.044133343 0.70000005
-0.044222228 0.044222228 0.70000005
-0.036000002 0.04466667 0.70000005
-0.034000002 0.04466667 0.70000005
-0.062354289 0.04626286 0.70400006
-0.05607016 0.046687942 0.70366669
-0.051910102 0.047229718 0.70240009
-0.047694642 0.047361791 0.70287508
-0.042819288 0.04683429 0.70249999
-0.037484452 0.047526833 0.70283335
-0.034161907 0.047559373 0.70333338
-0.098700009 -0.050357144 0.70500004
-0.094000012 -0.050357144 0.70500004
-0.15036573 -0.045177147 0.708
-0.15022413 -0.042440638 0.70733333
-0.14746001 -0.042420004 0.70700002
-0.14263768 -0.042210657 0.70554543
-0.13833697 -0.04207791 0.7058
-0.15094906 -0.038663339 0.70599997
-0.14768647 -0.038433123 0.70522225
-0.14240924 -0.039185401 0.70533341
-0.13947858 -0.039081432 0.70749998
-0.12018573 -0.032900002 0.70500004
-0.11756108 -0.03111298 0.706375
-0.11333086 -0.031054288 0.7058
-0.11665144 -0.028994288 0.70800006
-0.11237822 -0.027799645 0.70762503
-0.10902991 -0.027292002 0.7058
-0.11665144 -0.022251431 0.708
-0.11125715 -0.023600001 0.708
-0.10761439 -0.023164859 0.70710003
-0.15015334 -0.010100001 0.70700002
-0.1480663 -0.011554286 0.70539999
-0.14234276 -0.010982965 0.70611107
-0.13841784 -0.011637961 0.70700008
-0.098700009 -0.013428573 0.70500004
-0.15015334 -0.008080001 0.70700002
-0.14746001 -0.008080001 0.70700002
-0.14284691 -0.0080854772 0.70749998
-0.13957715 -0.0087657152 0.708
-0.091180004 -0.0017457145 0.70500004
-0.089300007 -0.0026857145 0.70500004
-0.091335058 0.0028272383 0.70620006
-0.087582953 0.0034842428 0.70590907
-0.082921438 0.0043642861 0.70500004
-0.078557149 0.0047000004 0.70500004
-0.092689767 0.0080602393 0.70524997
-0.087595247 0.0074125407 0.70749998
-0.082896613 0.0073964638 0.70600009
-0.077885725 0.0087285722 0.70500004
-0.072034702 0.0079612248 0.70500004
-0.067686886 0.0076868781 0.70522225
-0.062442861 0.0087285731 0.7050001
-0.059757147 0.0087285722 0.70500004
-0.095074289 0.013485715 0.708
-0.093659051 0.01145524 0.70749998
-0.086645722 0.01045143 0.708
-0.082347848 0.012282345 0.70738471
-0.077691846 0.011910205 0.7058571
-0.072720006 0.012120002 0.7069999
-0.067203462 0.012096787 0.70562494
-0.062516674 0.012100795 0.70583332
-0.058078583 0.01264524 0.70500004
-0.044314288 0.013428573 0.70500004
-0.032930478 0.013440637 0.70566672
-0.097633339 0.015486668 0.70700002
-0.086308576 0.018880002 0.708
-0.082089722 0.017568318 0.7076667
-0.077515803 0.017525796 0.70775002
-0.072681442 0.017497737 0.70662493
-0.06730929 0.017500477 0.70674992
-0.062641993 0.017513257 0.70725
-0.057876788 0.017498216 0.70662487
-0.052371431 0.018397143 0.70499998
-0.047793508 0.01727403 0.70499998
-0.044314291 0.016785717 0.70500004
-0.03170364 0.017653249 0.70554543
-0.02887143 0.015442858 0.70500004
-0.087324165 0.023009868 0.70764285
-0.08224798 0.02292167 0.70787507
-0.077542864 0.022925716 0.70800012
-0.07281661 0.02292387 0.7079376
-0.067416437 0.022922026 0.70787507
-0.062163118 0.022788892 0.70793349
-0.057459492 0.02305612 0.70723081
-0.052447148 0.022861673 0.70599991
-0.048119057 0.022903176 0.70499998
-0.040957145 0.024842858 0.70500004
-0.037096433 0.024003573 0.70499998
-0.032004766 0.023216633 0.70576918
-0.028912382 0.022862857 0.70600003
-0.092029914 0.028430669 0.70740002
-0.087408587 0.027567623 0.70599997
-0.082203813 0.027626194 0.7075001
-0.077530697 0.027641166 0.7078889
-0.073160008 0.027814291 0.70800006
-0.066893861 0.027940849 0.70788896
-0.062630057 0.027610796 0.70711118
-0.05788032 0.027593335 0.70666665
-0.052409366 0.027547782 0.70550001
-0.048342865 0.027528575 0.70500004
-0.037249424 0.02784434 0.70544446
-0.032320637 0.02760667 0.70699996
-0.092757672 0.031814508 0.70615381
-0.087088794 0.031119049 0.70522219
-0.082563818 0.031107623 0.70624995
-0.078151435 0.030802859 0.70620006
-0.072563648 0.031535938 0.70727271
-0.067326121 0.031642463 0.70691657
-0.062462967 0.031566668 0.70522219
-0.058414292 0.030214287 0.7050001
-0.051700003 0.030214287 0.7050001
-0.049014289 0.030214287 0.70500004
-0.037001774 0.031045038 0.70642859
-0.032512125 0.031532213 0.70718175
-0.028953334 0.030300003 0.70700002
-0.096014291 0.035585716 0.70500004
-0.093395084 0.037627779 0.70550001
-0.095074289 0.041131433 0.708
-0.091845721 0.041380957 0.70650005
-0.087957144 0.043195244 0.7050001
-0.082585722 0.044985719 0.70500004
-0.07587143 0.044985719 0.70500004
-0.071842864 0.044538103 0.7050001
-0.085513338 0.045113336 0.70700002
-0.13920477 -0.040063813 0.71300006
-0.13881716 -0.038270481 0.71333337
-0.13525683 -0.03194572 0.71366668
-0.13240784 -0.032252703 0.71377784
-0.12793247 -0.032039925 0.7132501
-0.12269001 -0.031644765 0.71075004
-0.13595489 -0.026648695 0.71287507
-0.13235304 -0.027149841 0.71266687
-0.12761548 -0.027152857 0.71275014
-0.12276524 -0.027129684 0.71216679
-0.11786463 -0.026590481 0.71030772
-0.11326191 -0.025357146 0.71000004
-0.13648857 -0.022408575 0.71300012
-0.1323943 -0.022404658 0.71288896
-0.12751001 -0.022382384 0.71216673
-0.12267905 -0.022366667 0.71166664
-0.11810752 -0.022628572 0.71044445
-0.11277355 -0.022164021 0.71000004
-0.10886668 -0.021638097 0.71000004
-0.13655177 -0.019022223 0.71333337
-0.13279811 -0.019164955 0.71360004
-0.12720826 -0.019239683 0.71300006
-0.1228508 -0.019004129 0.71266675
-0.11985429 -0.019637143 0.71100003
-0.14281017 -0.0060914289 0.71066666
-0.13834858 -0.0079790484 0.71000004
-0.14287715 -0.0047400002 0.71100003
-0.091365837 0.012859405 0.71062499
-0.087904774 0.012577143 0.71000004
-0.084523812 0.01284762 0.71000004
-0.096086681 0.016240478 0.7105
-0.091660969 0.017159525 0.71116674
-0.087582268 0.016907739 0.71012503
-0.084523812 0.016904764 0.71000004
-0.091414295 0.021668572 0.71100003
-0.089933336 0.022314288 0.71000004
-0.095410004 0.028419524 0.7105
-0.093990482 0.027723812 0.71000004
-0.072352387 0.027385717 0.71000004
-0.069196835 0.026822224 0.71000004
-0.089933336 0.043952383 0.71000004
-0.13774049 -0.041208416 0.71716666
-0.13489811 -0.040400956 0.71900004
-0.13744752 -0.03726466 0.71722227
-0.13436811 -0.037610479 0.71800005
-0.13778363 -0.033150285 0.71620005
-0.13342604 -0.03386794 0.71600002
-0.13774477 -0.029321907 0.71600002
