# .PCD v0.7 - Point Cloud Data file format
VERSION 0.7
FIELDS x y z
SIZE 4 4 4
TYPE F F F
COUNT 1 1 1
WIDTH 567
HEIGHT 1
VIEWPOINT 0 0 0 1 0 0 0
POINTS 567
DATA ascii
-0.087942861 -0.041040003 0.68400002
-0.047554288 -0.041040003 0.68400002
-0.091200009 -0.036480002 0.68400002
-0.08734154 -0.037331875 0.68400002
-0.08299201 -0.036870863 0.68400002
-0.067314297 -0.036262862 0.68400002
-0.062816344 -0.036386944 0.68400007
-0.057760008 -0.036262862 0.68400002
-0.052114289 -0.035828575 0.68400002
-0.047325876 -0.036905244 0.68383336
-0.04272715 -0.03699572 0.68390006
-0.037607331 -0.037307404 0.68353856
-0.032933146 -0.037099432 0.68340009
-0.091851436 -0.034525715 0.68400002
-0.086900584 -0.034265142 0.68400002
-0.082297154 -0.034091428 0.68400002
-0.071005717 -0.033874288 0.68400002
-0.067598246 -0.033022422 0.68400002
-0.062519826 -0.032562327 0.6838125
-0.05732571 -0.032571431 0.68400002
-0.052114289 -0.032571428 0.68400002
-0.04753707 -0.032559127 0.68375003
-0.043087352 -0.032850616 0.68400007
-0.037565582 -0.032822587 0.68342859
-0.032505956 -0.032506552 0.68262506
-0.028823495 -0.031424765 0.68266672
-0.062320005 -0.029314287 0.68400002
-0.055371433 -0.029314287 0.68400002
-0.05276572 -0.029314287 0.68400002
-0.047771435 -0.028228572 0.68400002
-0.04234286 -0.02801143 0.68400002
-0.035828575 -0.028662859 0.68400002
-0.032361567 -0.027618164 0.68350005
-0.029028384 -0.027725527 0.68340009
-0.11877049 -0.043964766 0.68900001
-0.09252286 -0.040027622 0.68900001
-0.086893342 -0.041160002 0.68600005
-0.082023814 -0.040027622 0.68900001
-0.076118097 -0.040027622 0.68900001
-0.072837144 -0.040027626 0.68900001
-0.057088576 -0.04035572 0.68900001
-0.052364003 -0.040552575 0.68900007
-0.04695937 -0.041280001 0.68800008
-0.043964766 -0.041340001 0.68900001
-0.03736794 -0.041300002 0.68833339
-0.031934604 -0.041121274 0.68900007
-0.029528573 -0.040027622 0.68900001
-0.10039715 -0.036090478 0.68900001
-0.097194083 -0.03734963 0.68800002
-0.093168095 -0.037757862 0.68650001
-0.087370478 -0.039872702 0.68633342
-0.082023107 -0.037744049 0.68624997
-0.077261597 -0.03732302 0.68750012
-0.072555244 -0.037258733 0.68633336
-0.068431281 -0.038139209 0.68650001
-0.062346857 -0.038296577 0.68620008
-0.057085082 -0.038129844 0.68633342
-0.052125189 -0.038167514 0.6870001
-0.047203336 -0.038873333 0.68599999
-0.042793337 -0.0392 0.68600005
-0.03854667 -0.039853334 0.68600005
-0.032351192 -0.038560715 0.68625009
-0.028843813 -0.037367307 0.68833339
-0.10032429 -0.032785237 0.68849999
-0.097195238 -0.032552116 0.68757159
-0.092668131 -0.032767329 0.68707705
-0.087783471 -0.031915244 0.68645459
-0.082297437 -0.03179248 0.68689996
-0.0772122 -0.032715421 0.68706262
-0.072802678 -0.032414287 0.68620002
-0.068600014 -0.03070667 0.68600005
-0.04246667 -0.030706668 0.68600005
-0.0392 -0.030706668 0.68600005
-0.02942143 -0.033998571 0.68650007
-0.10039715 -0.029528573 0.68900001
-0.09777239 -0.029528573 0.68900001
-0.09252286 -0.028653655 0.68900007
-0.087374523 -0.028686907 0.68850005
-0.082639053 -0.029076828 0.68866676
-0.07786794 -0.029091112 0.68900007
-0.071893193 -0.027556488 0.68769246
-0.067548893 -0.027824765 0.68750012
-0.063118771 -0.027498383 0.6875
-0.057748232 -0.028010044 0.68690908
-0.052233953 -0.027189594 0.68678576
-0.046517335 -0.026917337 0.68599999
-0.042472124 -0.027383987 0.68609095
-0.038212795 -0.027280139 0.68671435
-0.033998571 -0.025498573 0.68650007
-0.050915241 -0.023818098 0.68833339
-0.046999052 -0.022717144 0.68761551
-0.042450685 -0.023227833 0.68811119
-0.037402861 -0.024279049 0.68900001
-0.032775953 -0.024252621 0.68825006
-0.029400002 -0.024173334 0.68600005
-0.13451906 -0.015092382 0.68900001
-0.13386287 -0.01312381 0.68900001
-0.076009527 -0.045605719 0.69400001
-0.074026674 -0.045605719 0.69400001
-0.05684191 -0.045605719 0.69400001
-0.052876193 -0.045605719 0.69400001
-0.04757072 -0.045589291 0.69375002
-0.042300954 -0.045605719 0.69400001
-0.037198734 -0.046443179 0.69333333
-0.032894287 -0.04637704 0.69233334
-0.027029663 -0.04643565 0.69228572
-0.022472382 -0.046266671 0.69400001
-0.12161525 -0.042961907 0.69400001
-0.11897144 -0.042961907 0.69400001
-0.10509144 -0.040318098 0.69400001
-0.10236605 -0.041754603 0.69344455
-0.097341038 -0.041894902 0.69192863
-0.092265412 -0.042840004 0.69200003
-0.086906098 -0.043189906 0.69340008
-0.082456723 -0.04240026 0.69263637
-0.077860281 -0.042410351 0.69114292
-0.072309017 -0.042617589 0.69169229
-0.067333639 -0.041762501 0.69261539
-0.062104613 -0.042102538 0.69250005
-0.057871152 -0.042583719 0.69209999
-0.052995145 -0.043109622 0.69210005
-0.04753691 -0.043575954 0.69325
-0.042059138 -0.04302156 0.69300014
-0.037485238 -0.043403339 0.69050014
-0.03321512 -0.043246552 0.69062501
-0.027503621 -0.04224585 0.69093347
-0.022912018 -0.042318463 0.6934616
-0.10509144 -0.037013333 0.69400001
-0.10226346 -0.037710357 0.69162506
-0.099228576 -0.038771432 0.69000006
-0.026260819 -0.037180275 0.69185722
-0.022468457 -0.037006553 0.69387513
-0.016904859 -0.036843907 0.69330007
-0.10509144 -0.033708572 0.69400001
-0.10262643 -0.032892622 0.69075006
-0.027607622 -0.033072382 0.69257146
-0.1500362 -0.027099051 0.69400001
-0.14772287 -0.02610762 0.69400001
-0.14250134 -0.026834667 0.69400007
-0.13769841 -0.027209207 0.69400012
-0.13340001 -0.025628572 0.69000006
-0.10273582 -0.029071048 0.69060004
-0.097104058 -0.027318334 0.69125003
-0.091810167 -0.026659049 0.69022226
-0.087662868 -0.026154285 0.69000006
-0.082811914 -0.026683718 0.69010007
-0.077290952 -0.026683716 0.69010007
-0.074310958 -0.026304286 0.69050002
-0.069000006 -0.025628572 0.69000006
-0.062428575 -0.025628572 0.69000006
-0.057828575 -0.025628572 0.69000006
-0.15078571 -0.022598669 0.69380003
-0.14755622 -0.022252927 0.69300002
-0.14263737 -0.022452978 0.69337505
-0.1380123 -0.02258008 0.6939168
-0.091834851 -0.023689799 0.69371432
-0.08734493 -0.02241016 0.69216675
-0.082803756 -0.022508763 0.69113338
-0.077613458 -0.022361904 0.69062501
-0.072331376 -0.02235637 0.69043767
-0.067216612 -0.022402443 0.69193757
-0.062171761 -0.022305973 0.69300002
-0.057571508 -0.0225696 0.69238466
-0.05307363 -0.022047989 0.69192308
-0.047995239 -0.020381272 0.69033337
-0.041400004 -0.021122452 0.69000012
-0.037457146 -0.021685716 0.69000006
-0.03285715 -0.021685718 0.69000006
-0.029045716 -0.021422859 0.69000006
-0.14716151 -0.017156273 0.69291675
-0.14276572 -0.017184762 0.69400012
-0.13794661 -0.016954843 0.69358337
-0.085262865 -0.019167621 0.69400001
-0.08394096 -0.019167621 0.69400001
-0.077496663 -0.018341431 0.69400001
-0.072698265 -0.017183037 0.69393766
-0.067837752 -0.017845716 0.69400007
-0.063781917 -0.018176191 0.69400001
-0.046134483 -0.018110096 0.69400001
-0.042225007 -0.017153334 0.69274992
-0.037611276 -0.0171554 0.6928333
-0.032978512 -0.017147798 0.69256246
-0.028493077 -0.017333942 0.69281816
-0.14184038 -0.013351239 0.69400001
-0.13787536 -0.012534181 0.69266671
-0.13405715 -0.011171429 0.69000006
-0.071382865 -0.01388 0.69400001
-0.067196831 -0.012778413 0.69400001
-0.064112388 -0.013219048 0.69400001
-0.042093422 -0.012669524 0.69354546
-0.037003975 -0.012554921 0.69383335
-0.032757416 -0.012744082 0.69385725
-0.029081907 -0.013219048 0.69400001
-0.13549525 -0.0072704768 0.69400001
-0.13422541 -0.0090044448 0.69200003
-0.065434292 -0.0099142864 0.69400001
-0.041640006 -0.0099142864 0.69400001
-0.037013337 -0.0099142864 0.69400001
-0.032386668 -0.0099142864 0.69400001
-0.029742859 -0.0099142864 0.69400001
-0.080436192 -0.05118667 0.69800001
-0.07844191 -0.05118667 0.69800001
-0.061734289 -0.051113337 0.69700003
-0.043209527 -0.05118667 0.69800001
-0.11583334 -0.046333335 0.69500005
-0.1129599 -0.046789952 0.69633341
-0.096916199 -0.046467625 0.69700003
-0.09231846 -0.046575598 0.69612509
-0.087794855 -0.047502317 0.69685721
-0.082295373 -0.047502186 0.69685715
-0.077028111 -0.047148813 0.69725007
-0.071991019 -0.047141775 0.6971429
-0.067722201 -0.047309894 0.6966154
-0.062501088 -0.047640637 0.6966669
-0.05754381 -0.047595486 0.69650006
-0.052744221 -0.047632113 0.69600004
-0.047487244 -0.048152767 0.69640005
-0.042458653 -0.048430875 0.69658339
-0.037252929 -0.04881864 0.69671434
-0.03276429 -0.048980955 0.69500005
-0.029785717 -0.048319049 0.69500005
-0.018586667 -0.045802861 0.69700003
-0.11721811 -0.041961819 0.69536376
-0.11273543 -0.042443272 0.69631267
-0.10776374 -0.04198572 0.69572741
-0.10166064 -0.044517782 0.69766665
-0.09862382 -0.044347622 0.69500005
-0.067293659 -0.044347625 0.69500005
-0.063542858 -0.044347622 0.69500005
-0.020519052 -0.04214127 0.69500005
-0.017243931 -0.042447269 0.69637513
-0.12014954 -0.036952063 0.69700003
-0.11764579 -0.037207693 0.69669241
-0.11276621 -0.037145954 0.69650006
-0.10796906 -0.037092861 0.69550008
-0.018533334 -0.03839048 0.69500005
-0.15125975 -0.032258101 0.69528586
-0.14742832 -0.032275911 0.69730002
-0.14243345 -0.0326561 0.69690007
-0.13909954 -0.032126669 0.69550002
-0.12014953 -0.033854287 0.69700003
-0.11684529 -0.032468151 0.69577783
-0.11268002 -0.032651085 0.69709092
-0.10757967 -0.032363206 0.696091
-0.025814287 -0.032433338 0.69500005
-0.022532862 -0.032471269 0.69583338
-0.018864287 -0.03276429 0.69500005
-0.15206635 -0.028028889 0.69522232
-0.1474393 -0.028627381 0.69500011
-0.14341271 -0.029344447 0.69500011
-0.1383381 -0.029785717 0.69500005
-0.11500382 -0.029914288 0.69800001
-0.11234477 -0.029914288 0.69800001
-0.1083562 -0.029914288 0.69800007
-0.10127144 -0.025814287 0.69500005
-0.099947624 -0.025814287 0.69500005
-0.026476193 -0.029785717 0.69500005
-0.022537146 -0.029828573 0.6960001
-0.01919524 -0.029785717 0.69500005
-0.15256906 -0.023497619 0.69500005
-0.13635239 -0.023166668 0.69500005
-0.10154001 -0.022735238 0.69533342
-0.097894989 -0.022650925 0.6954667
-0.093271017 -0.02156836 0.69566673
-0.089357145 -0.02051905 0.69500005
-0.10037906 -0.019278096 0.69800001
-0.0960581 -0.018945714 0.69800001
-0.091915034 -0.017496401 0.69766665
-0.087622806 -0.017098732 0.6959334
-0.082238168 -0.01695871 0.69635719
-0.077707626 -0.015753334 0.69500011
-0.066587627 -0.015753334 0.69500011
-0.061667468 -0.016878573 0.69500011
-0.057008754 -0.017235775 0.69606256
-0.052403014 -0.017245559 0.69650006
-0.048345026 -0.016796626 0.69536376
-0.14722654 -0.012765308 0.69500011
-0.14363335 -0.012008845 0.69500011
-0.087465204 -0.012736537 0.69718188
-0.082216188 -0.01259762 0.69616675
-0.077468053 -0.012579789 0.69522232
-0.073074289 -0.012311431 0.69500011
-0.067734927 -0.012355557 0.69500011
-0.061821908 -0.01244381 0.69500011
-0.057044923 -0.012603494 0.69650006
-0.052457254 -0.012616614 0.69722223
-0.047727626 -0.012594286 0.69600004
-0.044347622 -0.011252382 0.69500005
-0.031109527 -0.011914287 0.69500005
-0.029785717 -0.011252382 0.69500005
-0.14686787 -0.0084635718 0.69700003
-0.14245777 -0.0086123822 0.69572741
-0.13782406 -0.008059605 0.69575012
-0.13494667 -0.0059828577 0.69800001
-0.087231547 -0.0084941806 0.69800001
-0.082172446 -0.0080965078 0.69693339
-0.076981604 -0.0079633929 0.69681263
-0.072235078 -0.0079512699 0.69583344
-0.067685157 -0.0078139054 0.69540012
-0.062467624 -0.0084125279 0.69607693
-0.057080396 -0.0086273812 0.69691676
-0.052459769 -0.0079678576 0.69725007
-0.047749531 -0.0086209532 0.69633341
-0.042610478 -0.0081681479 0.69544452
-0.037044764 -0.0081304768 0.69572735
-0.032495242 -0.0079568252 0.69633341
-0.029850002 -0.0079585724 0.69650006
-0.081765726 -0.0046533337 0.69800007
-0.076504104 -0.0033195242 0.69730002
-0.072574571 -0.0036994561 0.69728577
-0.069323495 -0.0042079366 0.69766665
-0.051851429 -0.0039885715 0.69800001
-0.049857147 -0.0033238097 0.69800001
-0.037005082 -0.0046533337 0.69800007
-0.033238098 -0.0046533337 0.69800001
-0.05073905 -0.055412386 0.70100003
-0.097296201 -0.050452769 0.7026
-0.092755556 -0.050714921 0.70066679
-0.087333336 -0.050000004 0.70000005
-0.080666669 -0.050000004 0.70000005
-0.076814815 -0.051185191 0.70000005
-0.071904838 -0.051783744 0.70092875
-0.06719096 -0.051518813 0.70025009
-0.062333338 -0.051000006 0.70000005
-0.057555556 -0.050888892 0.70000005
-0.051906161 -0.051906921 0.70053339
-0.047486953 -0.052423149 0.70030004
-0.043182388 -0.052519288 0.70025003
-0.039333336 -0.050000004 0.70000005
-0.10526477 -0.048944764 0.70400006
-0.10227609 -0.047462754 0.70188892
-0.097873725 -0.048469525 0.70100003
-0.093333334 -0.048666671 0.70000005
-0.078666672 -0.048666671 0.70000005
-0.074000008 -0.048666671 0.70000005
-0.1502143 -0.035383813 0.70100003
-0.14705728 -0.036432032 0.70187503
-0.14269382 -0.036644861 0.7021001
-0.148 -0.034000002 0.70000005
-0.1112462 -0.027852621 0.70050001
-0.10822223 -0.028222224 0.70000005
-0.10066667 -0.018000001 0.70000005
-0.097592227 -0.016922081 0.70054549
-0.094000004 -0.016666669 0.70000005
-0.15000001 -0.010000001 0.70000005
-0.096703507 -0.012542646 0.7013334
-0.092865884 -0.012023333 0.70150006
-0.090000004 -0.010666667 0.70000005
-0.14666668 -0.0060000005 0.70000005
-0.14266667 -0.0060000005 0.70000005
-0.092263818 -0.0080228578 0.70200002
-0.088133335 -0.0070666671 0.70000005
-0.084666669 -0.0060000005 0.70000005
-0.062000003 -0.0060000005 0.70000005
-0.057354055 -0.0060021435 0.70025003
-0.050000004 -0.0060000005 0.70000005
-0.047333341 -0.0060000005 0.70000005
-0.04266667 -0.0060000005 0.70000005
-0.03755556 -0.0060000005 0.70000005
-0.032681592 -0.0060028578 0.70033336
-0.1465424 -0.0033380957 0.70100003
-0.14293779 -0.003339048 0.70133346
-0.13827525 -0.0037160548 0.70042861
-0.090128586 -0.0024479367 0.70100009
-0.087426916 -0.0026688098 0.70075005
-0.082875758 -0.0022061542 0.70046163
-0.078241125 -0.0015557145 0.7001667
-0.071772255 -0.0012389118 0.70057148
-0.067352213 -0.0024871 0.70145464
-0.062750898 -0.0026682741 0.70093751
-0.057400655 -0.0026683933 0.70081252
-0.052202173 -0.0021216453 0.70027274
-0.047349922 -0.0026672226 0.70025003
-0.042685416 -0.0026672028 0.7003125
-0.037397437 -0.0022056412 0.70023078
-0.031962052 -0.0023090113 0.70030773
-0.029030716 -0.0023354762 0.70075005
-0.090514295 0.0040228572 0.70400006
-0.08734259 0.0028711567 0.70314294
-0.08262416 0.002486055 0.70207155
-0.077717595 0.0025443814 0.70226681
-0.072162867 0.0018887448 0.70336372
-0.066725031 0.0023767967 0.7038182
-0.062498834 0.0025254947 0.70330775
-0.057600006 0.0026807147 0.70325011
-0.052334607 0.0021222222 0.70300007
-0.047535874 0.0026796828 0.70300007
-0.042759288 0.0026730958 0.70150012
-0.037383512 0.0026704171 0.70093763
-0.03214965 0.0026321909 0.70233351
-0.02812 0.0026780954 0.70300001
-0.090514295 0.0073752385 0.70400006
-0.086826675 0.0070400005 0.70400006
-0.081798099 0.0067047621 0.70400006
-0.077998742 0.0067047621 0.70400012
-0.072187945 0.0069282553 0.70400012
-0.06570667 0.0073752394 0.70400012
-0.062577784 0.0075987307 0.70400012
-0.057929147 0.0071070488 0.70400006
-0.047603812 0.0073752385 0.70400006
-0.042607412 0.0069157677 0.7026667
-0.037520003 0.0067004776 0.70350003
-0.032278642 0.0066089798 0.70400012
-0.028140001 0.0067004766 0.70350003
-0.092394292 0.01205143 0.70300001
-0.070400007 0.012739048 0.70400006
-0.067047626 0.011398096 0.70400006
-0.063695244 0.010057144 0.70400006
-0.040899049 0.010057144 0.70400006
-0.037323181 0.028383493 0.70400012
-0.030618414 0.027936511 0.70400012
-0.092525721 0.034194287 0.70400006
-0.087161914 0.034194287 0.70400006
-0.082468577 0.034194287 0.70400006
-0.07710477 0.034194287 0.70400012
-0.073081911 0.034194287 0.70400012
-0.067047626 0.034194287 0.70400006
-0.062891908 0.034121431 0.70249999
-0.05753953 0.034121428 0.70250005
-0.052159462 0.032442451 0.70342869
-0.047505628 0.032297142 0.70254546
-0.042783611 0.032372724 0.70192873
-0.037595946 0.03224165 0.70240009
-0.031913184 0.032528572 0.70146167
-0.091677681 0.037013549 0.70377779
-0.087254845 0.03727157 0.70242864
-0.082514696 0.037583407 0.70114297
-0.077575654 0.037448037 0.70218766
-0.072212443 0.037443157 0.70206261
-0.067556828 0.037458099 0.70233339
-0.062767029 0.037392985 0.70112514
-0.057466075 0.037418455 0.70162511
-0.052131426 0.037427384 0.7017501
-0.047412544 0.037396036 0.70116681
-0.042720363 0.03737988 0.7008751
-0.037520193 0.037253153 0.70100021
-0.033380955 0.035383813 0.70100003
-0.091024958 0.041960191 0.70380002
-0.087611653 0.042134393 0.70222223
-0.082576059 0.042238906 0.70053852
-0.077594407 0.042813223 0.70237517
-0.072502427 0.042409528 0.7033847
-0.067293748 0.041640412 0.7035715
-0.062520146 0.041331299 0.70157152
-0.05725579 0.041390207 0.70257151
-0.052204844 0.04216516 0.70275009
-0.047529105 0.042174816 0.70288891
-0.04278421 0.042116746 0.70191669
-0.038944446 0.041169848 0.70100009
-0.10541429 -0.050357144 0.70500004
-0.10272858 -0.050357144 0.7050001
-0.14704287 -0.038271431 0.70500004
-0.07587143 0.0047000004 0.70500004
-0.072917156 0.0044314289 0.70500004
-0.068485722 0.0040285718 0.70500004
-0.052035715 0.0043642861 0.70500004
-0.031557146 0.0033571431 0.70500004
-0.091177464 0.0078415889 0.70566672
-0.087453581 0.0075535718 0.70499998
-0.082663186 0.0080653979 0.70566672
-0.07725887 0.0079278108 0.70539999
-0.072738104 0.0078333337 0.70500004
-0.068485722 0.0073857149 0.70500004
-0.061995246 0.0069380961 0.7050001
-0.056400001 0.0087285722 0.70500004
-0.052371435 0.0073857149 0.70500004
-0.04767143 0.0073857149 0.70499998
-0.04364286 0.0087285731 0.7050001
-0.037600003 0.0087285722 0.70500004
-0.032094289 0.0084600002 0.70500004
-0.028239049 0.0087409532 0.70600003
-0.091180012 0.012488573 0.70500004
-0.087392278 0.012101072 0.70587492
-0.082117625 0.012116429 0.70674986
-0.077343024 0.012106827 0.70616663
-0.072717026 0.012054032 0.70566666
-0.067142859 0.012181635 0.70500004
-0.062384851 0.012281992 0.70572728
-0.057763577 0.012090716 0.70524997
-0.052399646 0.012093215 0.70537496
-0.047505572 0.012252383 0.70561534
-0.042989124 0.012091158 0.70528573
-0.037633929 0.012097263 0.70562494
-0.032265302 0.012101487 0.70581245
-0.028341364 0.011818368 0.70614296
-0.090900004 0.018180002 0.70700002
-0.087625593 0.017525477 0.70775002
-0.082191072 0.017515952 0.70737499
-0.077433333 0.017506666 0.70699996
-0.072732508 0.017510001 0.70712489
-0.067500323 0.017380826 0.70733339
-0.062495477 0.016677381 0.70749998
-0.057624429 0.017316943 0.70707136
-0.052501429 0.017499764 0.70674992
-0.047128633 0.017504584 0.70693743
-0.042410322 0.017502384 0.7068333
-0.037679762 0.017494526 0.70649993
-0.032328039 0.017511133 0.70718741
-0.028724572 0.017936002 0.708
-0.090900004 0.023117781 0.70700002
-0.087564535 0.022900954 0.70724994
-0.082168274 0.022899467 0.70718741
-0.077479139 0.022906749 0.70741677
-0.072751492 0.022903513 0.70731246
-0.067857958 0.023068355 0.70761544
-0.056838412 0.022690477 0.7076667
-0.052446667 0.022860479 0.70599997
-0.047116667 0.022885954 0.70674992
-0.042410325 0.022887465 0.7068333
-0.037665956 0.022868337 0.70624989
-0.032309052 0.022884527 0.70674992
-0.027619844 0.02290397 0.70733327
-0.091760576 0.028161718 0.70740002
-0.087492704 0.027593015 0.70666665
-0.082175002 0.027616424 0.70725
-0.077629052 0.027448097 0.70725
-0.072796911 0.02763564 0.70775008
-0.067364775 0.027619209 0.70733333
-0.062194034 0.027757144 0.70772725
-0.057260744 0.027619259 0.70733327
-0.052446675 0.027566668 0.70599997
-0.047292385 0.027469352 0.70663637
-0.042592954 0.027678097 0.70539999
-0.037674602 0.027230162 0.70499998
-0.0327508 0.027379368 0.70499998
-0.027589314 0.027588468 0.70655549
-0.092189111 0.031625926 0.7065556
-0.087368265 0.03158699 0.70566666
-0.082153119 0.031835902 0.70661533
-0.077614293 0.031878289 0.70619994
-0.072579563 0.031860147 0.70715386
-0.067416199 0.031818241 0.7062307
-0.062501907 0.031585716 0.70566666
-0.057797462 0.031585716 0.70566666
-0.053042859 0.030214287 0.70500004
-0.047671434 0.030214287 0.70500004
-0.042971432 0.030214287 0.70500004
-0.035585716 0.030214287 0.70500004
-0.032900002 0.030214287 0.7050001
-0.02887143 0.030214287 0.70500004
-0.092657149 0.03961429 0.70500004
-0.071842864 0.044985723 0.7050001
-0.067314103 0.043936197 0.70539999
-0.063966669 0.04376667 0.70700002
-0.057847384 0.043383576 0.70625001
-0.051700003 0.044985723 0.7050001
-0.044985719 0.044985719 0.70500004
-0.080240004 0.046525717 0.708
-0.077434108 0.046999432 0.70699996
-0.072269529 0.046909526 0.70699996
-0.067188337 0.04614 0.70725
-0.064057149 0.045851432 0.708
-0.05303096 0.046515085 0.70783329
-0.047460005 0.045920413 0.70757145
-0.042450003 0.045819528 0.70749998
-0.039754763 0.045819528 0.70749998
-0.027723812 0.014200001 0.71000004
-0.065590478 0.019609526 0.71000004
-0.062209524 0.019158732 0.71000004
-0.027085714 0.016928574 0.71100008
-0.065590486 0.022314288 0.71000004
-0.062209524 0.022314291 0.71000004
-0.058828574 0.022990478 0.71000004
-0.076409526 0.029076193 0.71000004
-0.061803814 0.025289526 0.71000004
-0.058828574 0.02501905 0.71000004
-0.061620004 0.04401429 0.71100008
