# .PCD v0.7 - Point Cloud Data file format
VERSION 0.7
FIELDS x y z
SIZE 4 4 4
TYPE F F F
COUNT 1 1 1
WIDTH 577
HEIGHT 1
VIEWPOINT 0 0 0 1 0 0 0
POINTS 577
DATA ascii
-0.077760011 -0.0055542863 0.648
-0.07765457 -0.0030847625 0.64785713
-0.076671757 -0.0070282551 0.65100008
-0.072896898 -0.0065971441 0.65118188
-0.076258734 -0.002066667 0.65100008
-0.072972521 -0.0038119731 0.65171432
-0.077080011 -0.015666667 0.65800011
-0.067993343 -0.015980002 0.65800005
-0.063052699 -0.016076509 0.65766674
-0.081342041 -0.012259864 0.65771431
-0.077618457 -0.012519646 0.65724993
-0.072630897 -0.012523275 0.6574375
-0.06746497 -0.012258437 0.65764296
-0.062559649 -0.012512145 0.65687495
-0.058677673 -0.012320635 0.65777779
-0.081593484 -0.0079534706 0.65685719
-0.077847943 -0.0089507941 0.65566671
-0.07189402 -0.008485307 0.65642864
-0.067595772 -0.0075110132 0.65718752
-0.062587149 -0.0081360331 0.65716672
-0.057731822 -0.0073888265 0.65746665
-0.054437146 -0.0056314291 0.65700001
-0.076163337 -0.00062428578 0.65550005
-0.0720101 -0.0017468572 0.65520006
-0.069119439 -0.0028756193 0.65619999
-0.057243049 -0.003882667 0.65760005
-0.054437146 -0.0043800003 0.65700001
-0.076111197 0.0015664287 0.65775001
-0.072899058 0.0023268028 0.65742862
-0.069560006 0.0006266667 0.65800005
-0.08334858 -0.020837145 0.66300005
-0.068825722 -0.020837145 0.66300005
-0.086639643 -0.017715238 0.66253853
-0.082179189 -0.01782286 0.6615715
-0.077511504 -0.018083369 0.66169232
-0.072739325 -0.017444627 0.66085714
-0.067664839 -0.018262053 0.66115391
-0.062696792 -0.018274881 0.66162503
-0.05834873 -0.016161747 0.66116673
-0.086240292 -0.012878953 0.66290009
-0.083576582 -0.012983429 0.66180009
-0.069142863 -0.014457144 0.66000003
-0.05654246 -0.012856191 0.66071433
-0.054140002 -0.011332382 0.66100001
-0.062905245 -0.0056614294 0.66050005
-0.05594286 -0.0094285719 0.66000003
-0.066830486 -0.0037819049 0.66200006
-0.062622145 -0.0036273811 0.66250008
-0.059579529 -0.0028352384 0.66200006
-0.076057151 0.0044000004 0.66000003
-0.068773344 0.0015776191 0.66250002
-0.06562572 -0.027397146 0.66900003
-0.063714288 -0.026122859 0.66900003
-0.081280008 -0.022863096 0.66675001
-0.07763648 -0.022428134 0.66692311
-0.072448678 -0.021990955 0.66730011
-0.067062721 -0.022747843 0.66769242
-0.062816992 -0.022496354 0.66850007
-0.058489718 -0.021790287 0.66900009
-0.060588896 -0.019211113 0.66500008
-0.056823656 -0.018307779 0.66666669
-0.054103177 -0.017186986 0.66833341
-0.055348575 -0.013997144 0.66800004
-0.053968258 -0.013332698 0.66666669
-0.066389941 -0.0015390477 0.66571426
-0.062520005 -0.0010558731 0.66533339
-0.056683931 -0.0014291666 0.666875
-0.071146667 0.0038114288 0.66700006
-0.066818096 0.0023300531 0.66677791
-0.062264998 0.0025438096 0.66712505
-0.057366289 0.0024177146 0.66780007
-0.054157145 0.0025485717 0.66900003
-0.071997151 0.0057342863 0.66900003
-0.069448575 0.0057342863 0.66900003
-0.080880009 -0.030169526 0.67400002
-0.07702858 -0.030169526 0.67400002
-0.073819056 -0.030169526 0.67400002
-0.08177451 -0.027686881 0.67255551
-0.077438965 -0.027521387 0.67199993
-0.072874032 -0.027438359 0.67281812
-0.068491749 -0.027526669 0.67211115
-0.062407624 -0.027752955 0.67140001
-0.057620715 -0.027532145 0.67225003
-0.053952008 -0.027297527 0.67280006
-0.077209532 -0.024885718 0.67000002
-0.072851747 -0.024496827 0.671
-0.068914294 -0.024885716 0.67000002
-0.061257146 -0.02424762 0.67000002
-0.056975156 -0.023523033 0.67081821
-0.053572379 -0.02298064 0.6723333
-0.052788101 -0.018518891 0.67050004
-0.051275242 -0.0064085722 0.67300004
-0.052544493 -0.0019257144 0.67400008
-0.047409255 -0.0015589116 0.67400008
-0.044291433 -0.00064190483 0.67400002
-0.067739531 0.0038347621 0.671
-0.055597145 0.0044733337 0.671
-0.052148711 0.0025576872 0.67128575
-0.047360003 0.0025600002 0.67199999
-0.043136004 0.0025599999 0.67199999
-0.07125143 0.007060953 0.67400002
-0.067289315 0.007051006 0.67288888
-0.062671699 0.0075542228 0.67193341
-0.057541728 0.0076744654 0.67131251
-0.052494351 0.0076835128 0.67218751
-0.047421791 0.0076917862 0.67287493
-0.043292701 0.0076065618 0.67177778
-0.066116191 0.010912382 0.67400002
-0.056487624 0.011554287 0.67400002
-0.052820243 0.011682619 0.67225003
-0.046003178 0.011768255 0.67400002
-0.076840006 -0.035514288 0.67800003
-0.08201021 -0.031500001 0.67500007
-0.077187814 -0.032547999 0.67540008
-0.072096914 -0.031914208 0.67691672
-0.067180887 -0.031829815 0.67776924
-0.061931364 -0.032135017 0.67792314
-0.057624955 -0.031457145 0.67680007
-0.053932868 -0.031158254 0.67683333
-0.084214292 -0.028928574 0.67500001
-0.05213315 -0.027162477 0.67580003
-0.051330101 -0.022513336 0.67540002
-0.051428575 -0.019928573 0.67500001
-0.049573336 -0.019958096 0.67600006
-0.052071434 -0.0025714287 0.67500007
-0.048857145 -0.0025714287 0.67500001
-0.075520717 0.0077483337 0.67774999
-0.072439902 0.0086374283 0.67670006
-0.068142861 0.0090000005 0.67500001
-0.063642859 0.0096428581 0.67500001
-0.071640961 0.010971747 0.67766666
-0.067068405 0.013064244 0.6765455
-0.062632516 0.012838479 0.67613351
-0.05825793 0.013176193 0.67627281
-0.054804765 0.014185715 0.67700005
-0.048471432 0.011442858 0.67500001
-0.062209338 0.016425336 0.67900002
-0.057230003 0.016490001 0.67900002
-0.05496667 0.016813334 0.67900002
-0.076486669 -0.037104763 0.68350005
-0.072915487 -0.037109606 0.68358344
-0.067658015 -0.037082937 0.68308342
-0.062317707 -0.037002146 0.68158334
-0.057333719 -0.036710668 0.68100005
-0.052075475 -0.036453813 0.68350005
-0.075771436 -0.034323812 0.68000001
-0.07245715 -0.034391116 0.68133342
-0.067200646 -0.034357466 0.68066669
-0.063560955 -0.034374289 0.68099999
-0.056990478 -0.034323812 0.68000001
-0.051797587 -0.033253334 0.68218189
-0.048785716 -0.033824764 0.68300003
-0.087371431 0.0066403816 0.68360007
-0.082360364 0.008627262 0.68362504
-0.078332581 0.0089641912 0.68200004
-0.076992862 0.011929049 0.68316668
-0.07299532 0.013459636 0.6829232
-0.069499053 0.014289524 0.68200004
-0.071839683 0.017146034 0.68366671
-0.067568734 0.017542064 0.68216676
-0.062104229 0.018233743 0.68028569
-0.057479374 0.018367622 0.68066669
-0.067699999 0.020179525 0.68350005
-0.062238734 0.021036616 0.68311119
-0.057255723 0.021472227 0.68316674
-0.053026289 0.022409145 0.68400002
-0.052114289 0.025405716 0.68400002
-0.075461909 -0.041340001 0.68900001
-0.073202863 -0.041737463 0.68833339
-0.064962864 -0.040027622 0.68900001
-0.057744768 -0.040027622 0.68900001
-0.053151432 -0.040027622 0.68900001
-0.076440006 -0.039417781 0.68600005
-0.071892142 -0.039867859 0.68625003
-0.062096193 -0.039872702 0.68633336
-0.056268573 -0.038602859 0.68700004
-0.052440241 -0.038673099 0.68825006
-0.049071431 -0.037294287 0.68700004
-0.047693338 -0.033320002 0.68600005
-0.096022546 0.0067806356 0.68900001
-0.092845879 0.0063360324 0.6881668
-0.08746735 0.0088872118 0.68757159
-0.084280007 0.009800001 0.68600005
-0.086485915 0.012205143 0.68900007
-0.082460962 0.012435874 0.68716681
-0.078617781 0.013284447 0.68600005
-0.081148893 0.015529843 0.68900001
-0.077390738 0.017155049 0.68746686
-0.073391117 0.018511113 0.68600005
-0.076774299 0.020341907 0.68900001
-0.071561813 0.02202105 0.6881001
-0.067435242 0.022916509 0.68744451
-0.063039601 0.023628438 0.68642867
-0.057493336 0.024173334 0.68600005
-0.062527314 0.026016509 0.6886667
-0.05764794 0.026859846 0.68783349
-0.052356035 0.028142702 0.68716669
-0.051182859 0.030840954 0.68900001
-0.049214289 0.030840954 0.68900001
-0.071940005 -0.045540001 0.69300002
-0.066756204 -0.045605719 0.69400001
-0.062129527 -0.045605719 0.69400001
-0.057666197 -0.045804288 0.69200003
-0.071311854 -0.042937968 0.69057149
-0.067387246 -0.042333402 0.6923334
-0.062186416 -0.042999227 0.69263637
-0.057516385 -0.042645913 0.69100004
-0.052854907 -0.042211495 0.69250005
-0.048499625 -0.040835243 0.69380003
-0.048109051 -0.038555242 0.69200003
-0.098247312 0.0041755559 0.6923334
-0.096727245 0.0085794283 0.69280005
-0.092252925 0.0089985197 0.69133335
-0.096960001 0.012719286 0.69375002
-0.092313185 0.012528415 0.69233334
-0.088385724 0.012814287 0.69000006
-0.10112572 0.017184764 0.69400001
-0.097894393 0.016964445 0.69400007
-0.092249952 0.016884219 0.6932857
-0.087402575 0.017279636 0.6916154
-0.083079532 0.017318256 0.69050002
-0.090550482 0.020489525 0.69400001
-0.087214537 0.020482145 0.69375002
-0.082051918 0.020760953 0.69200003
-0.077558532 0.022699483 0.69172734
-0.073752962 0.023269907 0.69020003
-0.076938093 0.027093744 0.69385725
-0.072496548 0.027682623 0.69199997
-0.067258492 0.027773147 0.69100016
-0.062642455 0.028644901 0.6902858
-0.057828575 0.029571431 0.69000006
-0.071713336 0.031395242 0.69400001
-0.067210652 0.032254286 0.69372731
-0.062391151 0.032450389 0.6925
-0.057747632 0.032137234 0.69118184
-0.053108487 0.032753166 0.69154549
-0.04903556 0.033205718 0.69266671
-0.060807623 0.035691433 0.69400001
-0.05731402 0.0359747 0.69400001
-0.054198097 0.036352385 0.69400001
-0.037674289 0.044283811 0.69400001
-0.038555559 0.046046358 0.69400001
-0.07230334 -0.047761433 0.69650006
-0.067854613 -0.047521066 0.69622231
-0.062605038 -0.046883952 0.69614297
-0.057148814 -0.047513574 0.69774997
-0.052765444 -0.046325721 0.69628584
-0.048503812 -0.045846671 0.69766665
-0.050966669 -0.044347622 0.69500005
-0.047284767 -0.043069877 0.69572735
-0.044222482 -0.042363815 0.6972
-0.097867355 0.0174932 0.69500011
-0.093990482 0.01919524 0.69500005
-0.097390488 0.022160387 0.69660008
-0.092869923 0.022655681 0.69553339
-0.087537155 0.023211908 0.69633341
-0.082437336 0.023458479 0.69580013
-0.095725723 0.025925716 0.69800001
-0.092109531 0.026450098 0.69779998
-0.087978646 0.026669255 0.69757146
-0.082140818 0.027602039 0.6971429
-0.078017719 0.028743813 0.69540006
-0.080436192 0.031243812 0.69800001
-0.076891705 0.032331433 0.69685721
-0.07312341 0.032825448 0.69528586
-0.069500007 0.033757146 0.69500005
-0.071743339 0.035207145 0.69749999
-0.06767875 0.037157916 0.69668758
-0.062690794 0.037526667 0.69533348
-0.057884384 0.038545337 0.69540006
-0.052618541 0.037338246 0.69530773
-0.04821495 0.037297003 0.69646162
-0.043843336 0.039192859 0.69749999
-0.066836953 0.041059054 0.69760001
-0.06242381 0.042217832 0.69728577
-0.057372116 0.041252118 0.69700009
-0.052439626 0.041821528 0.69699997
-0.04776869 0.042461909 0.69662511
-0.042377625 0.042376433 0.69524997
-0.038215719 0.043073814 0.69583344
-0.051851429 0.045868576 0.69800001
-0.047276281 0.047276109 0.69736367
-0.042403754 0.047706246 0.69568747
-0.037470583 0.04821958 0.69566673
-0.070300005 -0.051555242 0.70300007
-0.067741431 -0.051351197 0.70249999
-0.06273637 -0.051419828 0.70281827
-0.057337683 -0.051091749 0.7027778
-0.051954675 -0.051286675 0.70300007
-0.0478581 -0.050807815 0.70380008
-0.062000006 -0.048666671 0.70000005
-0.056666672 -0.048666671 0.70000005
-0.051614292 -0.04841391 0.70020002
-0.04718123 -0.047753744 0.70057148
-0.043503813 -0.047522228 0.70277786
-0.042824384 -0.043358862 0.70040005
-0.10124191 0.022125715 0.70400006
-0.099830009 0.022780478 0.70350003
-0.098490007 0.027470954 0.70350003
-0.092889845 0.02828794 0.70166671
-0.087674864 0.028157908 0.70060003
-0.091184765 0.030841907 0.70400006
-0.087343544 0.032335784 0.70314294
-0.082792044 0.032207273 0.70054549
-0.078888893 0.03355556 0.70000005
-0.037546672 0.034194287 0.70400006
-0.08515048 0.035535239 0.70400006
-0.082052253 0.036670208 0.70371431
-0.077466175 0.037329022 0.70240009
-0.072873428 0.037772097 0.70069999
-0.046087623 0.03673397 0.7013334
-0.042731654 0.037279494 0.70192319
-0.03779953 0.03751123 0.70335728
-0.032783337 0.038803335 0.70250005
-0.076434292 0.040899049 0.70400006
-0.071640439 0.042424332 0.70300007
-0.06763538 0.043786127 0.70114291
-0.062666669 0.04466667 0.70000005
-0.05735429 0.044015959 0.70025003
-0.053555559 0.044222228 0.70000005
-0.038035557 0.040705405 0.70066667
-0.066094287 0.046065718 0.70100003
-0.062711433 0.046700478 0.70050001
-0.057240527 0.047287274 0.70109093
-0.05223937 0.04779302 0.70022225
-0.051753338 0.050637465 0.7026667
-0.047802482 0.051018476 0.70300001
-0.042721588 0.052381698 0.70211112
-0.037686992 0.052555349 0.70244449
-0.066754289 -0.060011432 0.708
-0.067140274 -0.05710407 0.706909
-0.062862724 -0.056894839 0.70757145
-0.057314288 -0.055965718 0.708
-0.052594293 -0.055965718 0.708
-0.047424763 -0.055965718 0.70800006
-0.042738099 -0.056489337 0.70780003
-0.039726671 -0.055886671 0.70700002
-0.070500001 -0.054385718 0.70500004
-0.066695243 -0.053938098 0.70500004
-0.062500641 -0.054437146 0.70566672
-0.058124222 -0.053898372 0.70614284
-0.052869849 -0.053989526 0.70566666
-0.047020741 -0.05360106 0.70644444
-0.042743135 -0.052254833 0.70599997
-0.039726671 -0.052520007 0.70700002
-0.040995877 -0.04771651 0.70566672
-0.039726671 -0.048480004 0.70700002
-0.040957145 -0.044314288 0.70500004
-0.10221049 0.023556875 0.70671427
-0.10232478 0.027600003 0.7068333
-0.097088583 0.028065715 0.70500004
-0.094671436 0.02887143 0.70500004
-0.10171763 0.031795148 0.70730013
-0.097563975 0.032298252 0.70649993
-0.093149528 0.032691434 0.70533335
-0.047065858 0.033204902 0.70742863
-0.042848255 0.033274926 0.70666665
-0.037782516 0.032514639 0.70727283
-0.032753021 0.033874288 0.70666671
-0.028280001 0.034340002 0.70700002
-0.095680475 0.036386192 0.70749998
-0.092270397 0.03728823 0.70718175
-0.08760199 0.037814163 0.70646656
-0.083122872 0.038808577 0.70500004
-0.079900004 0.03961429 0.70500004
-0.040957145 0.035585716 0.70500004
-0.035585716 0.035585716 0.70500004
-0.032397907 0.036701143 0.7058
-0.028504446 0.036135558 0.70700002
-0.091028579 0.041131433 0.708
-0.087700285 0.041684497 0.70757145
-0.082755558 0.042387731 0.70644444
-0.077937365 0.043126382 0.70500004
-0.073991433 0.043911431 0.70500004
-0.081550799 0.045155879 0.70766664
-0.077151433 0.046830002 0.70750004
-0.07200893 0.047445834 0.70662498
-0.06794858 0.048037339 0.70640004
-0.062620007 0.049153339 0.70700002
-0.059757147 0.049014289 0.70500004
-0.065590478 -0.060180955 0.71000004
-0.061933428 -0.061528862 0.71149999
-0.057343435 -0.061556574 0.71340007
-0.052663337 -0.060817622 0.71350002
-0.047582623 -0.060498815 0.71375
-0.042721909 -0.060801908 0.71200007
-0.061026674 -0.058050286 0.71040004
-0.057272706 -0.057877786 0.71122235
-0.052484494 -0.058091298 0.7104286
-0.047317255 -0.058000214 0.71088892
-0.043337144 -0.058911432 0.71100003
-0.10661048 0.023766669 0.71300006
-0.10480953 0.023666669 0.71000004
-0.11738787 0.028029764 0.71350014
-0.11318225 0.027847191 0.71318197
-0.10757101 0.027276104 0.71118188
-0.10480953 0.02501905 0.71000004
-0.050952386 0.027853336 0.71333337
-0.047330208 0.027445713 0.71285731
-0.04242548 0.027490079 0.71275014
-0.037829287 0.02832905 0.7125001
-0.033020001 0.028943429 0.71340007
-0.027592763 0.028679622 0.7136001
-0.12024763 0.031930797 0.71333337
-0.1173969 0.032421995 0.71327287
-0.1126225 0.032566313 0.7123751
-0.10759064 0.032479689 0.7105
-0.10390794 0.03335873 0.71000004
-0.050785717 0.030471431 0.71100003
-0.047449525 0.031020412 0.71028578
-0.042276431 0.030777384 0.71025002
-0.037641272 0.030428573 0.71000004
-0.032204386 0.031527814 0.71040004
-0.027922144 0.031644765 0.71075004
-0.11144239 0.036014766 0.71350002
-0.10739873 0.037308998 0.71222228
-0.10276684 0.037131 0.71118182
-0.097793244 0.037790954 0.71110004
-0.094056673 0.039247148 0.7105
-0.10230405 0.040445954 0.71375006
-0.09784165 0.042126939 0.71342874
-0.092734508 0.043015562 0.71188897
-0.087290481 0.043645244 0.7105
-0.055465717 -0.065052383 0.71900004
-0.056169849 -0.063901909 0.71633339
-0.052306481 -0.0629602 0.71700007
-0.048254922 -0.062595874 0.71700001
-0.043020003 -0.062140003 0.71700001
-0.11716827 0.023888892 0.7166667
-0.11214381 0.023248574 0.71800005
-0.10799887 0.023073906 0.71680003
-0.051766038 0.023031428 0.71833342
-0.047645826 0.023024023 0.7181111
-0.042478837 0.023024024 0.7181111
-0.037661906 0.023281908 0.71900004
-0.032868575 0.023966668 0.71900004
-0.029444763 0.023966668 0.71900004
-0.11796954 0.025230478 0.71600002
-0.11224153 0.025776003 0.71600002
-0.10978667 0.025230478 0.71600002
-0.05114286 0.025230478 0.71600002
-0.049097143 0.025230478 0.71600002
-0.041634291 0.025253972 0.7166667
-0.037284002 0.025812 0.71700001
-0.032578707 0.026496625 0.71672732
-0.027562542 0.026195345 0.71755558
-0.12069715 0.034777146 0.71600002
-0.11933334 0.034777146 0.71600002
-0.11693144 0.036241908 0.71800005
-0.11244643 0.037597861 0.71775007
-0.051642861 -0.070922866 0.72300005
-0.05577429 -0.068168573 0.72300005
-0.052159876 -0.067299686 0.72253346
-0.047630478 -0.067283988 0.72290915
-0.046628576 -0.063771434 0.72000003
-0.044571433 -0.063771434 0.72000003
-0.1123881 0.019495716 0.72250009
-0.10783029 0.019693146 0.72300005
-0.05577429 0.019968573 0.72300005
-0.052331433 0.019968573 0.72300005
-0.047773339 0.019412193 0.72280008
-0.041974287 0.019610478 0.72250009
-0.037169289 0.019961668 0.72275007
-0.033740003 0.019968573 0.72300005
-0.11588572 0.021942858 0.72000003
-0.11286858 0.021531431 0.72000003
-0.10765716 0.021257143 0.72000003
-0.052277863 0.021323573 0.72225004
-0.048000004 0.021257143 0.72000003
-0.042285718 0.021257143 0.72000003
-0.037714288 0.021257143 0.72000003
-0.032936193 0.021957619 0.72049999
-0.02769524 0.02270643 0.72250009
-0.024100002 0.024100002 0.72300005
-0.055928577 -0.071119055 0.72500002
-0.054547623 -0.071119055 0.72500002
-0.055928577 -0.069738097 0.72500002
-0.054547623 -0.069738097 0.72500002
-0.11150229 0.014024572 0.72900003
-0.10849017 0.014110479 0.72866672
-0.051978104 0.014553335 0.72766674
-0.047144286 0.014560001 0.72800004
-0.036797147 0.014580002 0.72900003
-0.032631435 0.014580002 0.72900003
-0.028465716 0.014580002 0.72900003
-0.11256738 0.016771907 0.72625005
-0.10780608 0.017102977 0.72562498
-0.055954289 0.017269209 0.72533339
-0.052500322 0.017269209 0.72533333
-0.046966776 0.016834499 0.72644448
-0.042734925 0.017323494 0.72766668
-0.037393574 0.017309127 0.72708338
-0.032511428 0.017292596 0.72633332
-0.027682539 0.017300323 0.72666669
-0.023903335 0.017668096 0.72750002
-0.043500002 0.020023812 0.72500002
-0.031761907 0.020023812 0.72500002
-0.02714259 0.021022044 0.72542864
-0.023698669 0.021204192 0.7276001
-0.11208668 0.0090504764 0.73100001
-0.1118082 0.011278287 0.73100001
-0.10729916 0.012781694 0.73211116
-0.045252383 0.01253143 0.73100001
-0.042362668 0.012958287 0.73159999
-0.037810333 0.012065131 0.73207694
-0.032771569 0.012250749 0.73214287
-0.027656617 0.012781906 0.73211116
-0.024411112 0.013249842 0.73233336
-0.028856192 0.0049266671 0.73900002
-0.11012429 0.0084166676 0.73650002
-0.10743225 0.0081239464 0.73728579
-0.10486762 0.0084457146 0.73900002
-0.041805174 0.0085208174 0.73685718
-0.037200004 0.0084222239 0.73700011
-0.032323971 0.0077284137 0.73783344
-0.02739122 0.0077247629 0.73744446
-0.023481335 0.008295048 0.73820007
-0.10693119 0.010868334 0.73625004
-0.10472572 0.011244763 0.73800004
-0.04345905 0.010514286 0.73600006
-0.03201016 0.010514287 0.73600006
-0.027337145 0.010514287 0.73600006
-0.024533335 0.010514286 0.73600006
-0.1060823 0.0032460955 0.74160004
-0.10402001 0.0014152383 0.74300003
-0.041691434 0.0049466672 0.74200004
-0.037486989 0.003535873 0.74266672
-0.032965083 0.0044726986 0.74166673
-0.10641906 0.0063428576 0.74000001
-0.040876195 0.0063428576 0.74000001
-0.037384763 0.0063485722 0.74066675
-0.050579052 -0.080499053 0.74800003
-0.047687627 -0.080427311 0.74733341
-0.043280955 -0.080176197 0.74500006
-0.051596738 -0.077446006 0.74800009
-0.047680322 -0.077569 0.7472223
-0.042637624 -0.077458575 0.74616671
-0.037756197 -0.076937154 0.74800009
-0.03490667 -0.076224767 0.74800003
-0.051647622 -0.074443817 0.74800003
-0.04749864 -0.073739462 0.74757159
-0.042679287 -0.072553225 0.74687499
-0.037710242 -0.072572939 0.74708343
-0.033461213 -0.072165109 0.74754554
-0.042267941 -0.068626031 0.74800009
-0.037756193 -0.067676194 0.74800009
-0.032769524 -0.067676194 0.74800009
-0.032057144 -0.064826667 0.74800003
-0.026358098 -0.058415242 0.74800003
-0.10571905 -0.00070952385 0.74500006
-0.10430001 -0.00070952385 0.74500006
-0.041294288 0.0024123811 0.74500006
-0.055000003 -0.080714293 0.75000006
-0.052857146 -0.080714293 0.75000006
-0.055330861 -0.077061154 0.75060004
-0.053571433 -0.078571439 0.75000006
-0.029285716 -0.070714287 0.75000006
-0.04261905 -0.06666667 0.75000012
-0.037142862 -0.065000005 0.75000006
-0.032142859 -0.065000005 0.75000006
-0.029311746 -0.066486359 0.75066674
-0.037200324 -0.062237933 0.7511667
-0.032152805 -0.06216085 0.75022227
-0.028630001 -0.061910003 0.75150007
-0.035140004 -0.05952286 0.75300002
-0.031843815 -0.058259867 0.75257152
-0.028768195 -0.058249719 0.75140005
-0.057600006 -0.081360005 0.75600004
-0.061280958 -0.076421909 0.75700003
-0.058305342 -0.077596195 0.75580007
-0.061200004 -0.074160002 0.75600004
-0.037076589 -0.057352941 0.75591677
-0.032932382 -0.056229528 0.75500005
-0.036752384 -0.052605081 0.75666666
-0.032590713 -0.052756913 0.75625002
-0.061040003 -0.080660008 0.76300001
-0.061523814 -0.078895241 0.76000005
