# .PCD v0.7 - Point Cloud Data file format
VERSION 0.7
FIELDS x y z
SIZE 4 4 4
TYPE F F F
COUNT 1 1 1
WIDTH 535
HEIGHT 1
VIEWPOINT 0 0 0 1 0 0 0
POINTS 535
DATA ascii
-0.061897289 -0.0075487085 0.65271437
-0.057126381 -0.0076015401 0.65253848
-0.052170902 -0.0067027519 0.65300006
-0.049130481 -0.0068409527 0.65300006
-0.055842385 -0.0043433337 0.65149999
-0.05402286 -0.0043466669 0.65200001
-0.067471117 -0.015666667 0.65800011
-0.062666669 -0.015666667 0.65800005
-0.058280002 -0.015666667 0.65800011
-0.070813335 -0.014413334 0.65800005
-0.06705334 -0.012846667 0.65800005
-0.062572144 -0.012515595 0.65700006
-0.057553217 -0.012513332 0.65687501
-0.053383719 -0.012155714 0.65790004
-0.062404051 -0.0093607148 0.65525007
-0.055688575 -0.0093857152 0.65700001
-0.052922543 -0.0089603188 0.65633333
-0.065668575 -0.020837145 0.66300005
-0.063142858 -0.020837145 0.66300005
-0.051145718 -0.020837145 0.66300005
-0.071243815 -0.019544763 0.66200006
-0.068021469 -0.018059561 0.66084617
-0.062888891 -0.018238412 0.66033334
-0.057703525 -0.018041981 0.66023082
-0.052844469 -0.017615536 0.66056246
-0.047888454 -0.017643573 0.66162509
-0.044448569 -0.017338095 0.66200006
-0.071028575 -0.011942858 0.66000003
-0.068552978 -0.012263691 0.660375
-0.051581435 -0.01321 0.66050005
-0.047896311 -0.012604287 0.66175008
-0.042994548 -0.012456365 0.66300011
-0.039780002 -0.010734286 0.66300005
-0.071539424 -0.00794781 0.66240007
-0.068374194 -0.0081993341 0.66230011
-0.048595242 -0.0088352393 0.66266674
-0.041674286 -0.0094714295 0.66300005
-0.068825722 -0.0044200001 0.66300005
-0.06180286 -0.026122859 0.66900003
-0.056650482 -0.026096826 0.66833341
-0.053520001 -0.026122859 0.66900003
-0.071850397 -0.022719484 0.66763639
-0.067509606 -0.023140343 0.66692865
-0.062071972 -0.023143541 0.667
-0.057155661 -0.022864705 0.66681248
-0.052110419 -0.022988889 0.66673338
-0.047050949 -0.022892026 0.66762501
-0.072833337 -0.019633334 0.66500002
-0.044966668 -0.011400001 0.66500002
-0.075979054 -0.0065606358 0.66666669
-0.07276246 -0.0064329263 0.66600001
-0.046443097 -0.0074492861 0.66575003
-0.042947728 -0.0078260321 0.66644448
-0.076029532 -0.0021636193 0.66860008
-0.072411731 -0.002539583 0.66693753
-0.069137156 -0.0019015875 0.66600007
-0.04651143 -0.0038228575 0.66900003
-0.072300285 0.0011827212 0.6684286
-0.069240957 0.00063523813 0.66700006
-0.067400001 -0.030169526 0.67400002
-0.064832382 -0.030169526 0.67400002
-0.05199429 -0.030169528 0.67400002
-0.048048895 -0.030109843 0.67266673
-0.072428264 -0.027562438 0.67300004
-0.067831829 -0.027519129 0.67191672
-0.062701561 -0.027604245 0.67118186
-0.057708256 -0.027896825 0.67077786
-0.051965293 -0.02765524 0.67177778
-0.048364904 -0.02770395 0.67200011
-0.072320007 -0.024960002 0.67200005
-0.045372386 -0.0057514291 0.671
-0.042816192 -0.0057514291 0.671
-0.07848572 -0.00063809525 0.67000002
-0.045372382 -0.0038352383 0.671
-0.042628355 -0.0024090116 0.6711539
-0.039040003 -0.00064000004 0.67200005
-0.075933337 0.00063809525 0.67000002
-0.071431443 0.0040517463 0.67166674
-0.06996762 0.0044933334 0.67400002
-0.042300954 0.00064095244 0.67299998
-0.067037784 -0.035997786 0.67900008
-0.048500001 -0.035566669 0.67900002
-0.07608743 -0.031391431 0.67820007
-0.072160721 -0.032217022 0.67650002
-0.06739334 -0.032615501 0.67627287
-0.062509418 -0.031292696 0.67666668
-0.057811432 -0.030889798 0.67771429
-0.053375334 -0.032310188 0.6785
-0.048276722 -0.033071008 0.67788887
-0.075214289 -0.028285716 0.67500001
-0.054723814 -0.02897143 0.67600006
-0.037244923 -0.0066738105 0.67816675
-0.03672234 -0.0024085718 0.67863637
-0.047711432 0.0045133336 0.67700005
-0.043017339 0.0034881909 0.67820007
-0.03750667 0.0012933334 0.67900002
-0.075660005 0.0077600004 0.67900002
-0.072400242 0.0084040482 0.67874998
-0.067059308 0.0084047634 0.67881817
-0.062468003 0.0086653335 0.67900002
-0.052311856 0.0071050809 0.67811114
-0.047844168 0.0064655952 0.67887497
-0.044620004 0.0058200005 0.67900002
-0.072017908 0.011248763 0.67880005
-0.067253336 0.010993334 0.67900002
-0.072668344 -0.035684526 0.68125004
-0.067701153 -0.03651562 0.68220001
-0.062365599 -0.036380596 0.68212503
-0.057462048 -0.03629633 0.68228573
-0.051679432 -0.036057334 0.68340009
-0.048785716 -0.03772762 0.68300003
-0.075771436 -0.034323812 0.68000001
-0.065409526 -0.034323812 0.68000001
-0.062157013 -0.033811975 0.68085724
-0.057752386 -0.033742227 0.68133342
-0.052584451 -0.03440794 0.68166673
-0.037022859 -0.00844381 0.68200004
-0.033414286 -0.0063708574 0.68260002
-0.032739051 -0.0024115646 0.6817143
-0.029250003 -0.0013004763 0.6825
-0.041123811 0.0035619051 0.68000001
-0.037173338 0.0033676194 0.67999995
-0.032482021 0.0025983336 0.68212503
-0.029239289 0.0025988098 0.68225002
-0.080777153 0.009771429 0.68400002
-0.077295244 0.0097428579 0.68200004
-0.069295242 0.008419048 0.68000001
-0.062171429 0.0090666674 0.68000001
-0.056643497 0.009296827 0.68099999
-0.05152439 0.0094744768 0.68140006
-0.047415238 0.0090933349 0.6820001
-0.042743307 0.0079269223 0.68206662
-0.038308319 0.0073794811 0.68172735
-0.033157464 0.005851429 0.68266672
-0.08039286 0.012042382 0.68350005
-0.077350803 0.013000637 0.68250006
-0.072874203 0.013750737 0.6815455
-0.067690566 0.013668971 0.68341672
-0.062407546 0.012353254 0.68258333
-0.057255886 0.012363016 0.68316668
-0.051917788 0.012883239 0.68313342
-0.047513574 0.013018652 0.68341672
-0.043229718 0.012110095 0.68360007
-0.039264765 0.011497779 0.6833334
-0.077463336 0.01692524 0.68350005
-0.073158905 0.016716033 0.68383336
-0.068400003 0.016285716 0.68400002
-0.046902858 0.016285716 0.68400002
-0.075461909 -0.040027622 0.68900001
-0.073493332 -0.040027622 0.68900001
-0.062338099 -0.040027622 0.68900001
-0.057351053 -0.040552575 0.68900007
-0.052495241 -0.04068381 0.68900001
-0.049214289 -0.041340001 0.68900001
-0.076511815 -0.03819029 0.68900007
-0.072297148 -0.038066942 0.68742865
-0.067520961 -0.038677782 0.68833339
-0.062654927 -0.039076515 0.68766677
-0.057113655 -0.038584448 0.68666673
-0.052227937 -0.038426884 0.68644452
-0.082537785 0.011977779 0.68600005
-0.041278098 0.01376 0.68800008
-0.077093333 0.018946668 0.68600005
-0.071817279 0.018398235 0.68642861
-0.067730606 0.017506547 0.68712497
-0.062834404 0.017020002 0.68725002
-0.057650834 0.017035598 0.68787503
-0.052564628 0.017489746 0.68792319
-0.046960175 0.01767879 0.6874547
-0.042262144 0.016054763 0.68800008
-0.039076515 0.015500637 0.68766677
-0.080711432 0.020341907 0.68900001
-0.077353746 0.022289939 0.68831259
-0.07288155 0.021456549 0.68787503
-0.068243816 0.020341907 0.68900001
-0.06102572 0.020341907 0.68900001
-0.059713338 0.020341907 0.68900001
-0.050526671 0.020341907 0.68900001
-0.04790191 0.020341907 0.68900001
-0.03871524 0.020998098 0.68900001
-0.077220008 -0.045540001 0.69300002
-0.072159059 -0.04598064 0.69300002
-0.068739057 -0.045605719 0.69400001
-0.064112388 -0.045605719 0.69400001
-0.057188768 -0.046095055 0.69340008
-0.052644342 -0.046346564 0.69188893
-0.077680483 -0.042415313 0.69121432
-0.07215742 -0.042374976 0.69057155
-0.067233697 -0.042189054 0.69212502
-0.062489048 -0.042541191 0.69250011
-0.057706669 -0.042910244 0.69050002
-0.052850105 -0.042989723 0.69020003
-0.066371433 0.019057143 0.69000006
-0.041963268 0.01849388 0.69000012
-0.038771432 0.018400002 0.69000006
-0.080828577 0.024314288 0.69000006
-0.071592622 0.023207385 0.69125003
-0.067048989 0.022697279 0.69214284
-0.062476914 0.022731353 0.69174999
-0.057659261 0.022389049 0.6913572
-0.052764323 0.022501463 0.69080007
-0.047188792 0.022811212 0.69038469
-0.042152919 0.022396015 0.69156253
-0.038462542 0.02395778 0.6923334
-0.085221909 0.027086668 0.6936667
-0.082474604 0.027052592 0.69277781
-0.077665403 0.027561909 0.69226676
-0.073212795 0.026478369 0.69257146
-0.067417145 0.025777144 0.69400001
-0.061674453 0.026211588 0.69383335
-0.057490755 0.026716057 0.69385725
-0.052630797 0.026646031 0.6936667
-0.047770675 0.026790095 0.69280005
-0.042270478 0.026419522 0.69349998
-0.037906099 0.02628362 0.69340008
-0.080205716 -0.046400957 0.69600004
-0.076536 -0.047355812 0.69640011
-0.072660714 -0.048109766 0.69675004
-0.067405343 -0.047370486 0.69660008
-0.062192392 -0.047234464 0.69672734
-0.058082383 -0.048127145 0.69700003
-0.053614289 -0.048980955 0.69500005
-0.061557144 -0.044347625 0.69500005
-0.090680957 0.029123813 0.69500005
-0.087276869 0.029029256 0.69500011
-0.082076192 0.029785717 0.69500005
-0.072294712 0.02875609 0.69500011
-0.067562394 0.028483335 0.69550008
-0.062538102 0.028752385 0.69560009
-0.057585724 0.029256193 0.69500011
-0.05323606 0.029218372 0.69500011
-0.047260325 0.029373018 0.69566673
-0.042741228 0.029095786 0.69657153
-0.039220955 0.028584763 0.69800001
-0.091072388 0.033238098 0.69800001
-0.087560169 0.032504763 0.69650006
-0.082193971 0.032480955 0.6960001
-0.07748042 0.032217357 0.69666672
-0.072049797 0.032370619 0.69771439
-0.068016201 0.03212519 0.69788885
-0.063123494 0.031672068 0.69766665
-0.05706691 0.031851672 0.69675004
-0.052478574 0.031886198 0.69749999
-0.048282545 0.031672068 0.69766676
-0.043209527 0.031243812 0.69800001
-0.08774858 0.035232384 0.69800001
-0.082899049 0.036050718 0.69775003
-0.079106674 0.035232384 0.69800001
-0.081798099 -0.050285719 0.70400006
-0.077397719 -0.051286668 0.70300007
-0.072444692 -0.05140017 0.70254558
-0.067388855 -0.051332798 0.70257151
-0.062646933 -0.051346499 0.70181829
-0.057979818 -0.051420387 0.70300001
-0.054308575 -0.050285719 0.70400006
-0.081509054 -0.048770957 0.70150006
-0.078000009 -0.048666671 0.70000005
-0.036719054 0.028707622 0.70100009
-0.10649493 0.033126034 0.70033336
-0.10270262 0.034012146 0.70025003
-0.097295441 0.033858478 0.70260006
-0.093047358 0.032350209 0.70142865
-0.075777784 0.03355556 0.70000005
-0.074000008 0.033333335 0.70000005
-0.067333341 0.034000002 0.70000005
-0.062444448 0.032962967 0.70000005
-0.057333335 0.034000002 0.70000005
-0.052000005 0.034000002 0.70000005
-0.04706667 0.033466671 0.70000005
-0.042458966 0.032567225 0.70025003
-0.037405599 0.032063212 0.70137513
-0.03300881 0.033009052 0.70375001
-0.10721213 0.037515149 0.69999999
-0.10267566 0.037336495 0.70006239
-0.097507499 0.03739905 0.70125008
-0.09240865 0.037574492 0.70092863
-0.087612681 0.037872285 0.70009995
-0.082166672 0.038500004 0.70000005
-0.077251121 0.037492257 0.70046669
-0.07206405 0.037367504 0.70062512
-0.067381434 0.037360478 0.70050013
-0.062739469 0.037377086 0.70081264
-0.057435244 0.037400711 0.70125014
-0.052111428 0.037414767 0.70150012
-0.047400959 0.037386671 0.70100015
-0.04276441 0.037420839 0.70162511
-0.037512742 0.037513573 0.7033751
-0.032243811 0.037120011 0.70400006
-0.10667406 0.041969046 0.70225006
-0.10236676 0.042441353 0.70175004
-0.09781111 0.042508505 0.70207155
-0.092252634 0.04211643 0.70191681
-0.087499693 0.042081907 0.70133334
-0.082619883 0.042578354 0.70073348
-0.077559702 0.042793266 0.70206261
-0.072211973 0.042794459 0.70206261
-0.067698486 0.042413529 0.70240009
-0.062700748 0.041728042 0.70288891
-0.057761528 0.041144002 0.70360005
-0.052297149 0.040899049 0.70400006
-0.047536194 0.040840954 0.70300001
-0.042864524 0.040855478 0.70325005
-0.038217146 0.040899049 0.70400006
-0.030128574 0.042180002 0.70300001
-0.081012383 0.046197146 0.70300001
-0.077718571 0.046230003 0.70350003
-0.074422859 0.04626286 0.70400006
-0.076945722 -0.061637145 0.70500004
-0.073882446 -0.061167359 0.70800006
-0.058662862 -0.062034294 0.708
-0.080769397 -0.057664357 0.70757145
-0.077478647 -0.057940558 0.70741665
-0.073462121 -0.057287734 0.7076667
-0.068102866 -0.055965718 0.708
-0.057314292 -0.055965718 0.70800006
-0.081825174 -0.053365581 0.70671439
-0.078063816 -0.053879436 0.70540005
-0.072212197 -0.05419429 0.70600003
-0.067348443 -0.053706538 0.70614284
-0.062649533 -0.05456572 0.70733333
-0.057180636 -0.053817149 0.70633334
-0.053985532 -0.052909721 0.70680004
-0.10122834 0.032621194 0.70625007
-0.097574167 0.031625856 0.70657146
-0.094671436 0.030885717 0.70500004
-0.031594969 0.031594969 0.70585716
-0.027922859 0.033979051 0.70649999
-0.022508575 0.03409943 0.70760006
-0.019526668 0.034340002 0.70700002
-0.032094289 0.038540002 0.70500004
-0.027586192 0.037679523 0.70649999
-0.022885002 0.03769286 0.70674992
-0.019508256 0.038345084 0.70633334
-0.10608572 0.044985719 0.70500004
-0.10407144 0.044985719 0.70500004
-0.097357146 0.044985719 0.70500004
-0.092880957 0.044985723 0.7050001
-0.08728572 0.044985719 0.70500004
-0.065128572 0.04364286 0.70500004
-0.062442861 0.04409048 0.7050001
-0.057762623 0.043322623 0.70525002
-0.052416552 0.043010123 0.70562506
-0.047428384 0.042592574 0.70540005
-0.041073337 0.042420004 0.70700002
-0.037447304 0.041932385 0.70633334
-0.032952279 0.042367943 0.70611107
-0.027606668 0.042420007 0.70700002
-0.023849716 0.041636005 0.70740002
-0.097614884 0.047125362 0.70687503
-0.08759477 0.046942383 0.70749998
-0.077519529 0.047925241 0.70625001
-0.072945081 0.047358733 0.70700002
-0.066830374 0.046923492 0.70722222
-0.062529616 0.047464162 0.70736367
-0.058422025 0.046300124 0.70712507
-0.05386667 0.045113336 0.70700002
-0.07142508 -0.062160324 0.71200007
-0.068308741 -0.060845878 0.71250004
-0.062063973 -0.06093064 0.71350002
-0.057331428 -0.061168574 0.71100008
-0.054848574 -0.06026572 0.71100003
-0.083661914 -0.056600958 0.71033335
-0.071000002 -0.057476193 0.71000004
-0.067549437 -0.057804294 0.71070004
-0.062348496 -0.057606116 0.71158338
-0.057516672 -0.05819381 0.7105
-0.054771431 -0.058828574 0.71000004
-0.084523812 -0.05341905 0.71000004
-0.093160003 0.019040002 0.71400005
-0.096288584 0.023335557 0.7136668
-0.094299376 0.02238635 0.71233338
-0.10687429 0.028160002 0.71250004
-0.10272173 0.027951812 0.71239996
-0.097586855 0.027104469 0.71156257
-0.094078742 0.026846353 0.71066666
-0.030578572 0.028539525 0.71350002
-0.027086668 0.028639592 0.71357149
-0.023082701 0.027833492 0.7128334
-0.10698858 0.030471431 0.71100003
-0.10285382 0.030900797 0.7105
-0.099400006 0.030428573 0.71000004
-0.026243454 0.031998929 0.71112502
-0.02313905 0.032068957 0.71040004
-0.046657145 0.043952387 0.71000004
-0.042968005 0.043509718 0.71160001
-0.037918575 0.04401429 0.71100003
-0.066949211 -0.063080326 0.71733332
-0.063045718 -0.063048385 0.71800011
-0.092442863 0.014380001 0.71900004
-0.097045533 0.019025337 0.71860003
-0.094266906 0.017759288 0.71725005
-0.10677366 0.022586033 0.71866673
-0.10248882 0.022546269 0.7174167
-0.098035716 0.022063335 0.71650004
-0.036292382 0.023281906 0.71900004
-0.032183811 0.023281906 0.71900004
-0.027786478 0.023679432 0.71860009
-0.022224288 0.023590954 0.71800005
-0.10641453 0.025921192 0.71625006
-0.10296762 0.025230478 0.71600002
-0.036292382 0.026705718 0.71900004
-0.032807622 0.027339367 0.71766675
-0.027407939 0.026192704 0.71744448
-0.022524446 0.025253972 0.7166667
-0.027958097 0.030685715 0.71600002
-0.064037144 -0.070922859 0.72300005
-0.065414287 -0.065414287 0.72300005
-0.063486293 -0.068168573 0.72300005
-0.093942866 0.014400001 0.72000003
-0.10696121 0.019259764 0.72225004
-0.10233858 0.019230638 0.72116679
-0.097965717 0.017395241 0.72100008
-0.03718286 0.019968573 0.72300005
-0.036910858 0.022091812 0.72040004
-0.033325717 0.022080002 0.72000003
-0.027216192 0.021909256 0.72214299
-0.022941336 0.021841908 0.72120011
-0.034971431 0.026057145 0.72000003
-0.066285715 -0.071119055 0.72500002
-0.071347944 -0.067190483 0.72733343
-0.067643009 -0.067535907 0.7253077
-0.062833339 -0.066630952 0.72500002
-0.096158586 0.0079842862 0.72900003
-0.09498667 0.0076266672 0.72800004
-0.10241674 0.013979185 0.72871435
-0.097452492 0.013017991 0.72800004
-0.094856195 0.011768572 0.72700012
-0.027077144 0.014580002 0.72900003
-0.024300002 0.013885716 0.72900003
-0.10749191 0.017568097 0.72816676
-0.10260805 0.016491568 0.72585714
-0.098251909 0.015913811 0.72650003
-0.036673762 0.017296616 0.72655559
-0.032551009 0.017312912 0.72722226
-0.027698969 0.017310083 0.72708338
-0.02366019 0.017571051 0.72640008
-0.10702381 0.020023812 0.72500002
-0.035214286 0.020023812 0.72500002
-0.032452386 0.020023812 0.72500008
-0.027619049 0.020023812 0.72500002
-0.022785716 0.020023812 0.72500008
-0.071011432 -0.071011432 0.73100001
-0.068922862 -0.071011432 0.73100001
-0.07354857 -0.067274287 0.73200005
-0.10192287 0.0090752384 0.73300004
-0.098854862 0.0079462854 0.73200005
-0.11184763 0.013281906 0.73400009
-0.10750748 0.012913493 0.73300004
-0.10248096 0.011153651 0.73200005
-0.099091128 0.010906985 0.73100007
-0.037155449 0.013573441 0.73300004
-0.032625291 0.013249842 0.73233342
-0.027987726 0.012635768 0.73266679
-0.11139049 0.016012382 0.73100001
-0.10860572 0.016012382 0.73100001
-0.10149524 0.0045657149 0.73750001
-0.098901436 0.0042080954 0.73650002
-0.11253592 0.0085321097 0.73785716
-0.10734318 0.0084187314 0.7366668
-0.10293499 0.0071892859 0.73650002
-0.037218418 0.0084263496 0.73733342
-0.032088049 0.0081964033 0.73777783
-0.028224383 0.0080026677 0.73720002
-0.11145144 0.010514287 0.73600006
-0.10794668 0.010514286 0.73600006
-0.037991624 0.011355429 0.73600006
-0.032112192 0.010797525 0.73620003
-0.026636193 0.010514286 0.73600006
-0.024533335 0.010514286 0.73600006
-0.11180381 -0.00070761907 0.74300003
-0.10721375 -0.0013136056 0.74271435
-0.10260478 -0.0014152383 0.74300003
-0.11518668 0.0042400002 0.74200004
-0.11218295 0.003111905 0.74270004
-0.10739619 0.0028253575 0.74187499
-0.10252298 0.0019401193 0.74112505
-0.11518668 0.0063600005 0.74200004
-0.1122843 0.0067080958 0.74150002
-0.10802414 0.0063542863 0.74133337
-0.076224767 -0.076224767 0.74800003
-0.07408762 -0.076224767 0.74800003
-0.077501304 -0.072451264 0.74781829
-0.073308572 -0.074023187 0.74733341
-0.080499053 -0.067676194 0.74800003
-0.077748008 -0.068365529 0.74620003
-0.076017149 -0.085340008 0.75300002
-0.072125718 -0.085891061 0.75280005
-0.082435563 -0.081001282 0.75266671
-0.076696083 -0.082072496 0.75262499
-0.072419167 -0.082457982 0.75287497
-0.068845719 -0.081037149 0.75300002
-0.062391434 -0.081037149 0.75300002
-0.082317546 -0.077306911 0.75158334
-0.077654034 -0.077914819 0.7505455
-0.07201191 -0.078088582 0.75050002
-0.067795716 -0.078260683 0.75250006
-0.061817717 -0.077308007 0.75300002
-0.05952286 -0.07673429 0.75300002
-0.082314916 -0.072292291 0.75155568
-0.061674289 -0.073865719 0.75300002
-0.082786202 -0.068469055 0.75150001
-0.078136519 -0.086525403 0.75500005
-0.074061908 -0.087004766 0.75500005
-0.069747627 -0.08556667 0.75500005
-0.09139315 -0.080708966 0.75800002
-0.087121427 -0.081719533 0.75600004
-0.079095244 -0.083409525 0.75500005
-0.072623812 -0.082690485 0.75500005
-0.068069845 -0.082690477 0.75500005
-0.063995242 -0.081252389 0.75500005
-0.090815626 -0.07695505 0.75800002
-0.087120645 -0.077760488 0.75600004
-0.066296197 -0.076362871 0.75500005
-0.062968038 -0.077759877 0.75500005
-0.059680957 -0.075500004 0.75500005
-0.095760003 -0.071280003 0.75600004
-0.092607901 -0.072419062 0.75714284
-0.087581314 -0.072536625 0.7554546
-0.062269527 -0.072336189 0.75500005
-0.057924289 -0.072189808 0.75650007
-0.053928576 -0.071185715 0.75500005
-0.095844448 -0.06846033 0.75666666
-0.092859685 -0.067665249 0.75583351
-0.087768093 -0.067624167 0.75537503
-0.061200004 -0.069840007 0.75600004
-0.057533339 -0.067632861 0.75749999
-0.054047626 -0.068459056 0.75666666
-0.092709392 -0.06307511 0.75628579
-0.088981748 -0.063077942 0.75550008
-0.093371436 -0.082514293 0.76000005
-0.092647627 -0.078895241 0.76000005
-0.093371436 -0.074552387 0.76000011
-0.057904765 -0.070209526 0.76000005
-0.060800005 -0.068761908 0.76000005
-0.058628574 -0.068761908 0.76000005
