# .PCD v0.7 - Point Cloud Data file format
VERSION 0.7
FIELDS x y z
SIZE 4 4 4
TYPE F F F
COUNT 1 1 1
WIDTH 588
HEIGHT 1
VIEWPOINT 0 0 0 1 0 0 0
POINTS 588
DATA ascii
-0.10640287 -0.021025715 0.66900003
-0.09620858 -0.021025715 0.66900003
-0.092317618 -0.021328574 0.66850007
-0.087859049 -0.021647146 0.66850013
-0.082797863 -0.021655001 0.66875005
-0.077731431 -0.021662859 0.66900009
-0.074545719 -0.021662857 0.66900003
-0.11178108 -0.017782979 0.666875
-0.10771754 -0.017885046 0.66647059
-0.10260918 -0.017791787 0.66712499
-0.097651064 -0.017651305 0.66666669
-0.092475533 -0.017735181 0.66506249
-0.087440543 -0.017741844 0.66531253
-0.082565129 -0.017783334 0.66687495
-0.077686794 -0.017829644 0.668625
-0.11133239 -0.01399524 0.66800004
-0.10751526 -0.013027462 0.66733336
-0.10266695 -0.012584819 0.66664696
-0.097660393 -0.012825461 0.66673338
-0.09258917 -0.012682144 0.66587508
-0.087489821 -0.012678988 0.6656875
-0.082789667 -0.01284362 0.66766667
-0.079005718 -0.014017144 0.66900003
-0.10608477 -0.0095285717 0.66700006
-0.10290086 -0.0088401064 0.66833335
-0.097338632 -0.0082711121 0.66800004
-0.092493556 -0.0078890482 0.66649991
-0.088184446 -0.0085429633 0.6672222
-0.084102862 -0.0095571438 0.66900003
-0.092385717 -0.0044600004 0.66900003
-0.1065562 -0.025676193 0.67400002
-0.10227685 -0.025462225 0.67400002
-0.097782105 -0.026014481 0.6728
-0.092711248 -0.026030099 0.67320007
-0.087383807 -0.026920319 0.67300004
-0.082314618 -0.026823178 0.67233342
-0.076959439 -0.027321717 0.67339993
-0.072535247 -0.027031327 0.67400002
-0.068683811 -0.026318099 0.67400002
-0.10544287 -0.023006668 0.671
-0.10223468 -0.022365002 0.67091674
-0.097261839 -0.023172898 0.67153847
-0.092375338 -0.023542194 0.6717
-0.087571278 -0.024290003 0.67116666
-0.082998693 -0.024261549 0.67037505
-0.077905715 -0.024266193 0.67050004
-0.072863035 -0.022774028 0.67272729
-0.068683811 -0.022466671 0.67400002
-0.073216058 -0.018099185 0.67185712
-0.068683818 -0.019899052 0.67400002
-0.11039048 -0.01212381 0.67000002
-0.081038103 -0.01084762 0.67000002
-0.077003688 -0.012315684 0.67120004
-0.073781908 -0.0134727 0.67366672
-0.10081906 -0.0076571433 0.67000002
-0.09010572 -0.0057514291 0.671
-0.086856201 -0.0064834016 0.67128581
-0.082375631 -0.0073711756 0.67120004
-0.077509053 -0.0080063092 0.67262495
-0.090947472 -0.0032011117 0.67250001
-0.087201439 -0.0025630954 0.6732499
-0.082133107 -0.0025659525 0.67374986
-0.077787198 -0.0027426842 0.67399997
-0.086942442 0.0016404234 0.67400002
-0.081955567 0.0024363177 0.67333329
-0.077195257 0.002841769 0.67385709
-0.073305525 0.0034662858 0.67400002
-0.082042873 0.0076914295 0.67299998
-0.077841744 0.007712102 0.67158824
-0.074179873 0.0075921095 0.6722858
-0.077423699 0.011357978 0.671875
-0.074880004 0.01216 0.67200005
-0.10152667 -0.035566669 0.67900002
-0.096353337 -0.036860004 0.67900008
-0.093766674 -0.035566669 0.67900002
-0.10557716 -0.030749207 0.67733335
-0.10193485 -0.031935953 0.67741674
-0.097479418 -0.032031942 0.67784619
-0.092841201 -0.031737536 0.67775005
-0.087763265 -0.031622618 0.6775834
-0.082214668 -0.031494286 0.67760003
-0.077390313 -0.031603333 0.6771667
-0.072257072 -0.03161484 0.67741674
-0.067365885 -0.031540431 0.67836362
-0.062159736 -0.030941226 0.67885715
-0.057208337 -0.030705478 0.67875004
-0.05496667 -0.030393336 0.67900002
-0.10660477 -0.028527942 0.67566675
-0.10319097 -0.027921051 0.67550009
-0.097803928 -0.028312504 0.67562503
-0.092657514 -0.028312266 0.67562503
-0.087583236 -0.028680002 0.67519999
-0.082285725 -0.028928574 0.67500001
-0.077142864 -0.028928574 0.67500001
-0.072000004 -0.027321432 0.67500001
-0.066134013 -0.027406001 0.67550009
-0.061918814 -0.027090717 0.67725003
-0.057482541 -0.027126193 0.67816675
-0.054939687 -0.027793018 0.67866677
-0.065941438 -0.022194287 0.67550004
-0.062283389 -0.022074921 0.67733353
-0.058415562 -0.02241778 0.67900002
-0.070606485 -0.017104764 0.67520005
-0.066847965 -0.017770682 0.67678577
-0.062726676 -0.017460002 0.67899996
-0.071421482 -0.012712901 0.67672735
-0.067315243 -0.012963366 0.67833346
-0.063050009 -0.01455 0.67900002
-0.075214289 -0.0064285719 0.67500001
-0.07285472 -0.0085270898 0.67700005
-0.069193341 -0.0097000003 0.67900002
-0.092319049 -0.00096523814 0.67550004
-0.075471431 -0.0021857147 0.67500001
-0.073965088 -0.0027879369 0.67533338
-0.092100017 0.0021948575 0.67720002
-0.087906674 0.0037662587 0.67514294
-0.084214292 0.0045000003 0.67500001
-0.075857148 0.00064285717 0.67500001
-0.087569796 0.0076100328 0.67706668
-0.084245481 0.0077178576 0.67524999
-0.085880004 0.010977143 0.67800003
-0.08363381 0.010936667 0.67550004
-0.09548001 -0.040920004 0.68200004
-0.09366858 -0.040980004 0.68300003
-0.088464767 -0.042280953 0.68300003
-0.097214818 -0.037058204 0.67999995
-0.092047632 -0.037781972 0.68160009
-0.087513484 -0.037377805 0.68300009
-0.083026439 -0.036141194 0.68375003
-0.071405403 -0.036245402 0.68366671
-0.067943133 -0.036341775 0.68314296
-0.062212866 -0.036833625 0.68330008
-0.057535626 -0.036839049 0.68340003
-0.052008048 -0.036673866 0.6835556
-0.047546349 -0.037125614 0.68388891
-0.044948574 -0.036480002 0.68400002
-0.096495241 -0.034323812 0.68000001
-0.091402553 -0.034357466 0.68066669
-0.087036192 -0.034424763 0.68200004
-0.082859844 -0.033751905 0.68150008
-0.07748159 -0.034508891 0.68366671
-0.072773099 -0.034437384 0.68225002
-0.067200385 -0.034185905 0.68240005
-0.062201489 -0.033516403 0.6811111
-0.057185635 -0.03322719 0.68163645
-0.052038103 -0.032523811 0.68299991
-0.04753048 -0.032555562 0.68366671
-0.044514291 -0.033005714 0.68400002
-0.055047624 -0.025257144 0.68000001
-0.052018341 -0.027310001 0.68274999
-0.047666237 -0.02753377 0.68390912
-0.056149721 -0.021784 0.68080002
-0.052046672 -0.022119526 0.68312496
-0.047814857 -0.021888003 0.68400002
-0.060228579 -0.017485715 0.68000001
-0.057156514 -0.017537301 0.68200004
-0.05209453 -0.017582145 0.68375003
-0.048336007 -0.017849145 0.68400002
-0.065601908 -0.012340954 0.68200004
-0.062041916 -0.012693333 0.67999995
-0.057375927 -0.0143683 0.68128574
-0.052739367 -0.014975557 0.68366671
-0.070590481 -0.008419048 0.68000001
-0.067851439 -0.0088584144 0.68066669
-0.063653335 -0.0097428579 0.68200004
-0.092609532 0.0045333337 0.68000001
-0.092725292 0.0079493057 0.68230772
-0.091511056 0.011585334 0.68340009
-0.088432625 0.011705001 0.68275005
-0.086582541 -0.041655559 0.68700004
-0.083336197 -0.040683813 0.68900001
-0.072180957 -0.040027622 0.68900001
-0.062994286 -0.040027622 0.68900001
-0.057526037 -0.041340001 0.68900001
-0.05282953 -0.041029524 0.6882
-0.047056433 -0.041175 0.68625003
-0.04237175 -0.041498736 0.68800008
-0.037402861 -0.040027622 0.68900001
-0.085586675 -0.0392 0.68600005
-0.082409762 -0.03793548 0.68675005
-0.077290006 -0.036681194 0.68775004
-0.07265538 -0.037871704 0.68728584
-0.067187384 -0.038346432 0.68825006
-0.063092388 -0.039076515 0.68766677
-0.057099849 -0.039446831 0.68650007
-0.05209969 -0.039238416 0.68666673
-0.046648007 -0.039592002 0.68600005
-0.042015366 -0.037828453 0.68720007
-0.037402861 -0.037402861 0.68900007
-0.034340639 -0.036527939 0.68900001
-0.04162626 -0.032554019 0.68757159
-0.037534099 -0.03320324 0.68900007
-0.032481432 -0.033028256 0.68900007
-0.029528573 -0.030840954 0.68900001
-0.045368005 -0.027062858 0.68640006
-0.042984765 -0.027710477 0.68733341
-0.037402861 -0.029528573 0.68900001
-0.032481432 -0.028052144 0.68900007
-0.029528573 -0.027560001 0.68900001
-0.045668386 -0.023160573 0.6870001
-0.043089852 -0.022091744 0.68900007
-0.092120014 0.013284445 0.68600005
-0.088853337 0.013720001 0.68600005
-0.091696747 0.016767213 0.6884287
-0.088585727 0.017717145 0.68900007
-0.086835884 0.021654285 0.68900007
-0.084402859 0.020282859 0.68700004
-0.08226192 -0.046066672 0.6910001
-0.077215433 -0.045645531 0.69060004
-0.073353343 -0.045961339 0.69140005
-0.066909641 -0.046919409 0.69387507
-0.062269874 -0.046776887 0.69354552
-0.057674773 -0.046984669 0.6929
-0.053303652 -0.046035081 0.69383335
-0.048249528 -0.045605719 0.69400001
-0.040318098 -0.045605719 0.69400001
-0.038996194 -0.045605719 0.69400001
-0.086210482 -0.043434288 0.69100004
-0.082468756 -0.042759832 0.69072729
-0.077592567 -0.042084228 0.69043756
-0.072440356 -0.042432051 0.69150001
-0.067224294 -0.042181909 0.69200003
-0.062318571 -0.042953622 0.69169998
-0.057778459 -0.043130122 0.69137502
-0.052819051 -0.043575954 0.69325006
-0.047420003 -0.043465719 0.69150007
-0.041484356 -0.043367896 0.6914286
-0.037345245 -0.042401753 0.69200003
-0.034472067 -0.040621277 0.69166672
-0.080828577 -0.038771432 0.69000006
-0.077542856 -0.038771432 0.69000006
-0.032790206 -0.037677009 0.69057155
-0.036800005 -0.030885717 0.69000006
-0.033842862 -0.032200001 0.69000006
-0.040648986 -0.027318368 0.69000012
-0.037621059 -0.027393758 0.69033337
-0.033524003 -0.028001714 0.69020003
-0.040648986 -0.022624495 0.69000012
-0.037887491 -0.023221364 0.6910001
-0.093586668 0.019112382 0.69200003
-0.087963276 0.016616328 0.69000012
-0.091706909 0.021939049 0.6927501
-0.088553503 0.022416037 0.69216675
-0.081751674 0.048785955 0.69225001
-0.077922098 0.047593724 0.69220012
-0.072461918 0.048247539 0.69227272
-0.068349637 0.047793232 0.69377786
-0.063781917 0.048580006 0.69400001
-0.081823185 0.051770162 0.6910001
-0.077523626 0.052517153 0.69100016
-0.07257016 0.052360483 0.69092864
-0.067893207 0.05150871 0.6921429
-0.076960638 0.055911116 0.69066668
-0.07425715 0.055857148 0.69000006
-0.041215241 -0.05118667 0.69800001
-0.038556196 -0.05118667 0.69800001
-0.071257621 -0.047727622 0.69600004
-0.06821467 -0.047553338 0.69540006
-0.052146483 -0.047900766 0.69660002
-0.047634102 -0.047370486 0.69660008
-0.042453811 -0.047430005 0.69650006
-0.037503812 -0.046964049 0.69700003
-0.033902861 -0.045868576 0.69800001
-0.035080954 -0.044347622 0.69500005
-0.032898508 -0.042191293 0.69685721
-0.031243812 -0.039220955 0.69800001
-0.096252389 0.019250477 0.69700003
-0.095976196 0.021842858 0.69500005
-0.093706816 0.023355786 0.69500011
-0.088033341 0.024490478 0.69500005
-0.095060959 0.027255239 0.69800001
-0.092509344 0.027076572 0.69680005
-0.087435 0.027820716 0.69550002
-0.082796201 0.028814288 0.69550008
-0.086526543 0.032318644 0.69657153
-0.082733341 0.032403808 0.6972
-0.086403698 0.037219647 0.69787496
-0.082385369 0.037206434 0.69762504
-0.079106674 0.038556196 0.69800001
-0.08635579 0.042560142 0.69671434
-0.082223102 0.042435836 0.69625008
-0.077314928 0.042803656 0.69683337
-0.072519526 0.043644294 0.69700003
-0.067690536 0.042470179 0.69681263
-0.062692463 0.043009922 0.69658339
-0.058166672 0.044206668 0.69800001
-0.085992068 0.046642862 0.69633341
-0.082738101 0.046333339 0.69500011
-0.07611905 0.045671433 0.69500005
-0.072984196 0.045962479 0.69540006
-0.066285044 0.047373477 0.69500011
-0.061874289 0.046904199 0.69560009
-0.058499053 0.045868576 0.69800001
-0.07844191 0.05783429 0.69800001
-0.072355241 0.055096194 0.69700003
-0.055412386 -0.054077145 0.70100003
-0.051715881 -0.051493339 0.70066679
-0.047466844 -0.051832039 0.70018178
-0.04319207 -0.051489849 0.70011121
-0.036991749 -0.050589211 0.70200008
-0.032297526 -0.050793149 0.70360005
-0.028830478 -0.050285719 0.70400006
-0.02145524 -0.050285719 0.70400006
-0.01944381 -0.050285719 0.70400006
-0.035777781 -0.048222225 0.70000005
-0.031882424 -0.047553774 0.70145464
-0.027453968 -0.047544558 0.70311117
-0.022774924 -0.047558896 0.70333338
-0.018969845 -0.046643496 0.70300001
-0.031125396 -0.043798737 0.70033336
-0.027758099 -0.042546812 0.70114297
-0.022875745 -0.042943686 0.70233345
-0.01939778 -0.043479051 0.70233339
-0.0279148 -0.037786301 0.70176935
-0.023608811 -0.038343575 0.70325005
-0.095469527 0.028707622 0.70100003
-0.095878109 0.032406352 0.70400012
-0.092655763 0.0322222 0.70146167
-0.089333341 0.032666668 0.70000005
-0.080666669 0.033333335 0.70000005
-0.077690244 0.034157857 0.70325005
-0.073081911 0.034194287 0.70400012
-0.092192329 0.037331372 0.70246673
-0.088698335 0.037346907 0.70025003
-0.0771809 0.037205786 0.70121443
-0.072167389 0.037417982 0.70162505
-0.067557946 0.037455082 0.70233339
-0.063156866 0.038402192 0.70250005
-0.057569813 0.038424097 0.70290011
-0.052260213 0.037806332 0.70350009
-0.047581274 0.038198415 0.70366675
-0.044372763 0.038474098 0.70380002
-0.090128578 0.041392386 0.70100003
-0.088222228 0.041111115 0.70000005
-0.076666668 0.04066667 0.70000005
-0.072954483 0.041211624 0.70020002
-0.061688341 0.041014526 0.70025003
-0.057033889 0.042135477 0.70041674
-0.052111428 0.042756677 0.70150012
-0.047632989 0.042643726 0.70263642
-0.043996032 0.04198651 0.70350003
-0.057138961 0.047662195 0.70090002
-0.052453548 0.047097996 0.70311111
-0.067391053 0.053725909 0.70340008
-0.061963242 0.050990291 0.70260006
-0.0589181 0.050214291 0.70300001
-0.026708892 -0.056335561 0.70700002
-0.024240002 -0.055886671 0.70700002
-0.031557143 -0.051968575 0.70500004
-0.027427796 -0.052596636 0.70554543
-0.023788573 -0.052552003 0.70559996
-0.097159527 0.032610003 0.70600003
-0.07796786 0.032262146 0.70574999
-0.072668105 0.032969367 0.70649999
-0.06735643 0.034352146 0.70725
-0.061846294 0.033820003 0.70740002
-0.05762912 0.033768982 0.70714289
-0.052455362 0.033623934 0.70612502
-0.047104847 0.032635957 0.70658326
-0.042735875 0.032639533 0.70666665
-0.038575482 0.033184525 0.70749998
-0.096014291 0.036257148 0.70500004
-0.065128572 0.035585716 0.70500004
-0.062209722 0.03614305 0.70540011
-0.057742864 0.03603334 0.70500004
-0.052371431 0.035585716 0.70500004
-0.047671434 0.035585716 0.7050001
-0.042310569 0.037181903 0.70518184
-0.037844699 0.037665147 0.7070666
-0.041686669 0.041015241 0.70600003
-0.039726671 0.041073337 0.70700002
-0.051796511 0.049106985 0.70633334
-0.081566542 0.027445173 0.71285731
-0.077787466 0.027739685 0.71333349
-0.072760008 0.029240003 0.71400011
-0.066956908 0.028889764 0.71375006
-0.062494524 0.028529763 0.71325004
-0.057099286 0.028550001 0.71375012
-0.052299209 0.028526511 0.71316671
-0.047330219 0.027952205 0.71272737
-0.04211548 0.028529286 0.71325004
-0.037382226 0.028546348 0.71366668
-0.032622978 0.02854488 0.71362507
-0.027840953 0.029199049 0.71300006
-0.077356674 0.030535717 0.71250004
-0.07253921 0.031183971 0.71183336
-0.067730635 0.031831592 0.71116674
-0.062524103 0.031532098 0.7105
-0.057157557 0.0310449 0.71085715
-0.052559189 0.031263404 0.71142858
-0.048055243 0.030457145 0.71066666
-0.041247621 0.030428573 0.71000004
-0.037080124 0.031660359 0.71112502
-0.032544587 0.032544348 0.71193767
-0.028520001 0.032594286 0.71300006
-0.00068476197 -0.043140002 0.71900004
0.002054286 -0.041770481 0.71900004
0.0061628576 -0.043824762 0.71900004
-0.076008573 0.019858096 0.71900004
-0.074639052 0.019858096 0.71900004
-0.080117151 0.022597145 0.71900004
-0.077467717 0.022542764 0.7173
-0.072516516 0.022575242 0.71833336
-0.067480579 0.023405526 0.71860003
-0.063028768 0.023652764 0.71780008
-0.05774409 0.023351159 0.71814287
-0.052678417 0.023259684 0.71833342
-0.047888897 0.022574924 0.71833336
-0.042818859 0.022707433 0.71819997
-0.037451841 0.022978913 0.71871436
-0.033492383 0.023922225 0.71766675
-0.076740719 0.025580239 0.71625006
-0.072170861 0.026820662 0.7164616
-0.06773822 0.026446309 0.71662503
-0.062779054 0.025929999 0.71650004
-0.057320002 0.025929999 0.71650004
-0.052543335 0.02593 0.71650004
-0.048142482 0.025503239 0.71600002
-0.0422781 0.02591238 0.71600002
-0.037530322 0.025930321 0.71650004
-0.033429526 0.025924448 0.71633339
-0.028867304 0.0284127 0.71600002
-0.0061971433 -0.05577429 0.72300005
-0.0015148573 -0.056600578 0.72300005
0.0018689798 -0.0569547 0.72300011
-0.0061971433 -0.052331433 0.72300005
-0.0027513097 -0.052260719 0.72200006
0.0026154921 -0.052354034 0.72266674
0.006653334 -0.051160641 0.72266674
-0.0061971433 -0.048200004 0.72300005
-0.0027483336 -0.047374375 0.72091675
0.0027441271 -0.047336832 0.72033352
0.0065142862 -0.046971433 0.72000003
-0.0027489117 -0.042675857 0.72107154
0.0029010989 -0.04267253 0.72000015
0.0068571432 -0.041142859 0.72000003
-0.0019383552 -0.037309092 0.72181827
0.0027473811 -0.037091188 0.72125012
0.0074372301 -0.03693299 0.72181827
0.0089514293 -0.03236286 0.72300005
0.0089514293 -0.028231433 0.72300005
0.010314287 -0.029567622 0.72200006
-0.078857146 0.014400001 0.72000003
-0.081826679 0.019940954 0.72200006
-0.077735461 0.018079791 0.72088897
-0.07278572 0.01922635 0.72100008
-0.067457385 0.019961668 0.72275007
-0.062315714 0.019624287 0.72300005
-0.057840001 0.018866858 0.72300005
-0.052744575 0.018729147 0.72300005
-0.04785572 0.019624287 0.72300005
-0.042232387 0.019509528 0.72300005
-0.037163049 0.018856192 0.7226001
-0.082514286 0.021316191 0.72200006
-0.067200005 0.021714289 0.72000003
-0.062211242 0.021835241 0.72100008
-0.057252575 0.021555049 0.7208001
-0.052800007 0.021257143 0.72000003
-0.040457144 0.021942858 0.72000003
-0.038400002 0.021257143 0.72000003
-0.034971431 0.021257143 0.72000003
-0.032318097 0.03919429 0.72200006
-0.010414287 -0.061097145 0.72900003
-0.0076057157 -0.061142046 0.72600001
-0.003224127 -0.060560003 0.72533339
-0.010409526 -0.057600003 0.72866672
-0.0077801202 -0.057571787 0.726125
-0.0036496602 -0.057704091 0.72500002
0.0020714288 -0.057309527 0.72500002
-0.010414287 -0.052765716 0.72900003
-0.0083051194 -0.052592978 0.72662503
0.0048333337 -0.051785719 0.72500002
0.0069047622 -0.051785719 0.72500002
-0.010414287 -0.045128573 0.72900003
-0.0080878325 -0.047054604 0.72777778
0.0075952387 -0.049023814 0.72500002
-0.015968572 -0.042351432 0.72900003
-0.01157143 -0.042351432 0.72900003
-0.0073148152 -0.042722434 0.72744447
-0.0048333337 -0.040738098 0.72500002
-0.013188097 -0.038177304 0.72883338
-0.0067085717 -0.037936509 0.72866672
-0.0045598098 -0.036891241 0.72540003
-0.0020774608 -0.032525714 0.72666669
0.0027634925 -0.032474127 0.72549999
0.0069047622 -0.032452386 0.72500002
-0.0014862587 -0.027843812 0.72828585
0.0027677387 -0.027689643 0.72687495
0.007138731 -0.027405823 0.72544444
-0.046054289 0.0085628582 0.72900003
-0.065957144 0.014580001 0.72900003
-0.061967015 0.013173595 0.728091
-0.05752011 0.013164975 0.72766668
-0.052934196 0.013439526 0.72750002
-0.047360361 0.013531072 0.72862506
-0.041975718 0.014222858 0.72850001
-0.039520003 0.014560001 0.72800004
-0.071827248 0.017298479 0.72660011
-0.067580178 0.017411863 0.72609091
-0.062436577 0.016990097 0.72519994
-0.056964293 0.016226191 0.72500002
-0.051797308 0.016575081 0.72516668
-0.047048099 0.017019525 0.72649997
-0.042710718 0.017117383 0.72624999
-0.038914926 0.016348574 0.72533339
-0.01673143 -0.060651433 0.73200005
-0.012892144 -0.060979292 0.73175007
-0.0020885717 -0.061960958 0.73100001
-0.020244762 -0.055846669 0.73300004
-0.017429337 -0.057165146 0.73200005
-0.013227619 -0.057783816 0.73100001
-0.020217145 -0.053680003 0.73200005
-0.016908929 -0.052817028 0.73212504
-0.013237144 -0.052946195 0.73150009
-0.016610285 -0.047318865 0.73280007
-0.012551497 -0.047510419 0.73207152
-0.016034286 -0.043920003 0.73200005
-0.013459682 -0.042467624 0.73100007
-0.0090504764 -0.041075241 0.73100001
-0.011836826 -0.037367623 0.73111111
-0.0085925404 -0.037154447 0.73150003
-0.0069714291 -0.034160003 0.73200005
-0.0045404769 -0.03213286 0.7335
-0.0020885717 -0.028543811 0.73100001
-0.076196194 0.0076895244 0.73400003
-0.072793007 0.0078051081 0.7330001
-0.067417145 0.007536001 0.73280007
-0.062820747 0.0081324875 0.73200005
-0.057243817 0.0083761904 0.7330001
-0.052298576 0.0083671436 0.73216671
-0.048784051 0.0083621433 0.73175001
-0.072417915 0.012510223 0.73253345
-0.067699574 0.012348744 0.73145461
-0.063631818 0.01099981 0.73100001
-0.057783812 0.010442859 0.73100007
-0.052446358 0.010906986 0.73100007
-0.04716691 0.011487144 0.73100001
-0.043303054 0.012113716 0.73100001
-0.076895237 0.016078096 0.73400003
-0.073100001 0.016012382 0.73100007
-0.021748573 -0.061038099 0.73666668
-0.018951429 -0.061065719 0.73700005
-0.021174287 -0.058195241 0.73620003
-0.018951429 -0.05966191 0.73700005
-0.016121905 -0.048365716 0.73600006
-0.014720001 -0.048365716 0.73600006
-0.011016826 -0.033517145 0.7383334
-0.0077192592 -0.032043286 0.73677778
-0.0049066669 -0.030140955 0.73600006
-0.055600956 -0.0014076191 0.73900002
-0.05355493 -0.0011695239 0.73666668
-0.075052857 0.0042080954 0.73650002
-0.072295882 0.0042107939 0.73700011
-0.067249022 0.0032929671 0.73730779
-0.062635675 0.0029986149 0.73745459
-0.057547145 0.0028055953 0.73687506
-0.052718874 0.0029957581 0.73627281
-0.048698671 0.0043508573 0.73680007
-0.076455712 0.0077166669 0.73650002
-0.070796192 0.0063085719 0.73600006
-0.061683811 0.0063085719 0.73600006
-0.0574781 0.0063085719 0.73600006
-0.052571431 0.0063085719 0.73600006
-0.04836572 0.0063085719 0.73600006
-0.077026881 0.01316233 0.73600006
-0.01057143 -0.031714287 0.74000001
-0.0091866674 -0.03038667 0.74200004
-0.065720007 -0.010600001 0.74200004
-0.063261144 -0.011746476 0.74300003
-0.077130482 -0.0077838101 0.74300003
-0.072256908 -0.0072423816 0.74200004
-0.067688055 -0.0079062339 0.74245465
-0.064039528 -0.0074300002 0.74300003
-0.058024764 -0.0070761908 0.74300003
-0.072498895 -0.0030650792 0.74266666
-0.067705087 -0.0027806351 0.74206662
-0.062143989 -0.0023793075 0.74227273
-0.057746246 -0.0029068782 0.74244452
-0.072690479 0.0014114287 0.74100006
-0.068361908 0.00070476194 0.74000001
-0.061314289 0.00070476194 0.74000001
-0.061728574 -0.010642858 0.74500006
-0.076886192 -0.0064071435 0.74750006
-0.061752252 -0.0078077558 0.74528581
-0.077084035 -0.0027669843 0.74711114
-0.074500002 -0.00070952385 0.74500006
-0.062580012 -0.0038314287 0.74500006
-0.077262297 0.0012805716 0.74700004
