# .PCD v0.7 - Point Cloud Data file format
VERSION 0.7
FIELDS x y z
SIZE 4 4 4
TYPE F F F
COUNT 1 1 1
WIDTH 550
HEIGHT 1
VIEWPOINT 0 0 0 1 0 0 0
POINTS 550
DATA ascii
-0.027600002 0.012880001 0.64400005
-0.031104764 0.016910478 0.64400005
-0.028826669 0.017173335 0.64400005
-0.025302859 -0.00061714288 0.648
-0.022834286 -0.00061714288 0.648
-0.026529875 0.0028600867 0.64781815
-0.022630993 0.0026088643 0.64761531
-0.035140958 0.0080139693 0.64733338
-0.032055005 0.0080129365 0.64724994
-0.027107263 0.0073920246 0.64687496
-0.022182383 0.0073941671 0.64700001
-0.018205713 0.0074057146 0.648
-0.03638972 0.012952382 0.6476
-0.031974759 0.012297024 0.64562505
-0.026998162 0.012249968 0.64526677
-0.022518609 0.011994947 0.64715385
-0.019131429 0.010491429 0.648
-0.04073143 0.019131429 0.648
-0.036631871 0.017581029 0.64684612
-0.032568786 0.01741069 0.64522225
-0.0268081 0.017229185 0.64607143
-0.024056192 0.016654922 0.64766669
-0.040114287 0.020365715 0.648
-0.036387093 0.021448256 0.64755553
-0.032029763 0.022175478 0.64674997
-0.02764719 0.02192788 0.64772731
-0.035177145 0.025302859 0.648
-0.031474289 0.025302859 0.648
-0.031644862 0.002853048 0.65149999
-0.028487384 0.0018578573 0.65025002
-0.020428572 0.0018571431 0.65000004
-0.017596571 0.0033457149 0.65060008
-0.013825398 0.0035079368 0.65000004
-0.032216191 0.0055757146 0.65050006
-0.016722225 0.0070193652 0.6503334
-0.014303811 0.0062190481 0.65300006
-0.037170954 0.010531906 0.65050006
-0.020851746 0.0138327 0.6503334
-0.019190477 0.011761906 0.65000004
-0.022028495 0.017376589 0.65158337
-0.019249525 0.015523811 0.65200001
-0.040920004 0.024180003 0.65100002
-0.037955925 0.023268845 0.65028584
-0.02632905 0.022611907 0.6505
-0.023613811 0.020507146 0.65250003
-0.036774635 0.027088573 0.65045464
-0.032251436 0.027379557 0.65039998
-0.028051518 0.027263293 0.65190911
-0.035340004 0.030380001 0.65100002
-0.032351855 0.031249633 0.65188891
-0.041234672 -0.011656 0.65800005
-0.038955431 -0.011649144 0.65760005
-0.047000002 -0.0075200005 0.65800005
-0.041360006 -0.0094000008 0.65800005
-0.039480001 -0.0094000008 0.65800005
-0.015630953 0.0087538101 0.65649998
-0.012513968 0.0075087324 0.65700006
-0.0087733343 0.006893334 0.65800005
-0.017085349 0.012562858 0.65700006
-0.01327195 0.012360954 0.65790915
-0.020585716 0.019338097 0.65500003
-0.018677283 0.017785035 0.65685719
-0.025693335 0.024440002 0.65800005
-0.022626907 0.022628492 0.65691674
-0.018800002 0.020680001 0.65800005
-0.02873905 0.031239048 0.65600002
-0.051777147 -0.015785715 0.66300005
-0.047649212 -0.017355716 0.6626668
-0.043471429 -0.017168572 0.6615001
-0.051686946 -0.012357961 0.66300005
-0.047913156 -0.01260875 0.66193748
-0.043636385 -0.012827049 0.6602
-0.052551433 -0.0069356724 0.66190922
-0.047940481 -0.0075561237 0.66107142
-0.042959053 -0.0072790482 0.66057146
-0.038213078 -0.0071606068 0.66172743
-0.047156367 -0.0029154983 0.66018182
-0.043078467 -0.0028591212 0.66146165
-0.039359048 -0.0039990479 0.66300005
-0.010685715 0.0088 0.66000003
-0.0088030957 0.0088035716 0.66025007
-0.010946858 0.012960573 0.66060007
-0.0089499056 0.011724382 0.66180009
-0.0037885716 0.010734286 0.66300005
-0.016360715 0.017620478 0.66075009
-0.013243238 0.017028762 0.66220009
-0.020805717 0.023958098 0.66200006
-0.01788562 0.022547713 0.66130012
-0.026062289 0.027826099 0.66100007
-0.022821972 0.027615875 0.66200006
-0.018935477 0.026510239 0.66275001
-0.027327621 0.032113906 0.66120005
-0.024180001 0.031329207 0.66233337
-0.070722863 -0.021025715 0.66900003
-0.067118034 -0.022568721 0.66823083
-0.062456485 -0.022450626 0.66761547
-0.057384003 -0.022012195 0.66800004
-0.052184004 -0.022019623 0.66820014
-0.048586354 -0.021429524 0.66833341
-0.070722863 -0.017840002 0.66900003
-0.067387141 -0.017800001 0.66749996
-0.062235538 -0.017781248 0.66681242
-0.05714542 -0.017778512 0.66668749
-0.05209817 -0.018178025 0.66523075
-0.046233337 -0.019633334 0.66500002
-0.044966668 -0.019633334 0.66500002
-0.070722863 -0.013380001 0.66900003
-0.067276888 -0.012674732 0.66766667
-0.062247675 -0.012703631 0.66693741
-0.057167329 -0.012702798 0.66693753
-0.053580005 -0.013046669 0.66500002
-0.066997573 -0.0085596843 0.66855562
-0.063045084 -0.008915239 0.66866678
-0.056384575 -0.0090367636 0.66820002
-0.053411119 -0.009077779 0.66500008
-0.0069674472 0.013071516 0.66509092
-0.0044333334 0.012033334 0.66500002
-0.011644445 0.018845715 0.66700006
-0.0082630962 0.017800875 0.66741669
-0.016552858 0.02419381 0.66850001
-0.013713335 0.022071976 0.66757149
-0.0073271431 0.021981429 0.66900003
-0.02093143 0.029811431 0.66600001
-0.01771397 0.028302541 0.66700011
-0.064832382 -0.030169526 0.67400002
-0.057771433 -0.030169526 0.67400002
-0.05199429 -0.030169528 0.67400002
-0.045896195 -0.031132381 0.67400002
-0.043777149 -0.03053778 0.67266673
-0.075958744 -0.025890162 0.67400002
-0.072454527 -0.027412148 0.67324996
-0.067882307 -0.027538812 0.67241663
-0.06297677 -0.027265524 0.67199999
-0.057628579 -0.027535558 0.67233336
-0.052486595 -0.027525162 0.67208338
-0.047480825 -0.027223403 0.67371428
-0.043751623 -0.027328003 0.67360002
-0.076341346 -0.022710858 0.67360002
-0.072844841 -0.023094768 0.6709286
-0.069161594 -0.024472699 0.67033339
-0.061926037 -0.024898097 0.67033339
-0.05725826 -0.024478894 0.67050004
-0.052349847 -0.024472699 0.67033339
-0.047775518 -0.023112385 0.67142856
-0.075952388 -0.017944762 0.67299998
-0.073355235 -0.018062426 0.67081821
-0.076386675 -0.014763811 0.67400002
-0.072870955 -0.014062699 0.67116678
-0.069552384 -0.013400001 0.67000002
-0.069552384 -0.0082952389 0.67000002
-0.062326577 -0.0069086673 0.67189997
-0.058714289 -0.0075768721 0.67114294
-0.06354858 -0.0035763266 0.67400008
-0.057129528 -0.0044933334 0.67400002
-0.011991218 0.023629526 0.67055553
-0.0090265321 0.023250204 0.67014289
-0.016377779 0.028714288 0.67000002
-0.012942513 0.027336976 0.67036372
-0.0089333337 0.026161907 0.67000002
-0.013432699 0.03006508 0.67166674
-0.051086672 -0.035566669 0.67900002
-0.081460163 -0.031679209 0.67883337
-0.077486359 -0.031641267 0.67799997
-0.072252735 -0.031470042 0.67681831
-0.067423441 -0.031585146 0.67680007
-0.062204454 -0.031640634 0.67800003
-0.05761515 -0.031968284 0.67670006
-0.053025205 -0.032690991 0.67707694
-0.04865228 -0.032030899 0.67711115
-0.081812806 -0.027653653 0.67877775
-0.077707469 -0.027475715 0.67616677
-0.072642863 -0.028928574 0.67500001
-0.061714292 -0.028928574 0.67500001
-0.04564286 -0.025071431 0.67500001
-0.04307143 -0.025071433 0.67500007
-0.080833338 -0.023926668 0.67900002
-0.078955248 -0.023448575 0.67766666
-0.045642864 -0.022500001 0.67500007
-0.043232147 -0.022660717 0.67500007
-0.076840006 -0.016142858 0.67800003
-0.057857148 -0.0057857148 0.67500001
-0.061145879 -0.0023592066 0.6758334
-0.058672007 -0.0024485716 0.67700005
-0.060523815 -0.042302221 0.6833334
-0.057836514 -0.040940005 0.68233335
-0.082020007 -0.035802387 0.68350005
-0.065794289 -0.035828575 0.68400002
-0.061837062 -0.037338533 0.68345463
-0.05713905 -0.037659049 0.68175006
-0.053346992 -0.037148893 0.68033338
-0.085806407 -0.032259185 0.68328577
-0.082936198 -0.0330454 0.68033332
-0.077997625 -0.034450002 0.6825
-0.073345244 -0.033751905 0.68150002
-0.066100329 -0.034026667 0.68266672
-0.062762484 -0.034175813 0.68220013
-0.058372386 -0.034374289 0.68099999
-0.085938245 -0.027035378 0.68285722
-0.083542861 -0.026552383 0.68000001
-0.086228959 -0.023280002 0.68280011
-0.083111122 -0.023530161 0.68000001
-0.082680002 -0.040027622 0.68900001
-0.076774292 -0.040027626 0.68900001
-0.073493332 -0.040027622 0.68900001
-0.066603333 -0.041011907 0.68900001
-0.063778102 -0.041498095 0.68800008
-0.087078102 -0.037225723 0.68875009
-0.082470007 -0.037963096 0.68725002
-0.077345967 -0.037363574 0.68825006
-0.072321475 -0.037503123 0.68863648
-0.067849852 -0.037307832 0.6872223
-0.064073339 -0.038575239 0.68650007
-0.088737018 -0.033451296 0.68871433
-0.071971439 -0.034677144 0.68700004
-0.068700008 -0.034677144 0.68700004
-0.091210485 -0.026903812 0.68900001
-0.089037977 -0.027245309 0.68814296
-0.091210485 -0.024279049 0.68900001
-0.08911334 -0.024243811 0.68800002
-0.090550482 -0.045605719 0.69400001
-0.077416003 -0.045764957 0.69240004
-0.072714932 -0.046501383 0.69199997
-0.067382149 -0.045687858 0.69025004
-0.092118777 -0.042052791 0.69300008
-0.087249056 -0.042357214 0.69178569
-0.082432903 -0.041915026 0.69122225
-0.077763669 -0.042550776 0.69061548
-0.072112933 -0.042347901 0.69014293
-0.068178579 -0.042550009 0.69000006
-0.0958381 -0.037013333 0.69400001
-0.092169136 -0.037525479 0.69125009
-0.088714294 -0.038771432 0.69000006
-0.096168578 -0.032386668 0.69400001
-0.092436746 -0.032723818 0.69114292
-0.095769048 -0.029061429 0.69350004
-0.092605323 -0.028862452 0.6910001
-0.073123813 -0.05118667 0.69800001
-0.097008899 -0.046511434 0.69766665
-0.092843503 -0.046422862 0.69633335
-0.087467864 -0.045720719 0.69575
-0.081850961 -0.046677303 0.69683337
-0.077424929 -0.048226833 0.69683337
-0.072599247 -0.04871124 0.69680005
-0.0689881 -0.048423335 0.69650006
-0.097430095 -0.042418018 0.69591677
-0.094652385 -0.043685719 0.69500005
-0.083701283 -0.043507628 0.69566673
-0.098121561 -0.037126787 0.69612503
-0.097741291 -0.032433338 0.69500005
-0.097300008 -0.029785717 0.69500005
-0.077520326 -0.055910483 0.70166671
-0.097350806 -0.050685089 0.70333338
-0.09185525 -0.050956201 0.70400012
-0.087832391 -0.051291436 0.70400006
-0.082352072 -0.051554814 0.70300001
-0.077594355 -0.052218478 0.70113337
-0.072000012 -0.052000009 0.70000005
-0.10561207 -0.0466654 0.70333338
-0.10221175 -0.047431853 0.70144451
-0.09776172 -0.04841391 0.70020002
-0.092097856 -0.04871881 0.70074999
-0.087785318 -0.047944222 0.70057148
-0.083624199 -0.048147243 0.70020002
-0.10632845 -0.04335456 0.70342863
-0.10226205 -0.042844184 0.70038468
-0.10161 -0.037874762 0.70074999
-0.086156197 0.039222859 0.70400006
-0.082429327 0.038198631 0.70366675
-0.087115951 0.042887863 0.70362514
-0.082531825 0.042472191 0.70340008
-0.080240004 -0.060011432 0.708
-0.095523819 -0.056415241 0.70800006
-0.092276305 -0.057252381 0.70722228
-0.088044614 -0.05637572 0.70749998
-0.082123287 -0.057120528 0.70744449
-0.11125715 -0.05057143 0.708
-0.10741128 -0.051009055 0.70783341
-0.10226395 -0.052479874 0.70642865
-0.097688459 -0.053503133 0.70600003
-0.09311334 -0.053208005 0.70539999
-0.086614288 -0.053378575 0.70499998
-0.082585722 -0.054385718 0.7050001
-0.1111393 -0.047149289 0.70725
-0.1079853 -0.047985297 0.70522219
-0.10944287 -0.044985719 0.70500004
-0.091702864 0.034388572 0.708
-0.087315515 0.033789799 0.70757145
-0.082146041 0.032991752 0.70700014
-0.077433184 0.032318257 0.70699996
-0.074029803 0.033020005 0.70757145
-0.096624933 0.038424924 0.70783329
-0.092474371 0.037869088 0.70715386
-0.087704927 0.037074447 0.70566666
-0.082585722 0.035585716 0.7050001
-0.077953219 0.037633691 0.70562494
-0.073773347 0.037673436 0.70777786
-0.095523819 0.041580956 0.70800006
-0.091959573 0.0428323 0.70572728
-0.082585722 0.044985719 0.70500004
-0.078475341 0.042402193 0.70670003
-0.093593337 0.045113336 0.70700002
-0.080800004 0.045113336 0.70700002
-0.078891434 0.045177147 0.708
-0.10744001 -0.060520004 0.71400005
-0.10200001 -0.060520004 0.71400005
-0.099960007 -0.060520004 0.71400005
-0.090961918 -0.061169848 0.71100008
-0.08754275 -0.06175651 0.71255571
-0.083472982 -0.061463218 0.71112502
-0.11076239 -0.057080954 0.71350002
-0.10751638 -0.057865459 0.71327281
-0.10273553 -0.057544667 0.7125001
-0.098036937 -0.057858314 0.71100003
-0.08747445 -0.058391593 0.71016669
-0.083847627 -0.058828574 0.71000004
-0.11247507 -0.052578967 0.71027279
-0.10775103 -0.053827487 0.71028578
-0.10480953 -0.054771431 0.71000004
-0.095880009 0.029240001 0.71400005
-0.092223905 0.027981644 0.71345472
-0.087156482 0.028405175 0.7125715
-0.082504228 0.028599188 0.7125715
-0.077892862 0.028339526 0.71275008
-0.072709054 0.028539527 0.71350002
-0.068097144 0.028951621 0.71360004
-0.062255651 0.028651293 0.71385729
-0.10158858 0.033635717 0.71350002
-0.097449243 0.032969825 0.71323091
-0.092386357 0.031922862 0.71066666
-0.087650083 0.031406809 0.71028578
-0.082554296 0.030450001 0.7105
-0.072187729 0.031988997 0.71133339
-0.067807861 0.032547265 0.71200019
-0.063209996 0.032625087 0.71366668
-0.097996615 0.036542177 0.71242869
-0.071918264 0.037650004 0.71016669
-0.06813892 0.036542457 0.71242863
-0.075661913 0.042636763 0.71060008
-0.073704764 0.041247621 0.71000004
-0.08125715 0.046722859 0.71100003
-0.078660004 0.046111431 0.71200001
-0.11115048 -0.060689528 0.71600002
-0.10744872 -0.062637828 0.71600002
-0.10357144 -0.062088389 0.71640009
-0.056835242 0.019858096 0.71900004
-0.092442863 0.023966668 0.71900004
-0.086051755 0.023510162 0.71900004
-0.082316637 0.02246052 0.71863633
-0.077511154 0.022691527 0.7177
-0.072745085 0.02303143 0.71833336
-0.067106672 0.023281906 0.71899998
-0.062256198 0.023259684 0.71833342
-0.057289094 0.022703467 0.71845454
-0.054096196 0.022597145 0.71900004
-0.1061381 0.029444763 0.71900004
-0.10239702 0.027649663 0.71814287
-0.097670637 0.027008731 0.71800005
-0.092933819 0.025624763 0.71750003
-0.087481558 0.025969882 0.71762502
-0.082626671 0.025947936 0.71700001
-0.077252857 0.026091669 0.71625006
-0.072110385 0.026159475 0.7165556
-0.067408815 0.026450954 0.71675003
-0.062991858 0.026151428 0.71633339
-0.057398453 0.027333692 0.71750003
-0.05382229 0.027801335 0.71900004
-0.10659461 0.031727307 0.71900004
-0.10271314 0.031761378 0.71633333
-0.098876201 0.030685715 0.71600002
-0.060689528 0.032731432 0.71600002
-0.057616949 0.032520484 0.71778572
-0.054096196 0.030814288 0.71900004
-0.070236199 0.038868573 0.71600002
-0.067213811 0.038554288 0.71650004
-0.063372172 0.037265923 0.71722221
-0.097088575 -0.021345716 0.72300005
-0.097044453 -0.019959368 0.72266674
-0.05577429 0.01377143 0.72300005
-0.052946679 0.013752382 0.72200006
-0.092268571 0.019968573 0.72300005
-0.086071432 0.019968573 0.72300005
-0.082380489 0.019504923 0.7228334
-0.077265248 0.018928813 0.72275007
-0.072635792 0.019362589 0.72242868
-0.067167245 0.018855812 0.7226001
-0.062563926 0.018560955 0.72188896
-0.057795182 0.017735114 0.72186685
-0.052249644 0.017874643 0.72187507
-0.11223715 0.024100002 0.72300005
-0.10672858 0.024100002 0.72300005
-0.10235476 0.022878336 0.72250009
-0.097596839 0.02267905 0.72166675
-0.092466883 0.022371007 0.72155559
-0.088145003 0.022464525 0.72025001
-0.072000012 0.021257143 0.72000003
-0.067200005 0.021257143 0.72000003
-0.062400006 0.021257143 0.72000003
-0.059657145 0.021257143 0.72000003
-0.052800007 0.022354288 0.72000003
-0.11145021 0.027247759 0.72300011
-0.10798724 0.027512003 0.7222001
-0.10422858 0.02537143 0.72000003
-0.051992543 0.027027782 0.7215001
-0.10871953 0.030964289 0.72250009
-0.053150486 0.032762863 0.72166675
-0.058397908 0.036688577 0.72140008
-0.052331433 0.035117146 0.72300005
-0.10136572 -0.016662858 0.72900003
-0.097496293 -0.017195525 0.72810006
-0.094357625 -0.016650952 0.72850001
-0.11202178 -0.010994015 0.72800004
-0.10778786 -0.011629287 0.72900003
-0.10206001 -0.01319143 0.72900003
-0.097894296 -0.014580002 0.72900003
-0.11178001 -0.0083314292 0.72900003
-0.10483715 -0.0076371431 0.72900003
-0.061097145 0.0090257153 0.72900003
-0.095811442 0.014580001 0.72900003
-0.092340007 0.014580002 0.72900003
-0.087063432 0.014302286 0.72900003
-0.082582548 0.01387905 0.72866672
-0.077586785 0.013853217 0.72737497
-0.07208024 0.013860953 0.72775006
-0.067221589 0.013859367 0.72766674
-0.062244777 0.012612765 0.72780007
-0.058020242 0.013814048 0.72525001
-0.11682369 0.017537415 0.72828573
-0.11254985 0.017794712 0.72800004
-0.10754048 0.018038571 0.72850007
-0.10239915 0.017453508 0.72781825
-0.097625509 0.017308045 0.72700006
-0.09269397 0.017291749 0.72633338
-0.0873845 0.017172903 0.72663641
-0.082611553 0.017108453 0.72587502
-0.077463001 0.016479051 0.72528577
-0.072500005 0.01657143 0.72500002
-0.068126991 0.016341273 0.72500002
-0.062833339 0.015880954 0.72500008
-0.11689994 0.021996588 0.72558331
-0.11258996 0.021914462 0.72527266
-0.10798704 0.021638757 0.72576928
-0.10268991 0.020316573 0.72560006
-0.097357154 0.020023812 0.72500008
-0.088380963 0.020023812 0.72500002
-0.11565477 0.026583336 0.72500002
-0.11358334 0.027619049 0.72500002
-0.10978572 0.02554762 0.72500002
-0.11116667 0.03107143 0.72500002
-0.10373238 -0.016012382 0.73100001
-0.092593342 -0.016012382 0.73100001
-0.1055889 -0.012299366 0.73100007
-0.10264629 -0.01225581 0.73119998
-0.097729273 -0.012222946 0.73154545
-0.093289532 -0.01462 0.73100001
-0.11208557 -0.0076728584 0.73250002
-0.10741681 -0.0076588746 0.7310909
-0.10252541 -0.0083688889 0.73233336
-0.099963814 -0.0090876194 0.73400003
-0.11114858 -0.0048933337 0.73400003
-0.10761829 -0.0046057142 0.73280007
-0.090177149 0.0090876194 0.73400003
-0.087380961 0.0090876203 0.73400009
-0.083186679 0.0090876203 0.73400009
-0.071302861 0.0090876194 0.73400003
-0.067489937 0.0080736056 0.73271435
-0.063649528 0.0082171438 0.73120004
-0.11663493 0.014200635 0.73333335
-0.11261675 0.014039048 0.73185718
-0.1070944 0.013705186 0.73177773
-0.10249947 0.013645308 0.73214298
-0.097721167 0.013095133 0.73233342
-0.092720971 0.012547938 0.73200005
-0.087953515 0.011713855 0.73136365
-0.082234055 0.011149763 0.73175001
-0.077453338 0.011163175 0.73266667
-0.072529055 0.011157381 0.73224998
-0.067530483 0.011139049 0.73100007
-0.064745717 0.010442858 0.73100001
-0.12112001 0.017800953 0.73300004
-0.11937429 0.016753335 0.73300004
-0.11208668 0.016012382 0.73100007
-0.10721334 0.016012382 0.73100001
-0.12060572 0.020217145 0.73200005
-0.096030481 -0.011215239 0.73600006
-0.092500307 -0.012135314 0.73623085
-0.088500485 -0.011237619 0.73750007
-0.11565715 -0.0077104769 0.73600006
-0.11425524 -0.0063085719 0.73600006
-0.10194572 -0.0065906676 0.73620003
-0.097322576 -0.007582 0.7373001
-0.092744052 -0.0084311906 0.73774999
-0.11577501 -0.0028073813 0.73675001
-0.11235265 -0.0025034016 0.73600012
-0.1070705 -0.0019276192 0.73600006
-0.10257119 -0.0029459049 0.73666686
-0.098181434 -0.0045747622 0.73900002
-0.12035143 0.0049266671 0.73900002
-0.11673089 0.0035145581 0.73771435
-0.11225733 0.0028070838 0.73668766
-0.10735533 0.0028072223 0.73675007
-0.10322605 0.0028088889 0.73733342
-0.086568579 0.0049266671 0.73900002
-0.076433718 0.0043636193 0.73900002
-0.072362863 0.0035126987 0.73766667
-0.068806946 0.003104354 0.73614293
-0.12598191 0.0091495244 0.73900002
-0.12147754 0.0077419057 0.73900002
-0.11743058 0.0077344985 0.73833334
-0.11233065 0.0077230167 0.73716676
-0.10739142 0.0077209533 0.73700005
-0.10268191 0.0078483121 0.737091
-0.097520642 0.0084187314 0.73666668
-0.092558734 0.0078742858 0.73688895
-0.087353483 0.0069191842 0.73714292
-0.082325727 0.0073709525 0.73725009
-0.077244446 0.0077225408 0.73733342
-0.072468989 0.0073160548 0.7367143
-0.06869334 0.0063085719 0.73600006
-0.12648723 0.012760954 0.73842865
-0.12252656 0.012441636 0.73757148
-0.11785544 0.012205715 0.73660004
-0.11222929 0.01122262 0.73650002
-0.10752612 0.011075049 0.73600006
-0.10225837 0.011117144 0.73614293
-0.09743239 0.010514287 0.73600006
-0.093226671 0.010514287 0.73600006
-0.12634288 0.01754762 0.73700011
-0.12350781 0.01724343 0.73600006
-0.12313398 0.020794922 0.73600006
-0.092405722 -0.0063485722 0.74066675
-0.088685311 -0.0075655784 0.74157149
-0.10078096 -0.00070476194 0.74000001
-0.09707953 -0.0022339683 0.74133337
-0.092614613 -0.0028265081 0.74233341
-0.08769989 -0.0028290476 0.742625
-0.082791433 -0.0021228574 0.74300003
-0.07900016 -0.0016509525 0.74283338
-0.10078096 0.0028190478 0.74000001
-0.097577453 0.0028285119 0.74243748
-0.092552863 0.0028255554 0.74183339
-0.087602623 0.0026814605 0.7414
-0.082633257 0.0028227777 0.74158335
-0.078106679 0.0021161907 0.74127275
-0.12309842 0.0079873018 0.74000001
-0.10078096 0.0063428576 0.74000001
-0.097520009 0.0063600005 0.74200004
-0.093733341 0.0063428576 0.74000001
-0.086325407 -0.0073317466 0.74500006
-0.08443334 -0.0063857147 0.74500006
-0.083014295 -0.0049666669 0.74500006
