# .PCD v0.7 - Point Cloud Data file format
VERSION 0.7
FIELDS x y z
SIZE 4 4 4
TYPE F F F
COUNT 1 1 1
WIDTH 737
HEIGHT 1
VIEWPOINT 0 0 0 1 0 0 0
POINTS 737
DATA ascii
-0.11096229 0.0082697151 0.648
-0.10734089 0.0080194455 0.6477499
-0.10429715 0.0086400006 0.648
-0.11099757 0.012078369 0.64800006
-0.10722734 0.012324821 0.64706254
-0.1031543 0.012708763 0.64779997
-0.10697453 0.016936263 0.64753842
-0.10240572 0.01727381 0.6477499
-0.11702905 0.0034190479 0.65275002
-0.11228518 0.0028996035 0.6525833
-0.10793645 0.0028798273 0.6523636
-0.10317969 0.0035142861 0.65133333
-0.12002762 0.0068409531 0.65300006
-0.11736064 0.0074517466 0.65199995
-0.1134285 0.0070426846 0.65081823
-0.10788001 0.0055800006 0.65100002
-0.10254179 0.0072541507 0.65028584
-0.098923817 0.008295238 0.65000004
-0.11647382 0.012020796 0.65283346
-0.11385787 0.012409525 0.65149999
-0.10152382 0.011761907 0.6500001
-0.097765394 0.012664316 0.65141177
-0.093763813 0.014281905 0.65200001
-0.11505239 0.01554762 0.65300006
-0.1120981 0.016901905 0.65188891
-0.10927112 0.018797463 0.65066671
-0.097428203 0.017376004 0.65160012
-0.093453348 0.018007619 0.65200001
-0.10711476 0.020802382 0.65200007
-0.10225579 0.022174424 0.6518572
-0.097343311 0.022171991 0.65200007
-0.093128294 0.022226572 0.65189999
-0.10012668 0.025498098 0.65300006
-0.096711598 0.026818417 0.65233338
-0.093142867 0.025459049 0.65200001
-0.096395247 0.030473335 0.65300006
-0.11682986 -0.00062476192 0.65600002
-0.11316906 -0.00062523811 0.65649998
-0.12622549 0.0031321433 0.65775001
-0.12234225 0.0027674153 0.65635723
-0.11744246 0.0011591837 0.65542865
-0.11228572 0.0012476192 0.65500003
-0.12737001 0.0065800003 0.65800005
-0.12295966 0.007646522 0.65638471
-0.12102977 0.011572143 0.65675002
-0.11864205 0.013123947 0.65614289
-0.11712912 0.017030478 0.65688896
-0.11391493 0.018951748 0.65600002
-0.11171865 0.021736057 0.65742862
-0.10767734 0.023359431 0.65580004
-0.1041762 0.023704764 0.65500003
-0.10719027 0.027387476 0.65700006
-0.10256521 0.027609909 0.6558668
-0.098870799 0.028932383 0.65566671
-0.10680643 0.031008335 0.65775001
-0.10261726 0.03151609 0.65744448
-0.098938107 0.031310003 0.65750003
-0.098502859 -0.013260001 0.66300005
-0.099134289 -0.0082085719 0.66300005
-0.12760001 0.0044000004 0.66000003
-0.13011429 0.0081714289 0.66000003
-0.12792914 0.0089314291 0.66040009
-0.13070573 0.010734286 0.66300005
-0.12693091 0.011704868 0.66233337
-0.12325299 0.013066072 0.66112506
-0.12170319 0.017446881 0.66211116
-0.11850096 0.01908635 0.6606667
-0.11677948 0.02178709 0.66200006
-0.11318915 0.023796765 0.66100007
-0.11175398 0.027255768 0.66211122
-0.10753644 0.033113576 0.66225004
-0.10497144 0.033314288 0.66000003
-0.10066858 -0.021025715 0.66900003
-0.082109533 -0.021641908 0.66833347
-0.078289852 -0.021641906 0.66833341
-0.10544731 -0.017186984 0.66833341
-0.10238712 -0.017627401 0.66646159
-0.097770728 -0.017779049 0.66662502
-0.093720414 -0.016817551 0.66814297
-0.082110167 -0.019094605 0.66833347
-0.078301094 -0.018824354 0.66842872
-0.10718022 -0.013071006 0.66766667
-0.10271715 -0.012680952 0.66575003
-0.0973524 -0.012576192 0.66500008
-0.09282463 -0.012692111 0.66628575
-0.08918985 -0.012077461 0.66733336
-0.10576572 -0.0089200009 0.66900003
-0.10244922 -0.008541693 0.6672222
-0.097479664 -0.0082420781 0.66581821
-0.093589053 -0.0089128576 0.66850007
-0.13106421 0.013604382 0.66740006
-0.12817562 0.013819811 0.6656
-0.13188858 0.015928572 0.66900003
-0.12696598 0.017177962 0.66800004
-0.12400239 0.018078573 0.66600001
-0.12594192 0.021450479 0.66900003
-0.12242167 0.022895638 0.66775006
-0.11828192 0.02386762 0.66533339
-0.12084477 0.026547622 0.66900003
-0.11750019 0.027801644 0.6675455
-0.11390351 0.028951747 0.6656667
-0.11659715 0.031857144 0.66900003
-0.11238716 0.032383528 0.66670001
-0.10905644 0.034238812 0.66575003
-0.11532287 0.036317144 0.66900003
-0.11269096 0.035971429 0.66850007
-0.10846286 0.036154289 0.66600001
-0.084089532 -0.030169526 0.67400002
-0.07574477 -0.030169526 0.67400002
-0.073819056 -0.030811429 0.67400002
-0.10976572 -0.025676193 0.67400002
-0.090829536 -0.025997145 0.67400002
-0.087388434 -0.027089821 0.67353839
-0.082001276 -0.027548574 0.67266667
-0.076951429 -0.027575564 0.67333329
-0.072801426 -0.027420957 0.67349994
-0.1080618 -0.021933217 0.67237496
-0.10337143 -0.021057144 0.67000002
-0.097210743 -0.02230892 0.67272729
-0.09227477 -0.022429049 0.67283332
-0.087578855 -0.022663623 0.67219996
-0.083397441 -0.023755524 0.67050004
-0.077522196 -0.023755526 0.67050004
-0.0740382 -0.022972593 0.67211109
-0.11104953 -0.017759366 0.67400002
-0.10794809 -0.018221114 0.67133331
-0.0952181 -0.019810477 0.671
-0.091642551 -0.018329209 0.67133331
-0.087463297 -0.017767916 0.67184621
-0.083233558 -0.017242011 0.67055559
-0.077004857 -0.017028227 0.67127281
-0.074243441 -0.018849146 0.67320007
-0.1078381 -0.01084762 0.67000002
-0.090676673 -0.014687144 0.67050004
-0.0872012 -0.014105953 0.67324996
-0.081841491 -0.013888467 0.67311108
-0.077373549 -0.013736932 0.67266673
-0.10600334 -0.0070242863 0.67050004
-0.10284459 -0.0060186675 0.67240006
-0.096838102 -0.0060121915 0.67159998
-0.092730962 -0.0063947625 0.67150009
-0.096703686 -0.0033910207 0.67371428
-0.092210837 -0.002561905 0.67237496
-0.10142096 0.0044933334 0.67400002
-0.095643818 0.00064190483 0.67400002
-0.09259104 0.0011912927 0.67314285
-0.088491172 0.0032095241 0.67400008
-0.10090667 0.0061866674 0.67200011
-0.097948268 0.0074853972 0.67366666
-0.087299049 0.0064190486 0.67400002
-0.13336192 0.014676192 0.67000002
-0.097569533 0.010912382 0.67400002
-0.13212943 0.017842859 0.67166668
-0.12857674 0.018890206 0.67071432
-0.12788649 0.023019621 0.67140001
-0.12461429 0.024922859 0.671
-0.12718605 0.026292067 0.67333335
-0.12270837 0.027891004 0.67066669
-0.11932382 0.029990477 0.67000002
-0.12155453 0.03134881 0.67175007
-0.11798239 0.033009052 0.67083335
-0.11421905 0.03381905 0.67000002
-0.11694573 0.035147622 0.671
-0.11421905 0.035095241 0.67000002
-0.097646676 -0.030393336 0.67900002
-0.092116438 -0.030705478 0.67875004
-0.087404773 -0.031328 0.67680007
-0.082156122 -0.031898495 0.67658341
-0.077498712 -0.032492995 0.67650008
-0.071905047 -0.032410614 0.67671436
-0.068694293 -0.031872064 0.6783334
-0.10061525 -0.02650032 0.67866671
-0.09729702 -0.027065989 0.67657149
-0.093081318 -0.027205804 0.67572737
-0.088071436 -0.028928574 0.67500001
-0.070637286 -0.0267298 0.67514294
-0.068368815 -0.027088337 0.67724997
-0.10092857 -0.023785716 0.67500001
-0.099642865 -0.023785716 0.67500001
-0.071277618 -0.022039335 0.67670006
-0.068297148 -0.021903703 0.67866665
-0.072731279 -0.017808415 0.6758334
-0.08618255 -0.011819366 0.67700005
-0.082737014 -0.011502722 0.67642868
-0.076807469 -0.011800795 0.67583334
-0.073824763 -0.013860953 0.67699999
-0.10607143 -0.0057857148 0.67500001
-0.086006671 -0.0097000003 0.67900002
-0.082542695 -0.0085179228 0.67854542
-0.078213483 -0.008956871 0.67871433
-0.10618267 -0.002716 0.67900002
-0.10210258 -0.0025292311 0.67753851
-0.098052531 -0.0021134696 0.67542863
-0.10525144 0.001937143 0.67800003
-0.10200746 0.001814892 0.67672735
-0.097710937 0.0029220516 0.67600006
-0.092403173 0.0036450794 0.67533338
-0.097355336 0.0080219926 0.67618191
-0.092698358 0.0076090801 0.67686671
-0.088740796 0.0085960319 0.67683339
-0.095060006 0.010993334 0.67900002
-0.092473343 0.010993334 0.67900008
-0.089886673 0.010993334 0.67900002
-0.096411437 -0.035828575 0.68400002
-0.085212387 -0.035776194 0.68300003
-0.082239054 -0.036520686 0.68300003
-0.077646405 -0.036274426 0.68185717
-0.072717093 -0.037595816 0.68293333
-0.067864873 -0.036644343 0.68300003
-0.10130143 -0.031819522 0.68183345
-0.096831262 -0.032161821 0.68154544
-0.092620008 -0.032677144 0.68166673
-0.087098576 -0.034126192 0.6825
-0.083018094 -0.034374289 0.68099999
-0.066659056 -0.032745339 0.68220007
-0.064041436 -0.032563653 0.68383336
-0.10194191 -0.028293652 0.68033338
-0.066299528 -0.027300004 0.68250006
-0.064491436 -0.028662859 0.68400002
-0.066673338 -0.022765715 0.68300009
-0.071234293 -0.017255239 0.68120003
-0.068838291 -0.017759049 0.68060005
-0.075771436 -0.011009525 0.68000001
-0.072635032 -0.012938096 0.68300003
-0.069702864 -0.014331429 0.68400002
-0.090416193 -0.0058542863 0.68300003
-0.087544858 -0.0074638901 0.68175
-0.082895242 -0.0061523812 0.68000001
-0.077545606 -0.0069758338 0.68137509
-0.074327432 -0.008720953 0.68340003
-0.10599366 -0.0023746034 0.68000001
-0.10426667 -0.00064761908 0.68000001
-0.086963214 -0.0033694375 0.68281823
-0.082049027 -0.0024688256 0.68266678
-0.078439288 -0.0029280954 0.68350005
-0.10620953 0.00064761908 0.68000001
-0.08586286 0.00065047626 0.68300003
-0.082670003 0.00065095245 0.68350005
-0.077520005 0.00065142859 0.68400002
-0.096779525 0.012017144 0.68200004
-0.094180956 0.012340954 0.68200004
-0.095147625 -0.040683813 0.68900001
-0.09252286 -0.040815052 0.68900007
-0.087929532 -0.04068381 0.68900007
-0.083073728 -0.040290099 0.68900007
-0.077320009 -0.041280001 0.68800002
-0.072019532 -0.04059381 0.6875
-0.068900004 -0.040027622 0.68900001
-0.063650481 -0.040027622 0.68900001
-0.095147625 -0.03871524 0.68900001
-0.092802688 -0.037206322 0.68754554
-0.087888494 -0.037429094 0.68727285
-0.082440004 -0.038602859 0.68700004
-0.077438645 -0.039325994 0.68657148
-0.067358106 -0.038584128 0.68666673
-0.062833101 -0.037309289 0.68725002
-0.059713341 -0.037402861 0.68900001
-0.092773341 -0.03462667 0.68600005
-0.089506671 -0.03462667 0.68600005
-0.061840951 -0.032685336 0.68640006
-0.058925908 -0.033465717 0.68900007
-0.062902428 -0.027672987 0.68736374
-0.059713338 -0.028872382 0.68900001
-0.066179052 -0.021620955 0.68800008
-0.06477429 -0.024208574 0.68700004
-0.067770861 -0.017171621 0.6882
-0.071648896 -0.011977779 0.68600005
-0.069302678 -0.012184572 0.68780005
-0.075841434 -0.005884286 0.68650007
-0.071952708 -0.0074122231 0.68683338
-0.069235563 -0.0082984138 0.68800008
-0.076089852 -0.0025433865 0.68677789
-0.072228134 -0.0027511753 0.68820018
-0.068900004 -0.0039371429 0.68900001
-0.081993334 0.0013066668 0.68600005
-0.076985084 0.00065428577 0.68700004
-0.072837144 0.0006561905 0.68900001
-0.085262865 -0.045605719 0.69400001
-0.082619056 -0.045605719 0.69400001
-0.077937618 -0.045572862 0.69350004
-0.07329461 -0.04556191 0.69333339
-0.061468579 -0.045605719 0.69400001
-0.057833336 -0.045936197 0.69400001
-0.05485905 -0.045605719 0.69400001
-0.096600004 -0.040085718 0.69000006
-0.092657149 -0.040085718 0.69000006
-0.086566046 -0.043173023 0.69033337
-0.08267507 -0.042862434 0.6904546
-0.077779651 -0.043505363 0.69212496
-0.071906358 -0.043540638 0.69266671
-0.067156732 -0.042199187 0.69228578
-0.06213678 -0.042560518 0.69238472
-0.057753958 -0.042023338 0.6925
-0.053517379 -0.042285956 0.69375008
-0.096600004 -0.038771432 0.69000006
-0.057481699 -0.037417781 0.69200003
-0.053537145 -0.038996197 0.69400001
-0.058349844 -0.032026984 0.69099998
-0.06158191 -0.026079049 0.69033337
-0.058674768 -0.027029287 0.69225001
-0.065057144 -0.021685716 0.69000006
-0.061987571 -0.022421014 0.69243753
-0.058824766 -0.023794288 0.69400001
-0.066110797 -0.016728783 0.69033337
-0.062379949 -0.017364562 0.69364297
-0.066476829 -0.012505821 0.69111115
-0.062749639 -0.012550053 0.69355565
-0.066578262 -0.007910477 0.69216669
-0.063451439 -0.007931429 0.69400001
-0.070314288 -0.0006571429 0.69000006
-0.067120515 -0.0025879124 0.6925385
-0.064112388 -0.0039657145 0.69400001
-0.070873573 0.0019792859 0.69225007
-0.068167761 0.0016036737 0.69300002
-0.060493339 -0.05118667 0.69800001
-0.059079051 -0.051113337 0.69700003
-0.085385717 -0.046995241 0.69500005
-0.082297981 -0.047786072 0.69687504
-0.077633061 -0.046922866 0.69671434
-0.071504131 -0.046710484 0.69733334
-0.067448668 -0.046956193 0.69618189
-0.06222399 -0.047888923 0.69572735
-0.057336666 -0.048389532 0.69600004
-0.053123545 -0.04668545 0.69600004
-0.049642861 -0.045671433 0.69500005
-0.066852383 -0.044347622 0.69500005
-0.050966669 -0.042361908 0.69500005
-0.048797507 -0.043155357 0.69712502
-0.055954289 -0.036048897 0.69666672
-0.052743953 -0.037592389 0.69600004
-0.049857147 -0.039220955 0.69800001
-0.056061592 -0.03301651 0.69800007
-0.057585716 -0.029123813 0.69500005
-0.057688341 -0.022544762 0.69625008
-0.060233336 -0.015885714 0.69500005
-0.058593817 -0.017688096 0.69650006
-0.060291119 -0.012589525 0.69566673
-0.058581531 -0.012354477 0.69740003
-0.060916908 -0.0079459529 0.69525009
-0.058074769 -0.007707905 0.69769996
-0.065528579 -0.00066190481 0.69500005
-0.061991371 -0.0024599319 0.69564289
-0.058470797 -0.0033219047 0.69766665
-0.070823811 0.0046333335 0.69500005
-0.066937469 0.0034621165 0.69588894
-0.063052647 0.0022339397 0.69690913
-0.071742676 0.0067632385 0.69620007
-0.06797795 0.0077133342 0.69715387
-0.064007938 0.0064231753 0.69766665
-0.069356829 0.011744127 0.69800007
-0.048944764 -0.056320004 0.70400006
-0.081905834 -0.051212743 0.70062506
-0.077613093 -0.052026667 0.70213342
-0.073046997 -0.050932389 0.70366681
-0.067271113 -0.050956201 0.70400012
-0.062940143 -0.051673207 0.70200008
-0.05693217 -0.05173789 0.70144451
-0.052245181 -0.052247439 0.70331264
-0.047566935 -0.052074809 0.70345455
-0.044251435 -0.051626675 0.70400012
-0.076666676 -0.048666671 0.70000005
-0.072462291 -0.048441716 0.70060003
-0.051167052 -0.048229527 0.70140004
-0.047430798 -0.047432702 0.70144451
-0.044475004 -0.047821671 0.70225
-0.047333341 -0.042222224 0.70000005
-0.044285402 -0.043840319 0.70100009
-0.055333339 -0.035333335 0.70000005
-0.051616039 -0.036265239 0.70083332
-0.048000004 -0.039333336 0.70000005
-0.055372864 -0.03268905 0.70050001
-0.052979048 -0.032297313 0.70254552
-0.055353098 -0.02801024 0.70025003
-0.053638101 -0.027489526 0.70400012
-0.055843659 -0.022247143 0.70083332
-0.053712115 -0.02288354 0.70371431
-0.056647908 -0.017143143 0.70310003
-0.054040384 -0.017834669 0.70400006
-0.056337252 -0.012249206 0.70144451
-0.054308575 -0.012068572 0.70400006
-0.055725954 -0.0076745246 0.70075005
-0.054282859 -0.0073717469 0.70366669
-0.056953333 -0.0025057145 0.70150006
-0.054308575 -0.0040228572 0.70400006
-0.061217334 0.0036013338 0.70020002
-0.058136195 0.0026739684 0.70166671
-0.067333341 0.0086666672 0.70000005
-0.062186886 0.0076344972 0.70044446
-0.058200639 0.0073585189 0.70244449
-0.067069106 0.012525185 0.7003333
-0.062733337 0.012013334 0.70075011
-0.058540858 0.011789622 0.70330006
-0.06729532 0.017410241 0.7030834
-0.062852584 0.017099936 0.70207149
-0.058736354 0.016303334 0.70350003
-0.065036193 0.020784764 0.70400006
-0.062354289 0.020784764 0.70400012
-0.057660956 0.028830478 0.70400006
-0.057441019 0.031998731 0.70293349
-0.052365944 0.032591432 0.70284629
-0.047491115 0.033442862 0.70233339
-0.0433098 0.033174016 0.70271438
-0.055937782 0.036994606 0.70200008
-0.0520931 0.03740048 0.70125014
-0.047383897 0.037373733 0.70075005
-0.043840319 0.036719054 0.70100009
-0.051940572 0.041900955 0.70280004
-0.047602143 0.041924048 0.70150006
-0.044730481 0.040724766 0.70100003
-0.066754296 -0.060011432 0.70800006
-0.05057143 -0.060011432 0.708
-0.04787429 -0.060011432 0.708
-0.072822861 -0.055965718 0.708
-0.067227021 -0.057177324 0.70781821
-0.063023098 -0.056283098 0.70775002
-0.056600481 -0.055926196 0.70749998
-0.052269876 -0.057038885 0.70609093
-0.047520958 -0.057596192 0.70524997
-0.042834356 -0.057407107 0.70530772
-0.038697142 -0.057410162 0.70733339
-0.072172582 -0.053223431 0.70559996
-0.067302123 -0.053559054 0.70588887
-0.061967861 -0.05455929 0.70725
-0.057233341 -0.054540005 0.70700002
-0.047671434 -0.054385718 0.70500004
-0.042165719 -0.052774288 0.70499998
-0.038282085 -0.053104419 0.7074545
-0.042874288 -0.047441147 0.70559996
-0.039782859 -0.04922286 0.708
-0.045177147 -0.041131433 0.708
-0.050357144 -0.035585716 0.70500004
-0.049153339 -0.037031434 0.70700002
-0.050625719 -0.031825718 0.70500004
-0.04841252 -0.03166531 0.70742863
-0.051028572 -0.027528575 0.70500004
-0.048513815 -0.027626192 0.70749998
-0.051315878 -0.022782752 0.70588887
-0.048911434 -0.022502288 0.70740002
-0.051703036 -0.017315499 0.70672733
-0.048644908 -0.017627757 0.70800006
-0.052129526 -0.012393906 0.70720005
-0.048548575 -0.013485715 0.708
-0.052469209 -0.0073993653 0.70633334
-0.055728573 -0.0013428573 0.70500004
-0.053809766 -0.0026888098 0.70624995
-0.055768099 0.0026890477 0.70550007
-0.054540005 0.0026933334 0.70700002
-0.055728577 0.0073857149 0.7050001
-0.054145005 0.0077350009 0.70625007
-0.056176197 0.012533335 0.70500004
-0.053984363 0.011836329 0.70728576
-0.061100002 0.019471429 0.70500004
-0.057135053 0.018149525 0.7058
-0.054597862 0.017525952 0.70774996
-0.066323094 0.022894762 0.70700002
-0.062541276 0.023538312 0.70611107
-0.057828285 0.022862799 0.70606244
-0.052905872 0.023476351 0.70766675
-0.066033497 0.027625557 0.70749998
-0.062561803 0.02757979 0.70633328
-0.057758667 0.02726743 0.70520002
-0.052457627 0.027572859 0.70616663
-0.047371965 0.028063599 0.70722222
-0.043338418 0.028517462 0.70733333
-0.066056676 0.032355003 0.70775002
-0.062598661 0.03230913 0.70674992
-0.059757147 0.034242861 0.70500004
-0.051700003 0.030214287 0.7050001
-0.047671434 0.030885717 0.70500004
-0.043419056 0.030885717 0.70500004
-0.065405719 0.035737146 0.708
-0.062496435 0.036891192 0.70749998
-0.058783054 0.037934478 0.70619994
-0.056824923 0.042000797 0.70749998
-0.05371429 0.04364286 0.70500004
-0.052735362 0.046333216 0.70762503
-0.04885143 0.046156671 0.70749998
-0.072305717 -0.060910672 0.71220005
-0.067474455 -0.061830953 0.71083343
-0.062461615 -0.061513811 0.7129001
-0.057080001 -0.061497383 0.71350002
-0.052657038 -0.061699152 0.71188897
-0.049070798 -0.062641591 0.71233338
-0.075268582 -0.058317147 0.71200001
-0.072403975 -0.058193497 0.7105
-0.069647625 -0.058828574 0.71000004
-0.061788332 -0.058065955 0.71100003
-0.057739601 -0.057933338 0.71085721
-0.054771431 -0.058828574 0.71000004
-0.036782671 -0.051714864 0.71260005
-0.034631431 -0.050928574 0.71300006
-0.041933499 -0.046667781 0.71016669
-0.037821334 -0.047312897 0.7117334
-0.046250161 -0.042188577 0.71066666
-0.041794285 -0.042021111 0.71166676
-0.037845541 -0.042537495 0.71309108
-0.046575677 -0.037715588 0.71063638
-0.042446375 -0.037852384 0.71269238
-0.046377886 -0.032998625 0.71033335
-0.043075245 -0.032884192 0.71340007
-0.046234924 -0.026838521 0.71044445
-0.043259162 -0.027405186 0.71344453
-0.046633337 -0.022553336 0.71224999
-0.044200003 -0.023120001 0.71400005
-0.046721719 -0.016656572 0.71100003
-0.050714288 -0.010819049 0.71000004
-0.047503177 -0.011820213 0.7114445
-0.050738096 -0.0074409535 0.71033335
-0.048559871 -0.0076575521 0.71242863
-0.051882293 -0.0024379049 0.7112
-0.048566774 -0.0021906879 0.71377784
-0.052187618 0.0027111114 0.7116667
-0.048372209 0.0025329005 0.71354562
-0.052005477 0.0072847628 0.71150005
-0.048524197 0.0066601909 0.71360004
-0.051760003 0.012431748 0.71200007
-0.049640004 0.012920001 0.71400005
-0.052162863 0.017613018 0.71133345
-0.049082097 0.018626479 0.71380007
-0.071379997 0.022433335 0.71380007
-0.069166675 0.023055241 0.71200007
-0.051746432 0.021307383 0.71025002
-0.047790479 0.022673143 0.71280003
-0.041706674 0.023346668 0.71400011
-0.037556671 0.022601668 0.71375012
-0.034655716 0.023103334 0.71350002
-0.075480007 0.027880004 0.71400011
-0.072591439 0.027135082 0.71233344
-0.069056794 0.027079405 0.71087503
-0.047071707 0.025613746 0.7104286
-0.041834921 0.02657 0.71233338
-0.037507329 0.027281392 0.71207708
-0.033776075 0.02681536 0.71287513
-0.075480007 0.030600002 0.71400005
-0.072368056 0.032072175 0.71311122
-0.069032505 0.032486074 0.71062499
-0.041247621 0.030428573 0.71000004
-0.038053524 0.030742288 0.71100003
-0.033903811 0.030514289 0.71200001
-0.070040002 0.036040001 0.71400005
-0.066796675 0.037233811 0.71083343
-0.063290246 0.039599288 0.71074998
-0.065867625 0.040063813 0.71300006
-0.058460005 0.043562859 0.71100008
-0.057360005 -0.070334293 0.71700001
-0.061457146 -0.066237144 0.71700001
-0.057367384 -0.067610249 0.71708333
-0.052619264 -0.067655034 0.71755558
-0.049941272 -0.067728579 0.71833342
-0.062378105 -0.064289711 0.71660006
-0.057606947 -0.06423524 0.71642864
-0.052530482 -0.06481111 0.71633339
-0.04977905 -0.064780958 0.71600002
-0.040232383 -0.036140956 0.71600002
-0.037714526 -0.037713572 0.71675003
-0.040733814 -0.032314129 0.71683335
-0.038175479 -0.033210956 0.71899998
-0.041095622 -0.027444193 0.71680003
-0.038346671 -0.028760001 0.71900004
-0.042800795 -0.022083653 0.71716678
-0.04606048 -0.018764764 0.71650004
-0.042531054 -0.017641526 0.71799999
-0.039031431 -0.016434286 0.71900004
-0.045751434 -0.011608573 0.71700001
-0.042615786 -0.012608846 0.71842855
-0.039031431 -0.013010478 0.71900004
-0.046310101 -0.0072415243 0.71720004
-0.043824762 -0.0075323819 0.71900004
-0.04649429 -0.003411293 0.71642864
-0.043887217 -0.0028357827 0.71842867
-0.04599867 0.0031388574 0.71660006
-0.044509526 0.0027390479 0.71900004
-0.04711606 0.0080970079 0.71700007
-0.04767004 0.012248065 0.71713334
-0.077035718 0.019515716 0.71900004
-0.072852626 0.018981906 0.71825004
-0.047115762 0.017319396 0.71700001
-0.042818863 0.018603429 0.71820003
-0.037626352 0.019154921 0.71833342
-0.034922861 0.019858096 0.71900004
-0.081095375 0.022597143 0.71900004
-0.077224128 0.022551537 0.71755558
-0.073844008 0.022248192 0.71660006
-0.04636953 0.02113905 0.71600002
-0.042732701 0.021593653 0.71600002
-0.036140956 0.02113905 0.71600002
-0.032383431 0.022409717 0.71740001
-0.029444763 0.023966668 0.71900004
-0.081030168 0.027314395 0.71899998
-0.077606782 0.027081696 0.7168889
-0.080573663 0.031270798 0.71900004
-0.077297844 0.032968491 0.7170909
-0.073873028 0.034322545 0.71600002
-0.076008573 0.036292382 0.71900004
-0.072009943 0.037421908 0.71814293
-0.069064766 0.038292386 0.71800005
-0.035780478 -0.03646905 0.72250009
-0.036494289 -0.030985717 0.72300005
-0.040513337 -0.026092384 0.72100008
-0.037580162 -0.026123017 0.72183341
-0.033693336 -0.026817145 0.72200006
-0.040828098 -0.022988096 0.72050005
-0.037982978 -0.022687741 0.72187507
-0.040457144 -0.019885715 0.72000003
-0.03781762 -0.018565714 0.722
-0.041142859 -0.010285715 0.72000003
-0.038083337 -0.01132143 0.72050005
-0.041161589 -0.0075457147 0.72033334
-0.038809288 -0.0078992862 0.72125006
-0.041478842 -0.00267291 0.72188896
-0.039221432 -0.0041280957 0.72250009
-0.042638928 0.0027522622 0.72212505
-0.043318097 0.0075638094 0.722
-0.042626373 0.012375895 0.7219376
-0.038215715 0.014115715 0.72300005
-0.086730234 0.019273097 0.72275007
-0.082306504 0.018684505 0.72181827
-0.078334764 0.017176669 0.7215001
-0.041866671 0.016471749 0.72066677
-0.037388165 0.016387351 0.72128576
-0.032863736 0.018205637 0.72141683
-0.028207241 0.019126097 0.72240007
-0.023111569 0.018784219 0.72285724
-0.097777143 0.024100002 0.72300005
-0.090891436 0.022722861 0.72300005
-0.087261476 0.022673335 0.72144455
-0.083794288 0.022628574 0.72000003
-0.027254721 0.022514636 0.7203638
-0.023657145 0.022285715 0.72000003
-0.090765715 0.025441907 0.72200006
-0.08694265 0.026946034 0.72133338
-0.083755106 0.027526533 0.72000003
-0.082628578 0.032018572 0.72300005
-0.036250003 -0.027619049 0.72500002
-0.033833336 -0.02554762 0.72500002
-0.035490479 -0.022233335 0.72500002
-0.033254288 -0.022399867 0.72528577
-0.035796192 -0.016999239 0.7256
-0.033864446 -0.017277144 0.7256667
-0.036222965 -0.01268836 0.72677785
-0.033526033 -0.012021272 0.72833341
-0.03652798 -0.0074446434 0.72712511
-0.034020003 -0.0076371431 0.72900003
-0.037075244 -0.002570885 0.72671431
-0.034020003 -0.0027771429 0.72900003
-0.040738098 0.0027619051 0.72500002
-0.037411191 0.0027710719 0.72750008
-0.034020003 0.0025457144 0.72900003
-0.040738098 0.0075952387 0.72500008
-0.037364844 0.0076111918 0.72658336
-0.034020003 0.0076371431 0.72900003
-0.095811442 0.013885715 0.72900003
-0.092340007 0.014232859 0.72900003
-0.087450713 0.014575001 0.72874999
-0.082252383 0.014008573 0.72820008
-0.078586198 0.013845716 0.72700006
-0.036956668 0.011858097 0.72533333
-0.032690823 0.012659656 0.7275455
-0.027972277 0.013638943 0.72822231
-0.023826033 0.014110478 0.72866672
-0.10113429 0.018282859 0.72900003
-0.097431429 0.017357145 0.72900003
-0.092637844 0.017443379 0.72736371
-0.08809565 0.016905718 0.72671431
-0.083339438 0.016170288 0.72560006
-0.076642863 0.015880954 0.72500002
-0.031761907 0.015880954 0.72500002
-0.027554713 0.016808892 0.72533327
-0.022125715 0.015902858 0.72600001
-0.018038573 0.01595762 0.72850001
-0.10053334 0.020106668 0.72800004
-0.097259581 0.021602223 0.72655559
-0.093391337 0.02168943 0.72530001
-0.089071438 0.020023812 0.72500002
-0.026238097 0.020023812 0.72500002
-0.096797153 0.02593 0.72600007
-0.09229143 0.027360003 0.72724998
-0.088652074 0.029243812 0.72533339
-0.087441742 0.032672901 0.72709095
-0.083125725 0.033388574 0.72533339
-0.032720953 -0.017404763 0.73100001
-0.032039367 -0.0076622227 0.73133337
-0.029240001 -0.0062657148 0.73100001
-0.031815875 -0.0025534392 0.73155552
-0.028953064 -0.003481769 0.73128575
-0.031740006 0.002907143 0.73250008
-0.029977145 0.0020914287 0.73200005
-0.016078096 0.0048933337 0.73400003
-0.080783501 0.0086133331 0.73333335
-0.03205397 0.0076644453 0.73166674
-0.027959397 0.0077973166 0.7322728
-0.022323335 0.0083714286 0.73250002
-0.017272145 0.0078497622 0.73275006
-0.014680001 0.006291429 0.73400003
-0.10164382 0.01462 0.73100001
-0.098626994 0.014155874 0.73100007
-0.092084907 0.011845716 0.73171431
-0.087943502 0.012318519 0.73222226
-0.082305841 0.011507738 0.73237503
-0.078133337 0.011160477 0.73250002
-0.031328574 0.010442858 0.73100001
-0.027549256 0.011039593 0.73100007
-0.021915972 0.012164908 0.73146152
-0.017877249 0.01261418 0.73133332
-0.10094763 0.016012382 0.73100001
-0.099555247 0.016012382 0.73100001
-0.095508575 0.02858286 0.73200005
-0.093564451 0.029485716 0.73133337
-0.027070859 -0.0012624763 0.73640007
-0.022460954 -0.00070190482 0.73700005
-0.018951429 -0.00070190482 0.73700005
-0.027368098 0.0028065084 0.73683345
-0.022461314 0.0028069045 0.73700011
-0.017809143 0.0028040004 0.73620003
-0.014720001 0.0035047622 0.73600006
-0.090545721 0.0084228572 0.73700005
-0.087778419 0.0084263505 0.73733342
-0.083109118 0.0077186399 0.73685718
-0.078506671 0.0091123814 0.73600006
-0.027337145 0.0063085719 0.73600006
-0.022430476 0.0063085719 0.73600006
-0.018925715 0.0063085719 0.73600006
-0.086918101 0.010514286 0.73600006
-0.084815241 0.010514286 0.73600006
-0.017934285 0.017935239 0.73850006
-0.014780001 0.018299049 0.73900002
-0.085621908 0.0042457143 0.74300003
-0.082742125 0.003535344 0.74255562
-0.078643344 0.0037107142 0.74225003
-0.08680477 0.006351429 0.74100006
-0.083866671 0.0063428576 0.74000001
-0.016914286 0.019028572 0.74000001
-0.096042864 -0.00071142864 0.74700004
-0.093970954 -0.00071190484 0.74750006
-0.092253342 0.0033838097 0.74800009
-0.087602869 0.0038333335 0.74540007
-0.091062859 0.0064028576 0.74700004
