# .PCD v0.7 - Point Cloud Data file format
VERSION 0.7
FIELDS x y z
SIZE 4 4 4
TYPE F F F
COUNT 1 1 1
WIDTH 656
HEIGHT 1
VIEWPOINT 0 0 0 1 0 0 0
POINTS 656
DATA ascii
-0.036692385 -0.0087066675 0.65300006
-0.053266671 -0.015666667 0.65800005
-0.042613335 -0.015666667 0.65800005
-0.053266671 -0.014413334 0.65800005
-0.045746669 -0.010653334 0.65800005
-0.042454101 -0.012398478 0.65746665
-0.038274646 -0.011717262 0.65612501
-0.042048581 -0.0076812995 0.65718186
-0.038460273 -0.0079419054 0.65585721
-0.051777147 -0.020837145 0.66300005
-0.061248574 -0.015785715 0.66300005
-0.057440747 -0.016902754 0.66277784
-0.052865021 -0.017762797 0.6613335
-0.047849189 -0.017359799 0.66107148
-0.04426524 -0.01783254 0.66083336
-0.061669525 -0.013680954 0.66300005
-0.057924706 -0.012745398 0.6625334
-0.052874546 -0.012472128 0.66146678
-0.047966227 -0.012715049 0.66093332
-0.044628575 -0.014457144 0.66000003
-0.057460003 -0.0094714295 0.66300005
-0.053671431 -0.0094714295 0.66300005
-0.047369786 -0.0080761043 0.66154552
-0.043939624 -0.0071754293 0.66100001
-0.041463815 -0.0039990479 0.66300005
-0.060953341 -0.026547622 0.66900003
-0.057314605 -0.026534608 0.66866672
-0.053440955 -0.026083812 0.66800004
-0.040140003 -0.026760001 0.66900003
-0.038172383 -0.026720002 0.6680001
-0.06562572 -0.021025715 0.66900003
-0.062127896 -0.022741366 0.66857141
-0.057150722 -0.022861311 0.66675001
-0.052055236 -0.023127891 0.66657144
-0.047090828 -0.022709178 0.6673637
-0.042159367 -0.023376299 0.66733342
-0.038825292 -0.022902329 0.66588891
-0.06562572 -0.019114286 0.66900003
-0.062304106 -0.01822718 0.667
-0.05826667 -0.019000001 0.66500002
-0.048133336 -0.019633334 0.66500002
-0.039266668 -0.019633334 0.66500002
-0.062700003 -0.014566667 0.66500002
-0.056459147 -0.0074839056 0.66610003
-0.052017491 -0.0073393891 0.66607141
-0.048242383 -0.0057128575 0.66650003
-0.056068577 -0.0038228575 0.66900003
-0.053732388 -0.0040352386 0.66900003
-0.046392146 -0.0041307146 0.66725004
-0.043342859 -0.0035936511 0.66600001
-0.057638578 -0.030102383 0.67250001
-0.053920005 -0.030169526 0.67400002
-0.046859052 -0.030169528 0.67400002
-0.042461824 -0.031278964 0.67272729
-0.038981907 -0.030674286 0.671
-0.06654413 -0.026318099 0.67400002
-0.06316562 -0.027782964 0.67144448
-0.057501789 -0.028751312 0.67087507
-0.052217629 -0.027773812 0.67189997
-0.047349371 -0.027514605 0.6718334
-0.042561717 -0.027607238 0.671
-0.038923811 -0.028714288 0.67000002
-0.066594608 -0.023050478 0.67233342
-0.064447626 -0.02424762 0.67000002
-0.047857147 -0.024885718 0.67000002
-0.042752385 -0.024885716 0.67000002
-0.068041906 -0.01989905 0.67400002
-0.062372543 -0.0066214292 0.67283332
-0.058946989 -0.0061711119 0.67033339
-0.062048659 -0.0027369699 0.67290908
-0.057961829 -0.0021297622 0.67125005
-0.052080519 -0.0022122345 0.67130768
-0.047550485 -0.0020238096 0.67166674
-0.060980957 0.00064190483 0.67400002
-0.057786245 0.0014971431 0.67333341
-0.053010799 0.0010692065 0.67333335
-0.047286987 0.00064190489 0.67400002
-0.044291433 0.00064190483 0.67400002
-0.045710478 -0.035409525 0.67600006
-0.070917785 -0.030824449 0.67900008
-0.067155249 -0.031641111 0.67799997
-0.062439058 -0.03147291 0.67744452
-0.057553336 -0.031686671 0.67900008
-0.052924603 -0.032272067 0.67766666
-0.047797292 -0.032641102 0.67607701
-0.044357147 -0.034071431 0.67500001
-0.070981637 -0.027414288 0.67842859
-0.068159051 -0.027554763 0.67675
-0.070872858 -0.023838572 0.67650002
-0.06878572 -0.022500001 0.67500007
-0.063642859 -0.0057857148 0.67500001
-0.063642859 -0.00064285717 0.67500001
-0.065265238 0.0025857142 0.67850006
-0.062609613 0.002754719 0.6764546
-0.057777151 0.0039499328 0.67514294
-0.052580953 0.0034807622 0.67660004
-0.048122514 0.0028743725 0.67700005
-0.061696202 0.0077528576 0.6783334
-0.057762545 0.0074244454 0.67766666
-0.053207092 0.0066782022 0.67855555
-0.049793337 0.0064666672 0.67900002
-0.061433338 0.010993334 0.67900008
-0.058846671 0.010993334 0.67900002
-0.071631193 -0.036466908 0.68375003
-0.067699052 -0.036453813 0.68350005
-0.062326238 -0.036993947 0.68363643
-0.057119213 -0.036996037 0.68149996
-0.051817555 -0.037426941 0.68257153
-0.047918204 -0.037657462 0.68300003
-0.04488286 -0.037077144 0.68300003
-0.073000163 -0.032709684 0.68233341
-0.06752453 -0.034412146 0.68175006
-0.061951753 -0.034008574 0.68233341
-0.057781275 -0.033758733 0.68166673
-0.051809527 -0.034323812 0.68000001
-0.073831327 -0.027063495 0.68199998
-0.071005717 -0.016285716 0.68400002
-0.071005717 -0.013680002 0.68400002
-0.069668896 -0.012370477 0.68366671
-0.067748576 -0.009771429 0.68400002
-0.045980956 0.0045333337 0.68000001
-0.042994291 0.0045600003 0.68400002
-0.065938666 0.0074148583 0.68280005
-0.064114287 0.008419048 0.68000001
-0.055695243 0.0097142868 0.68000001
-0.051893458 0.0090822624 0.68112504
-0.047532301 0.0076190485 0.68200004
-0.044948574 0.0065142862 0.68400002
-0.039737146 0.0065142862 0.68400002
-0.065794289 0.011074287 0.68400002
-0.062346593 0.013315955 0.68191671
-0.057033338 0.013124254 0.68206668
-0.052312952 0.012103047 0.68320006
-0.048821431 0.011717619 0.68350005
-0.044948574 0.012377144 0.68400002
-0.061537858 0.016605478 0.68375003
-0.058220387 0.016802097 0.68380004
-0.075461909 -0.040027622 0.68900001
-0.072180957 -0.040027622 0.68900001
-0.068243816 -0.040027622 0.68900001
-0.063213021 -0.041777462 0.68900007
-0.057744764 -0.041340001 0.68900001
-0.075790003 -0.037402861 0.68900001
-0.073085338 -0.037785146 0.68640006
-0.067573912 -0.038819622 0.68620008
-0.062742144 -0.039541192 0.68625009
-0.057577144 -0.03991143 0.68700004
-0.05365143 -0.03991143 0.68700004
-0.072520003 -0.015026668 0.68600005
-0.07254114 -0.012155239 0.68620008
-0.071145244 -0.0078676194 0.68850005
-0.068482235 -0.0076317471 0.68700004
-0.070649855 -0.0041558733 0.68900001
-0.068120241 -0.0039288099 0.68774998
-0.070212387 0.0045933337 0.68900001
-0.068900004 0.0039371429 0.68900001
-0.041160002 0.0045733335 0.68600005
-0.037837692 0.0040172795 0.68671435
-0.033903174 0.0015311111 0.68900007
-0.067842141 0.0081945248 0.68825006
-0.045559369 0.0093733342 0.68666673
-0.042540956 0.0075946669 0.68720001
-0.037555244 0.0064123818 0.68700004
-0.06683524 0.012448572 0.68800002
-0.050960004 0.013720001 0.68600005
-0.046822224 0.01255852 0.68599999
-0.043837145 0.012429526 0.68700004
-0.066798687 0.017026072 0.68762505
-0.063404553 0.01779397 0.68633336
-0.056898374 0.01821946 0.68671441
-0.053020004 0.01580422 0.68728578
-0.048052769 0.015582286 0.68740004
-0.066931427 0.020341907 0.68900001
-0.062674396 0.021184023 0.68788892
-0.058824193 0.021093907 0.68780011
-0.080711432 0.049214289 0.68900001
-0.078086674 0.049214289 0.68900001
-0.080711432 0.050526671 0.68900001
-0.079399049 0.050526671 0.68900001
-0.077964529 -0.045589291 0.69375002
-0.072415881 -0.04556191 0.69333339
-0.06710358 -0.045392144 0.69075006
-0.061904293 -0.04544143 0.69150007
-0.056938898 -0.046387784 0.69250005
-0.053726673 -0.046577286 0.69157147
-0.085262865 -0.040318098 0.69400001
-0.082244411 -0.041617978 0.69362497
-0.077863827 -0.042291746 0.69166672
-0.072425403 -0.042798899 0.69133341
-0.067028582 -0.042714294 0.69000006
-0.061816193 -0.043403335 0.69050002
-0.057912383 -0.043434769 0.69100004
-0.05258365 -0.04272477 0.69016671
-0.085262865 -0.038335241 0.69400001
-0.082560167 -0.038307466 0.69350004
-0.078511015 -0.037240535 0.69144446
-0.07738357 -0.032927621 0.69150007
-0.077669889 -0.027646074 0.69112504
-0.074687622 -0.011236191 0.69400001
-0.073379055 -0.0079000005 0.69100004
-0.073034577 -0.0026357144 0.69210005
-0.069000006 -0.0019714287 0.69000006
-0.07236512 0.0024579223 0.69245458
-0.033076193 0.0037238095 0.69000006
-0.07132826 0.0078294184 0.69133335
-0.069066674 0.0081136515 0.69066668
-0.041414529 0.0092035718 0.69025004
-0.037424225 0.008956735 0.69285715
-0.032957025 0.0065927394 0.69212496
-0.071280643 0.012540953 0.69300002
-0.068721429 0.01282381 0.69050002
-0.041948032 0.012350476 0.69285715
-0.038335241 0.011236191 0.69400001
-0.071162544 0.016744127 0.69400001
-0.069250003 0.017146192 0.69250005
-0.052093551 0.018046774 0.69044447
-0.046944592 0.017761907 0.69072729
-0.043742288 0.016254285 0.69380003
-0.071344644 0.022460122 0.69362497
-0.067398667 0.022905003 0.69041669
-0.062691435 0.023788571 0.69000006
-0.057440013 0.022942167 0.69181818
-0.052799053 0.020900637 0.69300008
-0.047943428 0.021661526 0.69340008
-0.071331672 0.027740479 0.69350004
-0.067224652 0.027681194 0.69199997
-0.062056519 0.027802801 0.69173336
-0.058110125 0.02674512 0.69337499
-0.072043814 0.032717142 0.69400001
-0.067376912 0.032367703 0.69358337
-0.062623292 0.032082964 0.69377786
-0.082619056 0.038996194 0.69400001
-0.077992387 0.038996194 0.69400001
-0.072696283 0.037008815 0.6939168
-0.06895937 0.03679302 0.69400001
-0.085881725 0.042609718 0.69260001
-0.082619786 0.042347405 0.69230771
-0.077879049 0.042238098 0.69300008
-0.073056042 0.041809842 0.69316673
-0.082676411 0.046975899 0.69023091
-0.077561118 0.046668258 0.69016671
-0.073499337 0.046772525 0.69171435
-0.08214286 0.051257148 0.69000006
-0.078857146 0.051257148 0.69000006
-0.056504767 -0.05118667 0.69800001
-0.082252912 -0.046991114 0.69711113
-0.077238649 -0.047671299 0.69657147
-0.072640769 -0.047145147 0.6972
-0.069135241 -0.047198098 0.69800001
-0.062018294 -0.047409911 0.6972
-0.058022622 -0.048405003 0.69625008
-0.0549381 -0.049642861 0.69500005
-0.085385717 -0.041700002 0.69500005
-0.083460487 -0.043716669 0.69550002
-0.082274929 -0.035828575 0.69666672
-0.080566905 -0.032823097 0.69625008
-0.080090478 -0.029785717 0.69500005
-0.079106674 -0.015289525 0.69800001
-0.077002861 -0.011948097 0.69700003
-0.076752618 -0.0089707151 0.69774997
-0.074795246 -0.0079428572 0.69500005
-0.07697048 -0.0029419048 0.69757146
-0.074795246 -0.00066190481 0.69500005
-0.076907896 0.0029386398 0.69700009
-0.074795246 0.0024269843 0.69500005
-0.076625906 0.0075691431 0.6972
-0.074227899 0.0080374163 0.69500011
-0.035080954 0.0092666671 0.69500005
-0.032502387 0.0092874607 0.69650006
-0.029193655 0.008627302 0.69666672
-0.075585335 0.012353714 0.69740003
-0.073471442 0.012576192 0.69500005
-0.040376194 0.013238097 0.69500005
-0.036854479 0.012860573 0.69600004
-0.032925989 0.012430749 0.69742858
-0.02791024 0.011629287 0.69774997
-0.075091198 0.017278334 0.69775003
-0.073135875 0.01767651 0.6960001
-0.041939624 0.017519049 0.69680005
-0.037222147 0.016617065 0.69791669
-0.033902861 0.015289525 0.69800001
-0.029914288 0.015289525 0.69800001
-0.075543337 0.022153493 0.6978333
-0.073630005 0.022551905 0.69650006
-0.052952386 0.023431428 0.69500011
-0.047299433 0.023716191 0.69560015
-0.043874286 0.021937145 0.69800001
-0.076596193 0.028336193 0.69733334
-0.074068993 0.028094832 0.69528586
-0.056530617 0.029071571 0.69600016
-0.052787084 0.027675649 0.69657153
-0.048566148 0.027693944 0.69681823
-0.081100956 0.033902861 0.69800001
-0.077486552 0.032686312 0.69687504
-0.074133337 0.031771429 0.69500005
-0.060732387 0.033348259 0.69566673
-0.057874765 0.032338575 0.69650006
-0.085826986 0.038611114 0.69500005
-0.082097955 0.03694528 0.69561553
-0.07744287 0.036404762 0.69500011
-0.072809532 0.037066668 0.69500005
-0.066692106 0.037258953 0.69610012
-0.062584266 0.037338797 0.69760007
-0.059163813 0.038556196 0.69800001
-0.086793974 0.040414926 0.69566673
-0.071485713 0.043685719 0.69500005
-0.067984156 0.04229055 0.69692862
-0.062820002 0.040882859 0.69800001
-0.071265087 0.046112701 0.69500005
-0.069060713 0.046483099 0.69725001
-0.08515048 -0.050956197 0.70400006
-0.082293816 -0.050848417 0.70250005
-0.07742174 -0.051393338 0.70245463
-0.072797269 -0.051043224 0.70287502
-0.067430295 -0.050807815 0.70380002
-0.062405083 -0.051248897 0.70288891
-0.058918674 -0.0511701 0.70140004
-0.087316208 -0.048271623 0.70200008
-0.084060475 -0.048701432 0.70050001
-0.075333342 -0.048666671 0.70000005
-0.071777791 -0.048666671 0.70000005
-0.067104764 -0.048161145 0.70040005
-0.063364133 -0.048689842 0.70033336
-0.08515048 -0.035535239 0.70400006
-0.082919061 -0.032445144 0.70100003
-0.081760548 -0.027825307 0.70285726
-0.081459373 -0.022543177 0.70300007
-0.081586197 -0.011368732 0.70216668
-0.079333335 -0.012000001 0.70000005
-0.082097143 -0.007189048 0.70225006
-0.078027867 -0.0070021437 0.70025003
-0.082028463 -0.0031967196 0.7027778
-0.079089336 -0.0022668575 0.70020002
-0.081127621 0.0013409525 0.70400006
-0.079293333 0.0022746669 0.70200008
-0.078836665 0.0073476196 0.70150006
-0.078582324 0.012243916 0.70122224
-0.031333335 0.013333335 0.70000005
-0.028285718 0.013428573 0.70000011
-0.024666669 0.013333335 0.70000005
-0.078150481 0.017366353 0.7013334
-0.04066667 0.019333335 0.70000005
-0.037333336 0.019333335 0.70000005
-0.032037687 0.0176415 0.70085722
-0.027577145 0.017024552 0.70244449
-0.024760637 0.016732065 0.7026667
-0.081127621 0.024137145 0.70400006
-0.078334674 0.02295219 0.70060009
-0.046000004 0.024666669 0.70000005
-0.042539127 0.022797894 0.7010715
-0.037620138 0.022627747 0.70286679
-0.033182316 0.021900138 0.70285726
-0.081548765 0.027717907 0.70300001
-0.078463338 0.026895082 0.7001667
-0.046043813 0.027360003 0.70066667
-0.042796195 0.027418416 0.70216674
-0.038384765 0.027321907 0.70400006
-0.085820958 0.034194287 0.70400006
-0.082039043 0.031912383 0.7017501
-0.079333335 0.030666668 0.70000005
-0.05566667 0.033 0.70000005
-0.052018493 0.032678809 0.70025003
-0.047267102 0.032219831 0.70081824
-0.043629646 0.031260122 0.70212501
-0.03821715 0.03017143 0.70400012
-0.095878102 0.036205716 0.70400006
-0.092157863 0.036974214 0.70375007
-0.087644286 0.036794957 0.70250005
-0.060666669 0.035333335 0.70000005
-0.057064567 0.037154492 0.70021427
-0.05250635 0.036901273 0.70233339
-0.048875242 0.035484765 0.70300001
-0.066000007 0.044000003 0.70000005
-0.062562786 0.043227546 0.70008337
-0.057968836 0.042188574 0.70109093
-0.066809528 0.046768099 0.7015
-0.063210294 0.046372958 0.70160002
-0.092377149 -0.060011432 0.708
-0.066754289 -0.060011432 0.708
-0.095074289 -0.056640003 0.708
-0.092275456 -0.057251751 0.70722222
-0.087838925 -0.056475651 0.70714295
-0.077542864 -0.05630286 0.708
-0.073497146 -0.055965718 0.708
-0.065719768 -0.056957386 0.70775002
-0.063428581 -0.056257144 0.70600003
-0.092584699 -0.052684832 0.70664281
-0.087626405 -0.052595798 0.70542854
-0.08235158 -0.053909395 0.70628577
-0.077941433 -0.054088574 0.70550001
-0.072087154 -0.05360429 0.70574999
-0.067266762 -0.053410955 0.70629996
-0.063338101 -0.053938102 0.7050001
-0.091090485 -0.048566669 0.7050001
-0.089300007 -0.047671434 0.70500004
-0.085758865 -0.031905148 0.70679998
-0.083928578 -0.030214287 0.70500004
-0.085573815 -0.028299525 0.70749998
-0.084007949 -0.027553335 0.70566672
-0.083605729 -0.02329143 0.70679998
-0.083435722 -0.00067285716 0.70650005
-0.081961274 0.0029180958 0.70733333
-0.081136197 0.007745239 0.70700002
-0.081386909 0.012104524 0.70624995
-0.081846036 0.017938731 0.7063334
-0.026894286 0.019499049 0.70600003
-0.082762867 0.022877144 0.70650005
-0.035585716 0.024842858 0.70500004
-0.031606309 0.023369642 0.70612502
-0.027632065 0.020893019 0.70766664
-0.086513184 0.028088417 0.70783329
-0.083801195 0.027260715 0.70674998
-0.035921432 0.027864289 0.70500004
-0.033441275 0.0271581 0.70700002
-0.09538763 0.032092385 0.70700002
-0.09272065 0.032847945 0.70633334
-0.087672539 0.032009937 0.7065714
-0.083928578 0.030885717 0.70500004
-0.04213215 0.033067863 0.70499998
-0.037850827 0.032593165 0.70627266
-0.034340002 0.030300003 0.70700002
-0.051364288 0.039278574 0.70500004
-0.047226302 0.038021173 0.70607686
-0.042812251 0.037523266 0.70714289
-0.039745402 0.037051432 0.70733333
-0.05678191 0.043764766 0.70700002
-0.052851841 0.0420698 0.70757145
-0.047401592 0.041112073 0.70766664
-0.071842864 0.049014293 0.7050001
-0.062471747 0.048366036 0.70533335
-0.058789685 0.04689794 0.70683336
-0.086360008 -0.060520004 0.71400005
-0.075826988 -0.061340641 0.71300006
-0.072523504 -0.060322225 0.71166676
-0.068367869 -0.060921192 0.71075004
-0.090060003 -0.058911432 0.71100003
-0.086707823 -0.058756571 0.71240002
-0.082542159 -0.057516892 0.71200007
-0.077160969 -0.058378916 0.71157146
-0.072390601 -0.057676315 0.71037501
-0.068500839 -0.057676077 0.71037501
-0.091729216 -0.037371114 0.71344453
-0.088189341 -0.03698362 0.71120006
-0.091693662 -0.032602705 0.71316683
-0.088054843 -0.032766946 0.7104286
-0.090440005 -0.027200002 0.71400005
-0.087639898 -0.027051326 0.71211112
-0.08657144 -0.023281908 0.71200007
-0.085000008 0.0034000003 0.71400005
-0.084084138 0.002939048 0.71200007
-0.085000008 0.0088400003 0.71400005
-0.083948955 0.0071885721 0.71200007
-0.086360008 0.01224 0.71400005
-0.084025718 0.012195954 0.71150005
-0.090440005 0.019720001 0.71400005
-0.087119043 0.018170001 0.7132501
-0.084191754 0.017153017 0.71100008
-0.023800002 0.019720001 0.71400005
-0.091338791 0.022616057 0.71342868
-0.087420747 0.022362119 0.7115556
-0.084523812 0.021638097 0.71000004
-0.026911749 0.022842966 0.71244454
-0.023800004 0.022440001 0.71400011
-0.097586848 0.02796052 0.7129091
-0.09242852 0.026903879 0.71135736
-0.08828941 0.026553931 0.71037501
-0.03121973 0.027740547 0.7104286
-0.027150478 0.027152862 0.71275014
-0.023800002 0.025160002 0.71400005
-0.097318672 0.031536575 0.71060002
-0.091961905 0.030428573 0.71000004
-0.035888575 0.033857144 0.71100003
-0.032387562 0.032660704 0.71146679
-0.027452517 0.032400824 0.71300018
-0.037710309 0.037833594 0.71054554
-0.033952385 0.035989527 0.71300006
-0.051728573 0.043614291 0.71000004
-0.047287833 0.043078307 0.71044445
-0.042214032 0.042833768 0.71181822
-0.038478415 0.042328261 0.71300006
-0.080117151 -0.065052383 0.71900004
-0.091073342 -0.062313337 0.71900004
-0.087452032 -0.061832264 0.71737504
-0.082409434 -0.062322002 0.71750003
-0.078701437 -0.061642379 0.71650004
-0.095181912 -0.040400956 0.71900004
-0.092934765 -0.040316671 0.71750003
-0.094828896 -0.03752286 0.71633339
-0.092642233 -0.028908256 0.71700001
-0.087201789 -0.0023948811 0.71812499
-0.087413482 0.0026371432 0.71785718
-0.0879656 0.007686072 0.71737504
-0.090988897 0.012997143 0.71833342
-0.088771909 0.012290477 0.71700007
-0.096825346 0.019584192 0.71900004
-0.09222544 0.01776086 0.7173
-0.08898858 0.016706668 0.71600002
-0.10239889 0.022692036 0.71809095
-0.097618528 0.022526881 0.7167778
-0.094291814 0.022241907 0.71640003
-0.021901906 0.022586033 0.71866673
-0.016776668 0.023624288 0.71900004
-0.012325714 0.023281906 0.71900004
-0.1061381 0.025336193 0.71900004
-0.10237537 0.025934644 0.71662503
-0.097512387 0.025230478 0.71600002
-0.022422513 0.027517579 0.71745455
-0.016814712 0.026857888 0.71899998
-0.011640953 0.026705716 0.71900004
-0.025336193 0.0342381 0.71900004
-0.022951432 0.031938098 0.71785718
-0.031411432 0.03619143 0.71700001
-0.088457152 -0.070628576 0.72000003
-0.090202861 -0.066102862 0.72300005
-0.087016203 -0.067054108 0.72045469
-0.083431438 -0.065577149 0.72100008
-0.090829052 -0.063992858 0.72250009
-0.087085724 -0.063771434 0.72000003
-0.095711432 -0.015837144 0.72300005
-0.093832389 -0.016288891 0.72266674
-0.095711432 -0.011017144 0.72300005
-0.09257891 -0.012212895 0.72169238
-0.089828581 -0.012342858 0.72000003
-0.091313578 -0.0077385716 0.7222501
-0.088702865 -0.0068761911 0.72200006
-0.091037154 -0.0029812702 0.72233343
-0.08945334 -0.0029758732 0.72066677
-0.090994924 0.00252127 0.72200006
-0.089371443 0.0034285716 0.72000003
-0.091877155 0.0078287628 0.72100008
-0.089828581 0.0061714291 0.72000003
-0.09705548 0.014110715 0.72275007
-0.093108818 0.012367858 0.7215001
-0.10535143 0.019968573 0.72300005
-0.10219905 0.01894626 0.72157151
-0.097494014 0.017163334 0.72090018
-0.093942866 0.01577143 0.72000003
-0.10754826 0.022471432 0.72233343
-0.10491429 0.021257143 0.72000003
-0.018363098 0.022136906 0.72075009
-0.013585143 0.022091812 0.72040004
-0.019102044 0.028114289 0.72000003
-0.012922382 0.027677622 0.72050017
-0.021257143 0.032914288 0.72000003
-0.018054115 0.032174464 0.72154552
-0.012158096 0.030971434 0.72266674
-0.019968573 0.035117146 0.72300005
-0.097172074 -0.013125081 0.72533333
-0.097454764 -0.0074416669 0.727
-0.094250008 -0.0072500007 0.72500002
-0.10067143 -0.0020828573 0.72900003
-0.097538181 -0.0025804334 0.72727275
-0.093921073 -0.0027620241 0.72512496
-0.10166327 0.0028763269 0.72900003
-0.097646847 0.0025843296 0.728091
-0.093953691 0.0027636909 0.725375
-0.10136572 0.0090257153 0.72900003
-0.097504169 0.0077920239 0.72737503
-0.094250008 0.0072500007 0.72500002
-0.11198588 0.014113812 0.72883338
-0.10761429 0.014580002 0.72900003
-0.1024976 0.012537586 0.72830772
-0.097799793 0.01190709 0.72600001
-0.094595246 0.010357143 0.72500002
-0.020828573 0.014580001 0.72900003
-0.018668573 0.014520001 0.72600001
-0.11236053 0.017301908 0.72677785
-0.10774158 0.017421043 0.72645456
-0.10277033 0.016359843 0.72583336
-0.021493336 0.017333336 0.7280001
-0.017286353 0.01728487 0.72600001
-0.013532247 0.01748327 0.72600001
-0.11185715 0.020714287 0.72500002
-0.10875001 0.020369049 0.72500002
-0.021404764 0.020023812 0.72500008
-0.017261906 0.020023812 0.72500008
-0.013809524 0.020023812 0.72500002
-0.015880954 0.033833336 0.72500002
-0.012956601 0.032741364 0.72700006
-0.10094763 -0.0076580956 0.73100001
-0.099555247 -0.0090504764 0.73100001
-0.1055562 0.0048933337 0.73400003
-0.10317715 0.0048800004 0.73200005
-0.099555247 0.0048733335 0.73100001
-0.11502858 0.007668572 0.73200005
-0.11218953 0.0090587307 0.73166674
-0.10705067 0.00794381 0.73180002
-0.10259975 0.0072647631 0.73142856
-0.099555247 0.0062657148 0.73100001
-0.11544033 0.012309524 0.73166674
-0.11262822 0.011663215 0.731125
-0.10740322 0.011708659 0.73100007
-0.021581907 0.01322762 0.73100001
-0.11487143 0.016012382 0.73100001
-0.10614477 -0.077649534 0.74800003
-0.10258286 -0.077649534 0.74800009
-0.098071121 -0.077886999 0.74800009
-0.092609532 -0.077293336 0.74800009
-0.089047626 -0.076224767 0.74800003
-0.11275975 -0.072357558 0.74800009
-0.10753405 -0.072638825 0.74775004
-0.10249703 -0.072602749 0.74737501
-0.097672671 -0.073041819 0.74750012
-0.093796834 -0.074325085 0.74800003
-0.11687868 -0.067053147 0.74739999
-0.11244263 -0.067608349 0.74725008
-0.10750625 -0.067635767 0.74755567
-0.10251398 -0.067630962 0.74750012
-0.098888576 -0.067585722 0.7470001
-0.12086731 -0.06245207 0.74800003
-0.11740039 -0.06311696 0.74800009
-0.11287406 -0.063261993 0.74775004
-0.10899429 -0.064114287 0.74800003
-0.11469334 -0.059127621 0.74800003
-0.11500001 -0.077142864 0.75000006
-0.11204018 -0.07735689 0.75018191
-0.10857144 -0.077857152 0.75000012
-0.09690477 -0.077380963 0.75000012
-0.09300001 -0.077857152 0.75000006
-0.10714287 -0.065000005 0.75000006
-0.10285715 -0.065000005 0.75000006
-0.12261906 -0.061904766 0.75000012
-0.11857144 -0.06071429 0.75000006
-0.11178572 -0.061071433 0.75000006
-0.10712781 -0.062117409 0.75127274
-0.10261203 -0.062497027 0.75212502
-0.1221697 -0.05715508 0.75016677
-0.11732738 -0.057019558 0.75026673
-0.11231699 -0.057230011 0.7511667
-0.10751774 -0.057342622 0.75262511
-0.10325267 -0.057614289 0.75214297
-0.12151366 -0.053236835 0.75200003
-0.11773577 -0.052449703 0.75254554
-0.11259144 -0.053427145 0.75300002
-0.10711315 -0.05348457 0.75280005
-0.10357144 -0.053571433 0.75000006
-0.11576667 -0.051052384 0.75500005
-0.11211063 -0.05168803 0.7552858
-0.10789263 -0.051788338 0.7552501
-0.12008096 -0.04889524 0.75500005
-0.11697867 -0.047769334 0.75540012
-0.11272348 -0.047764972 0.75664294
-0.10843049 -0.049286351 0.7573334
-0.11700001 -0.043200001 0.75600004
-0.11350667 -0.043412954 0.75720006
-0.11074287 -0.046323813 0.76000005
-0.10742117 -0.046659898 0.76155561
-0.11508572 -0.041257147 0.76000005
-0.11173224 -0.042231273 0.76016676
-0.1090303 -0.043118291 0.76220006
-0.11204857 -0.039524764 0.7615
-0.10972667 -0.039966669 0.76300001
-0.10689183 -0.041997906 0.76560009
-0.1044581 -0.042367622 0.76700002
-0.11001429 -0.038614288 0.76500005
-0.10844858 -0.038261272 0.7676667
