# .PCD v0.7 - Point Cloud Data file format
VERSION 0.7
FIELDS x y z
SIZE 4 4 4
TYPE F F F
COUNT 1 1 1
WIDTH 536
HEIGHT 1
VIEWPOINT 0 0 0 1 0 0 0
POINTS 536
DATA ascii
-0.08215715 0.0042600003 0.63900006
-0.085808575 0.0060857143 0.63900006
-0.083105527 0.005718858 0.63880008
-0.079598099 0.0054685716 0.63800001
-0.09067715 0.013388572 0.63900006
-0.087617509 0.013385834 0.63887501
-0.082716793 0.013380359 0.63862503
-0.079660475 0.01337762 0.63850003
-0.090677157 0.016431428 0.63900006
-0.087583698 0.017030003 0.63862503
-0.082540013 0.016993573 0.63725007
-0.07797341 0.017279664 0.63821429
-0.08215715 0.020082859 0.63900006
-0.077288583 0.020488573 0.63900006
-0.096868813 0.0085830959 0.64375007
-0.092422232 0.0085682552 0.6426667
-0.087942623 0.0085500013 0.64125001
-0.082963467 0.0080588749 0.64181828
-0.079847626 0.0067047626 0.64000005
-0.097406887 0.012369085 0.64200002
-0.093023203 0.012029867 0.64078581
-0.087873816 0.010984048 0.64074999
-0.082743384 0.011063598 0.6414445
-0.077059053 0.012842223 0.64216673
-0.07334134 0.013344382 0.64280003
-0.10120001 0.015946668 0.64400005
-0.097945362 0.017140359 0.64275002
-0.093137302 0.017220367 0.64046156
-0.076229535 0.015246033 0.64033341
-0.072528675 0.017191229 0.64110547
-0.069091432 0.018342858 0.64200002
-0.097111121 0.020240001 0.64400005
-0.092613339 0.020240001 0.64400005
-0.087336741 0.020854289 0.64128578
-0.082849465 0.022417951 0.64146161
-0.077704772 0.022239866 0.64100003
-0.072318472 0.021892542 0.64050007
-0.069037616 0.021991909 0.64150006
-0.081187218 0.026186939 0.64371437
-0.077209279 0.026826797 0.64306676
-0.072395995 0.02666973 0.64264297
-0.069037624 0.025660478 0.6415
-0.080533817 0.0086071435 0.64550006
-0.078207359 0.0083387764 0.64514291
-0.10126203 0.012599406 0.64537501
-0.080471434 0.010442858 0.64500004
-0.078014299 0.010442859 0.6450001
-0.10252383 0.01748354 0.64571428
-0.068185717 0.019042859 0.64500004
-0.097347118 0.02231341 0.64661533
-0.092380956 0.022788256 0.64666671
-0.0879796 0.023291703 0.64600003
-0.067228749 0.02233628 0.64654541
-0.064800002 0.022834288 0.648
-0.096685722 0.026125718 0.648
-0.092438668 0.027028259 0.6479333
-0.087474696 0.027105421 0.64681256
-0.083094083 0.027652595 0.64522225
-0.076785721 0.02887143 0.64500004
-0.071311906 0.028893812 0.64550006
-0.067553677 0.027302522 0.64735717
-0.091131434 0.030651432 0.648
-0.087612234 0.030643653 0.64783335
-0.082570247 0.030810241 0.64700001
-0.077520482 0.031378731 0.64600003
-0.072511822 0.031887937 0.64633334
-0.068207562 0.031899709 0.64699996
-0.070971437 0.035177145 0.648
-0.068657145 0.036257144 0.648
-0.10616805 0.023365853 0.65300012
-0.10254113 0.022518096 0.65181822
-0.099973343 0.024217144 0.65200001
-0.10587929 0.027052857 0.65300006
-0.10254897 0.027347226 0.65258336
-0.098518297 0.027916381 0.65140003
-0.094714291 0.02909524 0.65000004
-0.10510191 0.030473335 0.65300006
-0.10172586 0.0310064 0.65300012
-0.097061194 0.031526193 0.65225005
-0.092712194 0.032146856 0.6516
-0.087030485 0.033060953 0.65222222
-0.082194135 0.03354048 0.65216672
-0.077460319 0.034082547 0.65066671
-0.07490477 0.034047622 0.65000004
-0.080225721 0.035448574 0.65300006
-0.076623812 0.036862545 0.65233338
-0.072744198 0.037177529 0.65060008
-0.075872391 0.04042381 0.65300006
-0.085853338 -0.010653334 0.65800005
-0.08125779 -0.011071112 0.65800011
-0.077222265 -0.011747738 0.65787506
-0.074460007 -0.011888572 0.65700001
-0.091618672 -0.006893334 0.65800005
-0.087572962 -0.00739162 0.65773338
-0.082617573 -0.0075110127 0.65718746
-0.077581018 -0.0075091068 0.65693754
-0.074573338 -0.0087733343 0.65800005
-0.09086667 -0.0043866672 0.65800005
-0.088046677 -0.0040733339 0.65800005
-0.082569718 -0.0033826667 0.65780008
-0.077721909 -0.0023763811 0.6570667
-0.077706672 0.0006266667 0.65800005
-0.10827552 0.027536739 0.65500003
-0.10667144 0.031190479 0.65500003
-0.1028598 0.033592489 0.65722227
-0.09792985 0.033962857 0.65633339
-0.092947625 0.034309529 0.65500009
-0.089204766 0.034309525 0.65500003
-0.08296667 0.034309525 0.65500003
-0.10148168 0.036646433 0.65775001
-0.097373337 0.037050158 0.65750003
-0.092570841 0.037530355 0.65675002
-0.087491617 0.037497677 0.65618753
-0.082660459 0.037642293 0.65653342
-0.078690723 0.038720716 0.65575004
-0.087572962 0.042471245 0.65773338
-0.08280351 0.042467117 0.65766668
-0.079093337 0.041580006 0.65650004
-0.087106675 0.045746669 0.65800005
-0.086505726 -0.016417146 0.66300011
-0.08230368 -0.016316736 0.66257155
-0.077393658 -0.015730161 0.6606667
-0.090021908 -0.011960953 0.66100001
-0.087156937 -0.012877484 0.66178578
-0.082959153 -0.01284124 0.66090006
-0.077772103 -0.013466382 0.66070002
-0.073631249 -0.011958859 0.6608001
-0.091000244 -0.0015730953 0.66125005
-0.087822601 -0.0021155847 0.66081822
-0.083202384 -0.0010477779 0.66016674
-0.090799443 0.0016417144 0.66300005
-0.086883657 0.0021039685 0.6626668
-0.081915073 0.0023519481 0.66209102
-0.079320006 0.0018885715 0.66100001
-0.10216369 0.038368575 0.66042864
-0.098685727 0.039180957 0.66000003
-0.10102858 0.041042861 0.66300005
-0.096836738 0.041989122 0.6608572
-0.09278734 0.042450182 0.66069233
-0.089885719 0.044628575 0.66000003
-0.087371439 0.045885716 0.66000003
-0.084857151 0.045885716 0.66000003
-0.068174288 -0.026122859 0.66900003
-0.086651437 -0.021025715 0.66900003
-0.084740005 -0.021025715 0.66900003
-0.076746486 -0.022020003 0.66820014
-0.072283819 -0.022740446 0.66693342
-0.067736268 -0.02290491 0.66661543
-0.087646782 -0.018418927 0.666875
-0.082259156 -0.018821059 0.66611111
-0.077315398 -0.018217947 0.66669232
-0.072472036 -0.017798094 0.66749996
-0.067261659 -0.01792578 0.66753346
-0.063666195 -0.019099524 0.66850007
-0.056225717 -0.016760953 0.66833341
-0.073197156 -0.014639683 0.66833341
-0.066645153 -0.014144572 0.66900009
-0.08887779 0.0035888893 0.66500008
-0.0836 0.0038000001 0.66500002
-0.078004502 0.0035497968 0.66900009
-0.074545719 0.0038228575 0.66900003
-0.080554292 0.0063438099 0.66600001
-0.078017943 0.0061484138 0.66783345
-0.072846673 0.0057342863 0.66900003
-0.10070001 0.042433336 0.66500002
-0.099209212 0.0433654 0.66633338
-0.080238104 -0.026318097 0.67400002
-0.077242553 -0.025890162 0.67400002
-0.072701648 -0.026795242 0.67214292
-0.068429053 -0.027288098 0.67150009
-0.090374291 -0.021793336 0.67300004
-0.087426141 -0.022795375 0.67285717
-0.08499334 -0.022366669 0.671
-0.076046668 -0.024922859 0.671
-0.07465715 -0.024885716 0.67000002
-0.0915654 -0.017287303 0.67233342
-0.089971438 -0.019142859 0.67000002
-0.069552384 -0.015952382 0.67000002
-0.062168904 -0.01745905 0.67066669
-0.05853143 -0.017949421 0.67044449
-0.071253724 -0.012919239 0.67159998
-0.068155684 -0.012143378 0.6710909
-0.062729858 -0.012902161 0.67073345
-0.058704764 -0.014676192 0.67000002
-0.07125143 -0.0096285725 0.67400002
-0.067485482 -0.0088154767 0.67324996
-0.063944452 -0.0085539687 0.67366666
-0.077209532 0.0038285716 0.67000002
-0.072104774 0.0044666668 0.67000002
-0.077222861 0.0084747626 0.67149997
-0.072768725 0.0081082061 0.67069232
-0.069760002 0.0096000005 0.67200005
-0.07648541 0.011752064 0.67300004
-0.072560236 0.012504685 0.67325008
-0.069234014 0.0132966 0.67400008
-0.068362854 0.017812856 0.67400002
-0.091758579 -0.030370954 0.67850006
-0.089886673 -0.030393336 0.67900002
-0.081480004 -0.031040002 0.67900002
-0.077425532 -0.031409904 0.67860001
-0.072284453 -0.031626347 0.67766666
-0.067128658 -0.031629443 0.67775005
-0.064020008 -0.030393336 0.67900002
-0.092170924 -0.026930045 0.67763638
-0.087911509 -0.027240513 0.67773342
-0.082410075 -0.028515924 0.67828578
-0.077048451 -0.028444085 0.67657155
-0.072026908 -0.028939288 0.67524999
-0.066408575 -0.029014289 0.67700005
-0.064020008 -0.029100003 0.67900002
-0.096211433 -0.020017143 0.67800003
-0.093001164 -0.022551641 0.67655563
-0.089357145 -0.023785716 0.67500001
-0.097502865 -0.017434286 0.67800003
-0.093813337 -0.018245928 0.67622226
-0.10023334 -0.013580001 0.67900002
-0.097825713 -0.014528573 0.67800003
-0.094920009 -0.014851429 0.67800003
-0.074366674 -0.010993334 0.67900002
-0.075660005 -0.0075444449 0.67900008
-0.072506264 -0.0074714296 0.67800003
-0.067797534 -0.0063034296 0.67540002
-0.064928576 -0.0057857148 0.67500001
-0.075660005 -0.0025866667 0.67900002
-0.072374299 -0.0025847622 0.67850006
-0.067659691 -0.002901905 0.67766678
-0.076194286 0.0012914287 0.67800003
-0.072534725 0.0018202601 0.67836362
-0.068546668 0.00064666668 0.67900002
-0.07058572 0.017357146 0.67500001
-0.087421723 -0.037392002 0.68400002
-0.08142858 -0.035828575 0.68400002
-0.072684556 -0.036667835 0.68344444
-0.067855038 -0.036638308 0.68288898
-0.063840002 -0.035828575 0.68400002
-0.090583175 -0.032213654 0.68099999
-0.087125875 -0.032507259 0.68153846
-0.082915165 -0.032875329 0.68163633
-0.077940956 -0.033777144 0.68200004
-0.072694764 -0.034399524 0.68150002
-0.067473575 -0.034386907 0.68125004
-0.062573493 -0.032464325 0.68276924
-0.0848381 -0.027847622 0.68000001
-0.061702859 -0.029228574 0.68200004
-0.075771436 -0.008419048 0.68000001
-0.077066675 -0.0045333337 0.68000001
-0.065998815 -0.0016259525 0.68275005
-0.064491436 -0.0019542859 0.68400002
-0.067169532 0.0017654424 0.68285722
-0.064397149 0.00065047626 0.68300003
-0.085960954 -0.040683813 0.68900001
-0.082680002 -0.040355716 0.68900001
-0.076774292 -0.040465083 0.68900001
-0.072041273 -0.041697465 0.68766677
-0.067587622 -0.041340001 0.68900001
-0.063431755 -0.040465083 0.68900007
-0.087135382 -0.037263539 0.68642867
-0.082636669 -0.03761318 0.68683332
-0.077498019 -0.037706323 0.68800008
-0.072781339 -0.039330669 0.68600005
-0.067722462 -0.039326262 0.68657154
-0.062539905 -0.03755172 0.68690008
-0.059713338 -0.03871524 0.68900001
-0.090813339 -0.03462667 0.68600005
-0.089506671 -0.03462667 0.68600005
-0.077746674 -0.03462667 0.68600005
-0.060804289 -0.033998571 0.68650007
-0.059453338 -0.033973336 0.68600005
-0.062502146 -0.0067259525 0.68900007
-0.059713338 -0.0065619051 0.68900001
-0.062696025 -0.0031616455 0.68900013
-0.059713341 -0.0032809526 0.68900001
-0.07790786 -0.045556433 0.69325
-0.07248877 -0.045817528 0.69320005
-0.068739057 -0.045605719 0.69400001
-0.062790483 -0.045605719 0.69400001
-0.086210482 -0.042776193 0.69100004
-0.082740523 -0.042897064 0.69100004
-0.077927455 -0.042636674 0.69050002
-0.072320007 -0.04361175 0.69033337
-0.067210123 -0.043490838 0.69187498
-0.06242238 -0.042989768 0.69175005
-0.059843339 -0.041430958 0.69050002
-0.057701908 -0.0070610889 0.69185722
-0.06177143 -0.0006571429 0.69000006
-0.058765531 -0.0022344764 0.69020003
-0.054542862 -0.0046000001 0.69000006
-0.06202333 0.0018116668 0.6910001
-0.05891734 0.0017150476 0.69200003
-0.082273021 -0.0464454 0.69666672
-0.076913714 -0.047423434 0.69740003
-0.071945481 -0.047744051 0.69625008
-0.067384385 -0.047356576 0.69640005
-0.062078487 -0.047754671 0.69640005
-0.057776283 -0.047815528 0.69730002
-0.060233336 -0.044347622 0.69500005
-0.058415242 -0.044475242 0.69700003
-0.055799529 -0.011292858 0.69749999
-0.05731548 -0.009277381 0.69575
-0.06040667 0.0046466668 0.69700003
-0.057502318 0.003506667 0.69628578
-0.060493339 0.0066476194 0.69800001
-0.057806354 0.0066447626 0.69766665
-0.082403712 -0.051586568 0.70344448
-0.077807888 -0.051406495 0.70263642
-0.072617784 -0.050565403 0.70166671
-0.067131966 -0.051671855 0.7025556
-0.062699191 -0.05210885 0.70142871
-0.057848319 -0.052265283 0.70109105
-0.08207874 -0.048713021 0.70066667
-0.07755556 -0.048666671 0.70000005
-0.074000008 -0.048666671 0.70000005
-0.055333339 -0.010000001 0.70000005
-0.054077145 -0.010014286 0.70100003
-0.055359688 -0.0073361909 0.70033336
-0.053409528 -0.0073438101 0.70100009
-0.055333339 0.004666667 0.70000005
-0.062000003 0.0073333336 0.70000005
-0.056165338 0.0078716194 0.70040005
-0.054038577 0.0066719055 0.70050001
-0.056504291 0.011756477 0.70130008
-0.053679597 0.012342722 0.70328581
-0.056572657 0.016560953 0.7035715
-0.053638097 0.016761906 0.70400012
-0.066242546 -0.061751753 0.70733333
-0.062259048 -0.060460955 0.70800006
-0.058662862 -0.060011432 0.708
-0.081137419 -0.057076197 0.70742863
-0.078217149 -0.055965718 0.708
-0.066334866 -0.057589531 0.70639992
-0.062314864 -0.057337146 0.70660001
-0.058762383 -0.056745559 0.70649999
-0.082585722 -0.054385718 0.7050001
-0.07759124 -0.05419429 0.70600003
-0.072695002 -0.053175956 0.70675004
-0.067878418 -0.05398953 0.70566672
-0.057071432 -0.054385718 0.70500004
-0.053789526 0.0087409532 0.70600003
-0.051490478 0.012115477 0.70675004
-0.055886671 0.019526668 0.70700002
-0.051651813 0.017889908 0.70619994
-0.048531193 0.018873572 0.70774996
-0.052116048 0.022765569 0.70784622
-0.048548575 0.020902859 0.708
-0.052088577 0.027477145 0.70800006
-0.045177147 0.028994288 0.708
-0.037742224 0.028531116 0.70766664
-0.033353813 0.02863667 0.70749998
-0.052257143 0.030680001 0.708
-0.037603814 0.032392003 0.7076
-0.033173654 0.032425717 0.7076667
-0.076840006 -0.060520004 0.71400005
-0.072046354 -0.061398417 0.71366668
-0.068536989 -0.061750323 0.71250004
-0.062130481 -0.062582545 0.71166676
-0.056882165 -0.061948486 0.71336371
-0.052921634 -0.063020408 0.71371436
-0.076955155 -0.05785362 0.71130008
-0.072488047 -0.057585187 0.71133333
-0.069358572 -0.057855241 0.7105
-0.05597027 -0.057478417 0.71188897
-0.052341193 -0.057100244 0.71375012
-0.049300004 -0.056780003 0.71400005
-0.071676195 -0.054771431 0.71000004
-0.069647625 -0.054771431 0.71000004
-0.055561144 -0.052571055 0.71320003
-0.053324051 -0.052305479 0.71325004
-0.050928574 -0.00067904766 0.71300006
-0.051974293 0.0031121906 0.71060008
-0.048512913 0.0032443388 0.71300006
-0.051933579 0.0072740484 0.7105
-0.048195451 0.0074669844 0.71277785
-0.050714288 0.010142858 0.71000004
-0.048128765 0.012744953 0.71180004
-0.057800002 0.019720001 0.71400005
-0.047001433 0.017173337 0.71183336
-0.043844528 0.018693097 0.71375006
-0.070040002 0.022440001 0.71400005
-0.068680003 0.022440001 0.71400005
-0.060520004 0.023800002 0.71400005
-0.057500839 0.02255917 0.71237504
-0.054771431 0.022990478 0.71000004
-0.047095146 0.022600669 0.7105
-0.042040318 0.022376511 0.71200007
-0.037516668 0.022577621 0.71300006
-0.067291714 0.027596096 0.71370012
-0.062522084 0.027182685 0.71356255
-0.057652861 0.027129684 0.71216691
-0.05399086 0.027469335 0.71040004
-0.047468573 0.026912384 0.7100001
-0.042624678 0.027062941 0.71041667
-0.037893623 0.026118765 0.71050006
-0.067099318 0.031558916 0.71371436
-0.062370185 0.032152165 0.7136156
-0.057497811 0.032744989 0.71284628
-0.052755594 0.032933772 0.71100003
-0.047341906 0.032463219 0.71012503
-0.042600002 0.032457151 0.71000004
-0.03989524 0.031780954 0.71000004
-0.032713018 0.032262862 0.71066666
-0.051680002 0.036040001 0.71400005
-0.047261097 0.036586534 0.7132858
-0.042291783 0.037477233 0.71309102
-0.038415715 0.036836036 0.71183336
-0.077104203 -0.065600194 0.71900004
-0.073134929 -0.066298738 0.71766675
-0.06140032 -0.065508895 0.71900004
-0.057660852 -0.06677451 0.71788889
-0.053945716 -0.066237144 0.71700001
-0.080801912 -0.063682862 0.71900004
-0.07770963 -0.062244024 0.71644449
-0.072856791 -0.063984878 0.71662503
-0.068968579 -0.06487143 0.71700001
-0.056651436 -0.06484127 0.7166667
-0.051842622 -0.061393101 0.71625006
-0.049802225 -0.062082864 0.71633339
-0.04841524 -0.058302861 0.71600002
-0.051519528 -0.052883815 0.71650004
-0.049848575 -0.052580003 0.71700001
-0.051214289 -0.010925715 0.71700001
-0.049987622 -0.010956191 0.71900004
-0.051309526 -0.0075241281 0.71833342
-0.049645241 -0.0071900003 0.71900004
-0.051178575 -0.0040947623 0.71650004
-0.049233336 -0.0041028578 0.71800005
-0.045879051 0.0082171429 0.71900004
-0.046628729 0.011373176 0.71650004
-0.044468261 0.012540637 0.71833342
-0.066878423 0.019858096 0.71900004
-0.061828576 0.018935876 0.71866673
-0.059408575 0.01912 0.71700001
-0.042128254 0.017837673 0.71733332
-0.037626356 0.019154921 0.71833342
-0.0342381 0.019858096 0.71900004
-0.070236199 0.02113905 0.71600002
-0.067372985 0.022514168 0.71637499
-0.062969007 0.022395326 0.71654552
-0.059325717 0.02113905 0.71600002
-0.036140956 0.02113905 0.71600002
-0.033473656 0.021178415 0.71733344
-0.066144764 0.025230478 0.71600002
-0.067951053 0.034319054 0.71780008
-0.063505724 0.03482572 0.71700001
-0.061928578 0.036609523 0.71850008
-0.058380008 0.037052762 0.71780008
-0.052676514 0.037171748 0.71833342
-0.048197716 0.038639244 0.71680003
-0.07678096 -0.070824765 0.72200006
-0.080872707 -0.0657527 0.72166675
-0.077297531 -0.068235435 0.7208001
-0.074354932 -0.068864137 0.72066677
-0.065233335 -0.065920956 0.72100008
-0.063016675 -0.067143664 0.72183341
-0.048753336 -0.010987619 0.72100008
-0.048685718 -0.0082285721 0.72000003
-0.04750298 -0.0027539288 0.72287506
-0.047970481 0.0011476192 0.72300005
-0.045942862 0.0061714291 0.72000003
-0.04421556 0.0084765088 0.72166675
-0.066102862 0.014460001 0.72300005
-0.042459834 0.012569266 0.72227281
-0.03718286 0.014460001 0.72300005
-0.033051431 0.014460001 0.72300005
-0.067002766 0.017747337 0.72230005
-0.063830487 0.017157461 0.72066677
-0.040951751 0.016243177 0.72066677
-0.037365716 0.016377963 0.72085726
-0.032592233 0.01769568 0.72107708
-0.02805762 0.017519526 0.72150004
-0.024100002 0.015837144 0.72300005
-0.030942859 0.021316191 0.72200006
-0.028880002 0.021316191 0.72200006
-0.063523814 -0.069738097 0.72500002
-0.046517145 -0.011802858 0.72900003
-0.046586826 -0.0073817475 0.72650003
-0.04494286 -0.0062228576 0.72600001
-0.045863494 -0.0011517461 0.72600001
-0.043957025 -0.0029408336 0.72687507
-0.045749668 0.0026677556 0.72628576
-0.043354645 0.0031210715 0.72837502
-0.045128573 0.0062485719 0.72900003
-0.04226334 0.007851271 0.72750008
-0.038532861 0.0086785723 0.72900003
-0.069047622 0.014500001 0.72500002
-0.040738098 0.01104762 0.72500002
-0.037366431 0.011761668 0.72658336
-0.032417238 0.012049621 0.72730011
-0.027984427 0.012653402 0.72678578
-0.071119055 0.015880954 0.72500002
-0.069277786 0.016341273 0.72500008
-0.045283332 -0.012539048 0.73150003
-0.045252383 -0.0090504764 0.73100001
-0.042611908 -0.006986191 0.7335
-0.041712385 -0.0028887079 0.73171431
-0.039379686 -0.0011650794 0.73400009
-0.041353717 0.0023670476 0.73100001
-0.038044546 0.0031643959 0.73246157
-0.034253336 0.0048933337 0.73400003
-0.041771431 0.0062657148 0.73100001
-0.037084289 0.0071383333 0.73124999
-0.03262445 0.0078259259 0.7323333
-0.027935876 0.0083803181 0.73333335
-0.042767465 -0.012619685 0.73616672
-0.03995429 -0.013318096 0.73600006
-0.041410796 -0.0084228572 0.73700011
-0.038604766 -0.0063171433 0.73700005
-0.038221076 -0.0028053573 0.73637503
-0.036232069 0.0011685715 0.73633337
-0.032389212 0.0036675136 0.73755556
-0.027205579 0.0039141504 0.73785722
-0.030841907 0.0063085719 0.73600006
-0.02736254 0.0063142865 0.73666668
-0.04017143 -0.011276191 0.74000001
-0.038142547 -0.012008573 0.74166673
-0.037250005 -0.0079450011 0.74150002
-0.034673337 -0.0063685719 0.74300003
-0.036564954 -0.0038114288 0.74120009
-0.033406071 -0.0019451191 0.74237508
-0.027597144 -0.00070761907 0.74300003
-0.023351431 -0.0014152383 0.74300003
-0.031977147 0.0011752383 0.74066675
-0.027812192 0.0012697143 0.74120003
-0.03490667 -0.011398096 0.74800003
-0.032807622 -0.0076681492 0.7471112
-0.029207621 -0.006411429 0.74800003
-0.021776382 -0.0069729532 0.74720007
-0.019195715 -0.007108096 0.74650002
-0.031820599 -0.0037344049 0.74662507
-0.027746139 -0.0035586245 0.74700004
-0.022990584 -0.004029524 0.74655563
-0.019208573 -0.0049800002 0.74700004
-0.032944765 -0.010742858 0.75200003
-0.027956827 -0.010752383 0.75266671
-0.031428576 -0.0092857145 0.75000006
-0.026974376 -0.0079960171 0.75072736
-0.02357143 -0.0078571429 0.75000006
