# .PCD v0.7 - Point Cloud Data file format
VERSION 0.7
FIELDS x y z
SIZE 4 4 4
TYPE F F F
COUNT 1 1 1
WIDTH 573
HEIGHT 1
VIEWPOINT 0 0 0 1 0 0 0
POINTS 573
DATA ascii
-0.067251265 -0.0061696833 0.64783335
-0.064800002 -0.0061714291 0.648
-0.066891752 -0.0028075133 0.64700001
-0.064675003 -0.002464524 0.64675003
-0.066600479 0.00061666669 0.64750004
-0.06592191 -0.010572381 0.65300006
-0.064056195 -0.010572381 0.65300006
-0.070761673 -0.0062073814 0.65175003
-0.067101553 -0.0086986925 0.65237504
-0.062627941 -0.0075582545 0.65216666
-0.058606036 -0.0064206356 0.65233344
-0.070913151 -0.0033523813 0.65200001
-0.068304762 -0.0018628573 0.65200001
-0.063337147 -0.0024823814 0.65200001
-0.062190481 0.00062190479 0.65300006
-0.072066672 -0.015666667 0.65800005
-0.065800004 -0.015666667 0.65800005
-0.062666669 -0.015666667 0.65800005
-0.058512956 -0.016163239 0.65780002
-0.046361744 -0.016916033 0.6578334
-0.071783535 -0.012527905 0.6577
-0.067682348 -0.012653186 0.6566155
-0.062376007 -0.012626542 0.65626675
-0.057701916 -0.012642096 0.6571334
-0.053038795 -0.012590304 0.65800005
-0.047138467 -0.012470624 0.65723085
-0.071087629 -0.0089650806 0.6566667
-0.060601909 -0.0087466668 0.65600002
-0.057986535 -0.0084877564 0.65671438
-0.052640006 -0.0094000008 0.65800005
-0.080191433 -0.020837145 0.66300005
-0.077160574 -0.021089716 0.66300005
-0.073877148 -0.020837145 0.66300005
-0.080419436 -0.017296383 0.66280001
-0.077221915 -0.017842315 0.6622858
-0.072574161 -0.017718639 0.66100007
-0.067832187 -0.017769082 0.66153347
-0.062815502 -0.018152814 0.66136372
-0.057491265 -0.018249352 0.66072732
-0.05294941 -0.017651789 0.66187501
-0.049140479 -0.017641906 0.6615001
-0.08099281 -0.012551536 0.66266674
-0.077461839 -0.012594207 0.66125011
-0.074380964 -0.01257143 0.66000009
-0.068514287 -0.014457144 0.66000003
-0.05594286 -0.010685715 0.66000003
-0.051920004 -0.012445715 0.66000003
-0.049657147 -0.012780953 0.66000003
-0.081454292 -0.0094714295 0.66300005
-0.076957628 -0.0082003176 0.66233349
-0.073339529 -0.0081828581 0.66100001
-0.055999368 -0.0081784129 0.6606667
-0.053095158 -0.007731169 0.66154557
-0.048927624 -0.0083790487 0.66228575
-0.054176576 -0.0026520002 0.66300005
-0.071360007 -0.026122859 0.66900003
-0.067207493 -0.02682871 0.66842866
-0.063501909 -0.026547622 0.66900003
-0.075768337 -0.023144048 0.66575003
-0.072174296 -0.022960445 0.66593331
-0.067285366 -0.022852739 0.66650003
-0.062242258 -0.022866311 0.66687495
-0.057173211 -0.022727497 0.66653329
-0.052537058 -0.022253251 0.6675455
-0.048913337 -0.022233335 0.66700006
-0.081019372 -0.0074028578 0.66633338
-0.051990241 -0.0057064286 0.66575003
-0.047445145 -0.0062321909 0.66780013
-0.056056194 -0.0019012699 0.66633338
-0.051862188 -0.0026292524 0.66642857
-0.048367862 -0.0025464287 0.66825002
-0.055984765 0.0012733333 0.66800004
-0.052421149 0.0016548574 0.66800016
-0.048635241 0.0010619049 0.66900003
-0.072464764 -0.030139685 0.67333335
-0.068229668 -0.030864768 0.67314285
-0.073096864 -0.027731335 0.67090005
-0.067638099 -0.028501591 0.67000002
-0.062320642 -0.026587306 0.67000002
-0.057301771 -0.026778506 0.67171437
-0.052820686 -0.027007077 0.67285717
-0.047857147 -0.026161907 0.67000002
-0.056790479 -0.024885716 0.67000002
-0.051460959 -0.024390098 0.67040008
-0.049133338 -0.02424762 0.67000002
-0.045372386 -0.0057514291 0.671
-0.082805723 -0.0044933334 0.67400002
-0.045976672 -0.0025542858 0.67050004
-0.043227199 -0.0022068785 0.67299998
-0.080238104 0.0044933334 0.67400002
-0.077242553 0.0044933334 0.67400002
-0.060980957 0.0044933334 0.67400002
-0.05710366 0.0040490483 0.67116666
-0.051937308 0.0040446036 0.67050004
-0.046944547 0.0029011725 0.67100006
-0.043018531 0.0026193943 0.67236364
-0.061408892 0.0066330167 0.67400002
-0.057588398 0.0069303908 0.67254543
-0.052552562 0.0069272737 0.67218184
-0.047598451 0.0069341995 0.67290908
-0.043007623 0.0057771439 0.67400002
-0.080714293 -0.032931432 0.67800003
-0.077137388 -0.031953573 0.67775005
-0.072504774 -0.032338507 0.67714286
-0.067153342 -0.033362545 0.67799997
-0.062172391 -0.03094762 0.67900002
-0.057510953 -0.03101762 0.67850006
-0.053405717 -0.030794604 0.6783334
-0.061528005 -0.028507812 0.67720002
-0.057900958 -0.028628096 0.67550004
-0.05275334 -0.028950002 0.67550004
-0.083459847 -0.0019303176 0.6758334
-0.041142859 -0.0012857143 0.67500001
-0.037601095 -0.0011953742 0.67571437
-0.085880004 0.001937143 0.67800009
-0.082553789 0.0024477462 0.67613333
-0.078107148 0.0032142857 0.67500001
-0.062357146 0.0045000003 0.67500001
-0.040829148 0.0024485716 0.67620009
-0.037412085 0.0025817265 0.67731255
-0.034273334 0.0019400001 0.67900002
-0.082228102 0.0066238102 0.6785
-0.077495761 0.0069726408 0.67654556
-0.07425715 0.0071028578 0.67800003
-0.067443907 0.0086564766 0.67830002
-0.062642857 0.0080714291 0.67500007
-0.058054674 0.0093971444 0.67580003
-0.052632004 0.0093942871 0.67559999
-0.047199242 0.0093885725 0.67520005
-0.042508572 0.007084127 0.67633337
-0.037752252 0.0063688443 0.67842859
-0.066283338 0.011316667 0.67900002
-0.062299412 0.011944644 0.67787498
-0.05784858 0.011533742 0.67814291
-0.052624915 0.012573775 0.67830777
-0.047916256 0.012874352 0.67806667
-0.047853336 0.016166668 0.67900002
-0.076651439 -0.036697149 0.68400002
-0.072990566 -0.036998533 0.68372732
-0.068338573 -0.03684929 0.68175
-0.061885718 -0.035828575 0.68400002
-0.05699946 -0.036357012 0.68342865
-0.052489337 -0.036078673 0.68380004
-0.076615483 -0.033764526 0.68175006
-0.072827384 -0.034462623 0.68274999
-0.067544766 -0.034424763 0.68200004
-0.061972033 -0.033421788 0.68137497
-0.057117388 -0.033751428 0.68150008
-0.05162961 -0.033014685 0.68191671
-0.047577582 -0.032330137 0.68263644
-0.047969528 -0.028739683 0.68066669
-0.033595242 0.003502667 0.68100005
-0.085925713 0.00911381 0.68350005
-0.083057463 0.0088692065 0.68133342
-0.077415623 0.0094666677 0.68080002
-0.072614051 0.0090773813 0.68075001
-0.08225777 0.013027282 0.68392861
-0.07757166 0.012854435 0.68269241
-0.072807208 0.013001727 0.68256247
-0.06780985 0.013519048 0.68133342
-0.062130075 0.014352654 0.68057144
-0.057086553 0.014271786 0.68112504
-0.053752385 0.014895239 0.68000001
-0.044685718 0.012304762 0.68000001
-0.080125719 0.016285716 0.68400002
-0.077482544 0.016929209 0.68366671
-0.072933577 0.016931191 0.68375003
-0.067466035 0.017138202 0.6833334
-0.06243629 0.017301051 0.68290007
-0.057110224 0.017459134 0.68354553
-0.052146241 0.017658964 0.68209094
-0.047994293 0.017729208 0.68099999
-0.055371433 0.020194286 0.68400002
-0.052114289 0.020194286 0.68400002
-0.048205718 0.020194286 0.68400002
-0.075461909 -0.041340001 0.68900001
-0.072269149 -0.04079105 0.68860006
-0.057088576 -0.040027626 0.68900001
-0.053807624 -0.040027622 0.68900001
-0.075841434 -0.03922905 0.68650007
-0.072554611 -0.039437145 0.68633342
-0.066179052 -0.036694288 0.68800002
-0.062987737 -0.036974881 0.68712509
-0.057987053 -0.038352765 0.68720007
-0.052115928 -0.038082451 0.68771434
-0.047832385 -0.036694288 0.68800008
-0.064680003 -0.03462667 0.68600005
-0.043773334 0.009146668 0.68600005
-0.086825952 0.012263573 0.68675005
-0.086380281 0.016753878 0.68785721
-0.082559288 0.01756024 0.68708336
-0.077122152 0.018953573 0.68625009
-0.072625726 0.018974287 0.68700004
-0.068600014 0.018946668 0.68600005
-0.062720001 0.018946668 0.68600005
-0.059453338 0.018946668 0.68600005
-0.082680002 0.020341907 0.68900001
-0.079399049 0.020341907 0.68900001
-0.067458108 0.020302542 0.68766677
-0.062888421 0.020744924 0.68783343
-0.057639766 0.021452859 0.68774998
-0.052425168 0.022937223 0.68808341
-0.047855556 0.022945713 0.68833339
-0.051839054 0.025591429 0.68900001
-0.04790191 0.025591429 0.68900001
-0.071717151 -0.046095051 0.69340003
-0.068078101 -0.045936197 0.69400001
-0.057502862 -0.045605719 0.69400001
-0.052856907 -0.045589291 0.69375002
-0.047588576 -0.045605719 0.69400001
-0.071895957 -0.043106437 0.69100004
-0.067240544 -0.042193398 0.69218749
-0.062441256 -0.042256046 0.6923846
-0.057747453 -0.04243074 0.69118184
-0.052486055 -0.042424019 0.69135725
-0.047671136 -0.042292524 0.69300002
-0.044220004 -0.040260002 0.69300002
-0.066436201 -0.03880889 0.69066668
-0.06177143 -0.038771432 0.69000006
-0.047380481 -0.03882762 0.69100004
-0.044220004 -0.038940001 0.69300002
-0.088714294 0.013800001 0.69000006
-0.088318422 0.016875874 0.69033337
-0.08693599 0.022192279 0.69211107
-0.082848236 0.022945369 0.69190913
-0.077665776 0.022550099 0.69226664
-0.072443813 0.022393811 0.69150001
-0.067278795 0.02314494 0.69072735
-0.062660716 0.02319048 0.69075006
-0.05812259 0.023568304 0.69014293
-0.085262865 0.025777144 0.69400001
-0.08288344 0.026305905 0.69400001
-0.07769458 0.026823526 0.69370002
-0.072493538 0.027468776 0.69378579
-0.067357063 0.026978876 0.69400007
-0.062339585 0.026948044 0.6938889
-0.057578471 0.027549015 0.69246155
-0.052780069 0.027944835 0.69150001
-0.047360159 0.028285399 0.69066668
-0.044283811 0.029742859 0.69400001
-0.057502862 0.031064764 0.69400001
-0.052582454 0.031624898 0.69385725
-0.047737405 0.032245979 0.69354546
-0.044283811 0.031725716 0.69400001
-0.07572905 -0.04849286 0.69749999
-0.072984196 -0.047817335 0.69540006
-0.067475788 -0.047413204 0.69557154
-0.062345486 -0.04709278 0.69641674
-0.057335794 -0.047860958 0.69657153
-0.053026669 -0.047062859 0.6960001
-0.048389524 -0.046400957 0.6960001
-0.060233336 -0.044347622 0.69500005
-0.081348896 0.02873905 0.69633341
-0.077830479 0.029476192 0.69550002
-0.074133337 0.029785717 0.69500005
-0.067646675 0.029520957 0.69500011
-0.062219054 0.029344447 0.69500011
-0.080436192 0.031908572 0.69800001
-0.076522753 0.032247201 0.69733334
-0.07224074 0.032475241 0.69588894
-0.067904674 0.032229621 0.69630009
-0.06212334 0.03225762 0.69690007
-0.057606909 0.032610957 0.69525009
-0.053349532 0.033492386 0.69500011
-0.045671433 0.033757146 0.69500005
-0.042645585 0.032622453 0.69500011
-0.061158098 0.035897143 0.69800001
-0.057209823 0.037205424 0.69661546
-0.052846931 0.036338016 0.6960001
-0.047781255 0.037165537 0.69681251
-0.043188579 0.037209526 0.69766665
-0.056504767 0.040550478 0.69800001
-0.042544767 0.040550478 0.69800001
-0.075476833 -0.051433019 0.7013334
-0.072230712 -0.051500559 0.70225012
-0.06770175 -0.051167786 0.70383334
-0.062611163 -0.050757829 0.70257151
-0.057507504 -0.050821554 0.70212501
-0.052916832 -0.050238103 0.70333338
-0.066000007 -0.048666671 0.70000005
-0.052000005 -0.048666671 0.70000005
-0.048135243 -0.048805717 0.70200002
-0.088793337 0.024701906 0.70100003
-0.095914602 0.028262544 0.70100009
-0.092686519 0.028295718 0.70183343
-0.087458104 0.028040003 0.70100009
-0.084666669 0.028666668 0.70000005
-0.10652953 0.033834763 0.70350003
-0.10288119 0.033846907 0.70375007
-0.097381249 0.032495093 0.70292312
-0.092394777 0.032137502 0.70300007
-0.087500326 0.032060321 0.70133346
-0.083292313 0.032360241 0.7005834
-0.078888893 0.03355556 0.70000005
-0.066666678 0.034000002 0.70000005
-0.06400001 0.034000002 0.70000005
-0.040724766 0.034048572 0.70100003
-0.038860478 0.034170002 0.70350003
-0.10757335 0.036528334 0.70375001
-0.10258286 0.036071625 0.70400006
-0.098263435 0.035793334 0.70380002
-0.091973938 0.036354408 0.70362502
-0.087172396 0.037628639 0.70300019
-0.082467034 0.0373003 0.70223087
-0.0776309 0.037478756 0.70268756
-0.072236851 0.037459351 0.70231259
-0.067469776 0.037409924 0.70141673
-0.063134052 0.037791666 0.70025003
-0.059333336 0.039333336 0.70000005
-0.052666675 0.039333336 0.70000005
-0.040681195 0.037345953 0.70025003
-0.037696332 0.037598509 0.70142871
-0.033380955 0.038721904 0.70100003
-0.086694464 0.041336354 0.70383346
-0.082468584 0.040899049 0.70400012
-0.079116195 0.040899049 0.70400006
-0.066792704 0.041326672 0.70366669
-0.062378179 0.042329293 0.70175004
-0.057487879 0.04288356 0.7013334
-0.052083574 0.042736672 0.70112509
-0.047367312 0.042697944 0.70050001
-0.042683948 0.042970482 0.70028567
-0.037360717 0.042697504 0.70050001
-0.033111114 0.041555561 0.70000005
-0.061639529 0.046230003 0.70350003
-0.055570479 0.046197146 0.70300001
-0.047400955 0.046065718 0.70100003
-0.042756669 0.046098575 0.7015
-0.037191976 0.046752796 0.70271432
-0.067698859 -0.063122489 0.70660001
-0.072770476 -0.055926193 0.70750004
-0.068102859 -0.055965718 0.70800006
-0.064057149 -0.055965718 0.708
-0.04725524 -0.056947436 0.70679998
-0.072564289 -0.05442429 0.70550001
-0.067003712 -0.053409845 0.70588887
-0.06256064 -0.053817146 0.7063334
-0.05774286 -0.053042859 0.70500004
-0.052237466 -0.052239154 0.70622224
-0.04753074 -0.052671861 0.70654553
-0.04376667 -0.053193338 0.70700002
-0.096014291 0.024842858 0.70500004
-0.094671436 0.024842858 0.70500004
-0.11271419 0.027799169 0.70762503
-0.10990858 0.028994288 0.708
-0.10095125 0.027899429 0.7076
-0.097832866 0.027568573 0.70600003
-0.094000012 0.026185716 0.70500004
-0.11208153 0.032023434 0.70640004
-0.10790636 0.031741746 0.70666671
-0.10216086 0.031461589 0.70622224
-0.098700009 0.030214287 0.70500004
-0.037981361 0.032978643 0.70671439
-0.032733716 0.034079999 0.70719999
-0.027581906 0.034307621 0.70633334
-0.024895716 0.033641431 0.70650005
-0.11140116 0.037312385 0.70719999
-0.10713167 0.038621195 0.70525002
-0.10222889 0.038756508 0.70566666
-0.097357146 0.038271435 0.70499998
-0.093160719 0.038775001 0.70499998
-0.035585716 0.036257148 0.70500004
-0.03227286 0.036308095 0.70599997
-0.027943335 0.036023337 0.70700002
-0.1071616 0.041112073 0.70766664
-0.10202972 0.041377913 0.7076
-0.09699358 0.041425005 0.70725
-0.092476867 0.042269051 0.70670003
-0.087858103 0.043257147 0.70600003
-0.082624137 0.042992067 0.70533335
-0.077704005 0.04261734 0.7058
-0.072633184 0.04237064 0.70616663
-0.06784232 0.042893205 0.70528579
-0.063785717 0.044314288 0.70500004
-0.087626435 0.045161195 0.70774996
-0.081811816 0.04542134 0.70760006
-0.077474415 0.046316791 0.70737505
-0.072578989 0.046878573 0.70750004
-0.06721437 0.046693336 0.70738453
-0.062450722 0.048313096 0.70700002
-0.057849437 0.047760669 0.70629996
-0.052909952 0.047523074 0.70722222
-0.047308575 0.04811715 0.70760006
-0.042361274 0.048411753 0.70600003
-0.038025338 0.048773527 0.70540005
-0.032306433 0.049135953 0.70674998
-0.076207906 -0.061876196 0.71171439
-0.072431847 -0.061601169 0.71077782
-0.067961916 -0.060809258 0.71057147
-0.05210368 -0.061418511 0.71314299
-0.049500957 -0.061029531 0.71200001
-0.075840965 -0.058234766 0.71100003
-0.072352387 -0.058152385 0.71000004
-0.067414187 -0.057945184 0.71022224
-0.062270217 -0.057829015 0.71281821
-0.057048094 -0.057728477 0.71310014
-0.052396763 -0.057406481 0.71079999
-0.049361907 -0.057476193 0.71000004
-0.060180955 -0.054771431 0.71000004
-0.057476193 -0.054771435 0.71000004
-0.052742857 -0.054771431 0.71000004
-0.049361907 -0.054771431 0.71000004
-0.099960007 0.023800002 0.71400005
-0.11088496 0.026129907 0.71079999
-0.10748993 0.02723754 0.71208346
-0.10346235 0.02689958 0.71211118
-0.098793343 0.025712859 0.7105
-0.041173149 0.02785543 0.71340007
-0.037944339 0.027986033 0.71288902
-0.03260012 0.028524883 0.71312511
-0.026883049 0.02810362 0.71280003
-0.023766669 0.027840953 0.71300006
-0.10345715 0.030428573 0.71000004
-0.037212387 0.031220004 0.7104286
-0.032318182 0.03170139 0.71100003
-0.027268056 0.031697668 0.71090913
-0.11068477 0.041421909 0.71300006
-0.10315431 0.043407898 0.71057147
-0.09793552 0.043496333 0.71200007
-0.061628573 -0.065052383 0.71900004
-0.053411432 -0.065737151 0.71900004
-0.065052383 -0.063682862 0.71900004
-0.062620863 -0.062001128 0.71681821
-0.057367861 -0.06214818 0.71708333
-0.052555561 -0.063931428 0.7166667
-0.059325717 -0.059325717 0.71600002
-0.10066 0.019858096 0.71900004
-0.099290483 0.019858096 0.71900004
-0.10667429 0.023248572 0.71800005
-0.10260312 0.02240641 0.71690911
-0.09901429 0.021168573 0.71700001
-0.046401337 0.022309905 0.71860009
-0.042187832 0.023031432 0.71833336
-0.037620109 0.022571644 0.7182222
-0.033133145 0.022864385 0.71880001
-0.027224574 0.023666097 0.71820009
-0.023900002 0.023900002 0.71700001
-0.10781763 0.025248097 0.71650004
-0.042570341 0.025814969 0.71600002
-0.036848575 0.025930002 0.71650004
-0.032765955 0.025939288 0.71675003
-0.027744129 0.025696827 0.71633339
-0.062400006 -0.070628576 0.72000003
-0.062857151 -0.066057146 0.72000003
-0.057639524 -0.066560492 0.72050011
-0.054171432 -0.069257148 0.72000003
-0.10581049 0.019509526 0.72300005
-0.10247002 0.017879145 0.72210008
-0.098500721 0.017016906 0.72200012
-0.046134289 0.019968573 0.72300005
-0.042677384 0.019961668 0.72275007
-0.036873337 0.01937048 0.72271436
-0.032707144 0.019624287 0.72300005
-0.11086001 0.021345716 0.72300005
-0.10841697 0.022122098 0.72140008
-0.043200001 0.021257143 0.72000003
-0.03154286 0.021257143 0.72000003
-0.027570071 0.021878641 0.72114295
-0.024033334 0.021972382 0.72100008
-0.042351436 0.0090257153 0.72900003
-0.039574288 0.0090257153 0.72900003
-0.11132 0.014520001 0.72600001
-0.10684715 0.014570002 0.72850001
-0.10219556 0.013609102 0.72666663
-0.098397829 0.012754015 0.72685713
-0.045591429 0.014117144 0.72900003
-0.042351425 0.012497145 0.72900003
-0.037898101 0.013326287 0.72880006
-0.032615878 0.014573335 0.72866672
-0.027347812 0.014298287 0.72880006
-0.024283335 0.013875715 0.72850001
-0.11121778 0.017269209 0.72533339
-0.10795647 0.017144505 0.72536361
-0.10426191 0.015880954 0.72500002
-0.045898288 0.017054478 0.72800004
-0.042482764 0.017433813 0.72649997
-0.0375745 0.01682614 0.72611117
-0.032318454 0.017108453 0.72587496
-0.027664129 0.017288256 0.72616673
-0.02417778 0.017269207 0.72533339
-0.11185715 0.020714287 0.72500002
-0.10909525 0.020023812 0.72500002
-0.027619049 0.020023812 0.72500002
-0.024166668 0.020023812 0.72500002
-0.1055562 0.0090876194 0.73400003
-0.10108572 0.0090628574 0.73200005
-0.099095486 0.0083730957 0.73275006
-0.036947623 0.0083650798 0.73200005
-0.033554286 0.0090876194 0.73400003
-0.022974288 0.0090504764 0.73100001
-0.11126001 0.013703811 0.73166674
-0.10770953 0.011966668 0.73200005
-0.10278763 0.011016953 0.73220003
-0.098162867 0.010442858 0.73100001
-0.045252383 0.011835239 0.73100001
-0.036906194 0.01114143 0.73116672
-0.032775454 0.011853123 0.73222232
-0.027892767 0.011852954 0.73220009
-0.024366667 0.011139048 0.73100001
-0.10205239 0.0049266671 0.73900002
-0.11123125 0.00855581 0.73640007
-0.10761354 0.0082775252 0.73660004
-0.10271891 0.0077159186 0.73657149
-0.032298815 0.0077221431 0.73725003
-0.027836669 0.0081855571 0.73683345
-0.024533335 0.0091123814 0.73600006
-0.11215239 0.011215239 0.73600006
-0.030140955 0.010514286 0.73600006
-0.1110962 0.0021228574 0.74300003
-0.10772964 0.004006878 0.74255562
-0.1024402 0.003532381 0.74180007
-0.031009525 0.0042285714 0.74000001
-0.02889524 0.0042285714 0.74000001
-0.11135238 0.0063428576 0.74000001
-0.10719573 0.0063471436 0.74050003
-0.10360001 0.0063428576 0.74000001
-0.031009525 0.0063428576 0.74000001
-0.056278098 -0.076224767 0.74800003
-0.056990482 -0.074800007 0.74800003
-0.054853339 -0.07408762 0.74800003
-0.11041906 -0.0021371429 0.74800003
-0.10756954 -0.0028495239 0.74800009
-0.10305779 -0.0011873016 0.74800009
-0.11027144 0.00071142864 0.74700004
-0.10730588 0.0014201588 0.74616671
-0.10285001 0.0011839684 0.74650002
-0.065977149 -0.082112864 0.75300002
-0.062801234 -0.082266547 0.75300002
-0.057291195 -0.082352936 0.75191677
-0.052533813 -0.081125244 0.75050008
-0.070997149 -0.076734297 0.75300002
-0.067389406 -0.07742583 0.7527501
-0.062259924 -0.077291042 0.75141668
-0.057407305 -0.077773027 0.75033343
-0.052287545 -0.07735692 0.7520833
-0.048026673 -0.075983495 0.75266671
-0.070997149 -0.073148578 0.75300002
-0.068684198 -0.072698675 0.75280005
-0.0521264 -0.072813205 0.75271434
-0.048335429 -0.072718292 0.75300002
-0.051862068 -0.068591908 0.75283337
-0.048037618 -0.067396678 0.75283337
-0.10428572 -0.0050000004 0.75000006
-0.10238095 -0.0030952382 0.75000012
-0.099285722 -0.0021428573 0.75000006
-0.071185715 -0.08556667 0.75500005
-0.069074765 -0.085623339 0.75550008
-0.075600006 -0.081360005 0.75600004
-0.072589055 -0.082675479 0.75650001
-0.068321079 -0.08288417 0.75512511
-0.06111905 -0.083409533 0.75500005
-0.07609731 -0.077297308 0.7561667
-0.073157467 -0.077954292 0.75555563
-0.045300003 -0.076219052 0.75500005
-0.043861907 -0.076219052 0.75500005
-0.076864667 -0.072392099 0.75709999
-0.072623521 -0.071757428 0.75650001
-0.069164291 -0.070605241 0.75650001
-0.05249048 -0.071185715 0.75500005
-0.046738103 -0.072418377 0.75500005
-0.042931274 -0.072191596 0.75550008
-0.077243812 -0.068580955 0.75800008
-0.074356198 -0.068580955 0.75800002
-0.047031719 -0.067599148 0.75510007
-0.042456433 -0.067642793 0.75558347
-0.046925187 -0.062913761 0.75544453
-0.042473547 -0.062631011 0.75588894
-0.045859367 -0.059305083 0.75633335
-0.043478739 -0.059331432 0.75666666
-0.080475003 -0.07249786 0.76125002
-0.078947142 -0.070979536 0.76050007
-0.074552387 -0.070209526 0.76000005
-0.080448575 -0.068852387 0.76100004
