# .PCD v0.7 - Point Cloud Data file format
VERSION 0.7
FIELDS x y z
SIZE 4 4 4
TYPE F F F
COUNT 1 1 1
WIDTH 486
HEIGHT 1
VIEWPOINT 0 0 0 1 0 0 0
POINTS 486
DATA ascii
-0.08215715 0.013692859 0.63900006
-0.079722859 0.013997144 0.63900006
-0.085808575 0.017040001 0.63900006
-0.082701907 0.017026667 0.63850009
-0.077905096 0.017153973 0.63873339
-0.073289394 0.018170208 0.63900006
-0.068271786 0.018246073 0.63862503
-0.081548579 0.020082859 0.63900006
-0.077471599 0.020483337 0.6388334
-0.07193315 0.020813145 0.63900006
-0.067330748 0.021700371 0.63883334
-0.063900001 0.021908574 0.63900006
-0.086180195 0.0087036192 0.64360005
-0.081925087 0.0083758729 0.64355564
-0.077672549 0.0085617471 0.64216667
-0.072995402 0.0089468267 0.64050007
-0.065626673 0.0092000002 0.64400005
-0.063991114 0.0087911114 0.64400005
-0.091329917 0.012625906 0.64360005
-0.087569028 0.012188852 0.64194125
-0.082657926 0.01171143 0.64118189
-0.077827491 0.012200138 0.64057148
-0.072605863 0.01220243 0.64064997
-0.067397341 0.012301714 0.64373344
-0.063379057 0.012012573 0.64360005
-0.091632009 0.017541334 0.64400005
-0.088427626 0.017075555 0.64033335
-0.077409528 0.015238096 0.64000005
-0.072666384 0.016093811 0.6401
-0.066966496 0.016366148 0.64081824
-0.063361198 0.017404526 0.64124995
-0.0905689 0.020648891 0.64400005
-0.087222442 0.021552807 0.64244449
-0.082849026 0.022136047 0.64146155
-0.07784839 0.022818096 0.64060009
-0.073208757 0.022444939 0.64009094
-0.066844448 0.024584129 0.64000005
-0.062865362 0.021667263 0.64087504
-0.080346674 0.025146669 0.64400005
-0.077402674 0.025392001 0.64400005
-0.072223499 0.025503492 0.6426667
-0.067257144 0.025680002 0.64200002
-0.063991114 0.025964446 0.64400005
-0.063173339 0.044773336 0.64400005
-0.068185717 0.011671429 0.64500004
-0.096163101 0.018492144 0.64725
-0.093459204 0.016936736 0.6450001
-0.060814291 0.019042859 0.64500004
-0.096769966 0.021909008 0.64718181
-0.092550784 0.02246462 0.64553851
-0.087842867 0.023650002 0.64500004
-0.084157147 0.023957144 0.64500004
-0.06128731 0.022548256 0.64566672
-0.05977048 0.02403143 0.64700001
-0.095583335 0.027133809 0.64750004
-0.092473395 0.027126245 0.64731246
-0.087304495 0.026843812 0.6468572
-0.082470015 0.027080886 0.64621431
-0.07743144 0.027786408 0.64572728
-0.072507821 0.027897526 0.64520001
-0.067838483 0.027897526 0.64520001
-0.06237033 0.027283737 0.64546156
-0.0596781 0.025840003 0.64600003
-0.087017149 0.030240001 0.648
-0.082080007 0.030240003 0.648
-0.07741791 0.031189719 0.64720005
-0.072934866 0.03117067 0.64679998
-0.067563809 0.031010373 0.64688885
-0.062819526 0.031410955 0.64666665
-0.063104615 0.042754129 0.64750004
-0.098428577 0.018571429 0.65000004
-0.098428577 0.023523811 0.65000004
-0.098254405 0.027198944 0.65066671
-0.089142859 0.02909524 0.65000004
-0.084809527 0.02909524 0.65000004
-0.10048954 0.031700954 0.65266675
-0.097092398 0.031812806 0.65211111
-0.092704594 0.03150459 0.65090913
-0.087790675 0.031621717 0.65100002
-0.082981147 0.032375809 0.6512
-0.078492709 0.033669844 0.65066671
-0.072314836 0.033723813 0.65057153
-0.067668177 0.033524495 0.65014297
-0.062523812 0.034047626 0.65000004
-0.080225721 0.035448574 0.65300006
-0.07707227 0.036050122 0.65262502
-0.072518095 0.035845082 0.65266669
-0.066736042 0.036731113 0.65183336
-0.062366199 0.037171908 0.65050006
-0.07027524 0.042289525 0.65300006
-0.067216009 0.042117596 0.65226674
-0.06301906 0.041228574 0.65000004
-0.07958667 -0.011906668 0.65800005
-0.086271122 -0.0064755562 0.65800011
-0.08270245 -0.0072497963 0.65785718
-0.078948423 -0.0074985716 0.65616673
-0.08234401 -0.0041360008 0.65800005
-0.077502243 -0.0027738099 0.65778577
-0.073299579 -0.0021066668 0.6578182
-0.069560006 -0.0006266667 0.65800005
-0.075826675 0.0006266667 0.65800005
-0.072693333 0.0006266667 0.65800005
-0.097938098 0.03331143 0.65500003
-0.092283055 0.034091432 0.65560007
-0.087261908 0.034080956 0.65540004
-0.08296667 0.034309525 0.65500003
-0.096420333 0.036445718 0.65600002
-0.09265846 0.037565481 0.65737504
-0.088128418 0.037172858 0.65783334
-0.082604028 0.037548508 0.65707147
-0.077457502 0.038728215 0.65587503
-0.072112389 0.038301907 0.65500009
-0.068307146 0.038988099 0.65500003
-0.092746675 0.040733337 0.65800005
-0.088986672 0.040733337 0.65800005
-0.080840006 0.040733337 0.65800005
-0.077116914 0.042263418 0.6574167
-0.073348008 0.042235624 0.65600008
-0.076453343 0.045746669 0.65800005
-0.07394667 0.045746669 0.65800005
-0.080070481 -0.017022857 0.66200006
-0.077606201 -0.017035715 0.66250002
-0.073877148 -0.015785715 0.66300005
-0.081085719 -0.013828572 0.66000003
-0.078822859 -0.013954286 0.66000003
-0.073877148 -0.013260001 0.66300005
-0.088254295 -0.0060790479 0.6603334
-0.086872861 -0.0034595239 0.66100007
-0.083097152 -0.0018872382 0.66100007
-0.0792 -0.00062857149 0.66000003
-0.081413344 0.0018939683 0.66266674
-0.078145877 0.0022041271 0.6608333
-0.073839247 0.0023904762 0.66040009
-0.086742863 0.038971432 0.66000003
-0.084857151 0.039600004 0.66000003
-0.09253969 0.043092068 0.66000003
-0.087895922 0.043049935 0.66057146
-0.083122499 0.0428821 0.6602
-0.079514287 0.043685719 0.66000003
-0.087547302 0.045978419 0.66133338
-0.082719438 0.046207052 0.66100001
-0.079230241 0.046532147 0.66025001
-0.08091715 -0.021025715 0.66900003
-0.077731431 -0.021025715 0.66900003
-0.072580487 -0.021010002 0.66850007
-0.067537144 -0.021025715 0.66900003
-0.063714288 -0.021025715 0.66900003
-0.082835674 -0.018555844 0.66763645
-0.0770818 -0.018795451 0.66522223
-0.072165981 -0.017882416 0.66586661
-0.067442089 -0.017813034 0.66806251
-0.06282229 -0.018477146 0.66900009
-0.072096609 -0.014056601 0.66657144
-0.069448575 -0.014654287 0.66900003
-0.058404766 -0.014229525 0.66900003
-0.085500002 0.0006333334 0.66500002
-0.082836837 0.0023266671 0.6656667
-0.07709524 0.004435556 0.66533339
-0.072972775 0.0034386672 0.66860008
-0.08091715 0.0057342863 0.66900003
-0.077326201 0.0067418101 0.66769999
-0.073696196 0.0067961914 0.66900009
-0.087170683 -0.025547812 0.67400002
-0.082805723 -0.026318099 0.67400002
-0.077670485 -0.025462225 0.67400002
-0.072161436 -0.026619527 0.67350006
-0.068001695 -0.027130164 0.67288888
-0.063401699 -0.027539896 0.67244446
-0.09050858 -0.021824764 0.67400002
-0.087424569 -0.022657527 0.67200005
-0.082838103 -0.023128131 0.67080003
-0.077724554 -0.02321196 0.6707778
-0.072878495 -0.023654845 0.67125005
-0.067703061 -0.023268234 0.67064291
-0.063873023 -0.023633655 0.67066669
-0.090847 -0.018382223 0.67333335
-0.087344192 -0.018260382 0.67040008
-0.062864177 -0.016912501 0.67012501
-0.09050858 -0.014121906 0.67400002
-0.067473136 -0.012688506 0.67107147
-0.062639415 -0.012781432 0.67112505
-0.059342861 -0.012123811 0.67000002
-0.066758096 -0.0096285725 0.67400002
-0.064832382 -0.0096285725 0.67400002
-0.071147628 0.003509524 0.67000002
-0.06876985 0.0036190476 0.67066669
-0.081038103 0.0070190481 0.67000002
-0.071588032 0.0075700693 0.67028576
-0.068347335 0.0071549527 0.67070001
-0.087946668 -0.030393336 0.67900002
-0.082773343 -0.030393336 0.67900002
-0.077167057 -0.030634096 0.67860001
-0.072266676 -0.030972857 0.67750001
-0.067387357 -0.030883403 0.67757148
-0.062726676 -0.030393338 0.67900008
-0.058846675 -0.031686671 0.67900008
-0.090710007 -0.025733812 0.67550004
-0.087829627 -0.027946765 0.67610008
-0.082192168 -0.028114077 0.67600006
-0.077306241 -0.027798358 0.67590922
-0.072446838 -0.028507147 0.67516673
-0.066857144 -0.028928574 0.67500001
-0.060786672 -0.029100003 0.67900002
-0.090642862 -0.023785716 0.67500001
-0.092357151 -0.017357145 0.67500007
-0.092064768 -0.01480762 0.67600006
-0.070762068 -0.007309366 0.67750001
-0.067310639 -0.0071906368 0.67633343
-0.063276514 -0.0077914298 0.67566675
-0.070917785 -0.002586667 0.67900002
-0.067324027 -0.0028629256 0.67878574
-0.063696675 -0.0035566667 0.67900002
-0.070486672 0.00064666668 0.67900002
-0.069193341 0.00064666668 0.67900002
-0.088464007 -0.036870863 0.68400002
-0.067748576 -0.035828575 0.68400002
-0.062406864 -0.036089148 0.68400002
-0.059280004 -0.036480002 0.68400002
-0.090283811 -0.033129524 0.68200004
-0.087630346 -0.032735921 0.68157142
-0.082759157 -0.032630056 0.68066669
-0.07777001 -0.032730002 0.68049997
-0.072793618 -0.033662997 0.68157142
-0.067423284 -0.03360381 0.68288898
-0.062113635 -0.03287949 0.68099999
-0.058933336 -0.034323812 0.68000001
-0.07188572 -0.0045333337 0.68000001
-0.066704765 -0.00064761908 0.68000001
-0.063466668 -0.0019428573 0.68000001
-0.066484198 0.0011668572 0.68040001
-0.064302862 0.0012990477 0.68200004
-0.072180957 -0.040027622 0.68900001
-0.086777963 -0.037458505 0.68657148
-0.083133653 -0.03665873 0.68733346
-0.075876571 -0.037088003 0.68800002
-0.072602652 -0.037282433 0.68677777
-0.067983463 -0.037914407 0.68637502
-0.062853746 -0.038010754 0.68642867
-0.087328896 -0.03462667 0.68600005
-0.082537785 -0.03462667 0.68600005
-0.078400001 -0.03462667 0.68600005
-0.072520003 -0.03462667 0.68600005
-0.077331431 -0.045605719 0.69400001
-0.071280003 -0.045540001 0.69300002
-0.067417145 -0.045605719 0.69400001
-0.063451439 -0.045605719 0.69400001
-0.085674763 -0.042182386 0.69200003
-0.082692973 -0.041831288 0.69207698
-0.077705413 -0.042146977 0.69143754
-0.072373509 -0.042766832 0.69083333
-0.067222148 -0.042181786 0.69199997
-0.062440086 -0.042255752 0.6923846
-0.058673576 -0.041536432 0.69225001
-0.082162388 -0.03812366 0.69016671
-0.078608438 -0.037660681 0.6902858
-0.082342625 -0.046484049 0.69725001
-0.077112384 -0.046852197 0.69680005
-0.073004194 -0.046506289 0.69560003
-0.067454398 -0.047256935 0.69666672
-0.062115241 -0.047384005 0.69680005
-0.057290476 -0.047116723 0.69677782
-0.084061913 -0.044347622 0.69500005
-0.060233336 -0.044347622 0.69500005
-0.057806354 -0.043465078 0.69500011
-0.08515048 -0.050285719 0.70400006
-0.082468584 -0.050285719 0.70400012
-0.078445718 -0.050285719 0.70400012
-0.072335005 -0.05023215 0.70325005
-0.067411624 -0.051732 0.70360005
-0.062671788 -0.051366672 0.70209104
-0.058138739 -0.050787937 0.70166671
-0.082726195 -0.048701432 0.70050001
-0.0773881 -0.048701428 0.70050001
-0.072026439 -0.048684049 0.70025003
-0.059333336 -0.048666671 0.70000005
-0.056080006 0.0040057148 0.70100003
-0.053484764 0.0046800002 0.70200002
-0.056278288 0.0068180957 0.70180005
-0.053049646 0.00753131 0.70287502
-0.048944764 0.0087161912 0.70400006
-0.05614436 0.012338368 0.70300001
-0.053087741 0.011220357 0.70337498
-0.070800006 -0.055965718 0.708
-0.067404777 -0.056620236 0.70775002
-0.063023098 -0.056283101 0.70774996
-0.086027816 -0.052910101 0.70679998
-0.082308665 -0.053303812 0.70681816
-0.077669054 -0.052634001 0.70669997
-0.072696015 -0.053098794 0.70736361
-0.067333341 -0.054540005 0.70700002
-0.061878335 -0.054482147 0.70624995
-0.058476433 -0.053436432 0.70575005
-0.051028572 0.0047000004 0.70500004
-0.050764289 0.0070604766 0.70599997
-0.049014289 0.0073857149 0.70500004
-0.051248576 0.012788165 0.70671427
-0.04922286 0.012137144 0.708
-0.055926196 0.016171906 0.70749998
-0.052131865 0.016846843 0.70754546
-0.04922286 0.015508573 0.708
-0.085680008 -0.060520004 0.71400005
-0.08228001 -0.060520004 0.71400011
-0.077928007 -0.060792007 0.71400005
-0.071924001 -0.061047055 0.71380007
-0.067517832 -0.06093334 0.71200007
-0.062949911 -0.060775053 0.71380001
-0.086518094 -0.057679527 0.71250004
-0.082699291 -0.057619609 0.71175015
-0.077292636 -0.057633415 0.71191669
-0.072662741 -0.057758216 0.711375
-0.067643099 -0.05884929 0.71025002
-0.061874762 -0.058147382 0.71200001
-0.057776604 -0.056417689 0.71371436
-0.053040005 -0.055760004 0.71400005
-0.076409526 -0.054771431 0.71000004
-0.073704764 -0.054771431 0.71000004
-0.053040005 -0.053040005 0.71400005
-0.047431909 0.014230001 0.71150005
-0.055681907 0.019692382 0.71300006
-0.053419054 0.018933335 0.71000004
-0.047544107 0.017966816 0.71084625
-0.044200003 0.019040002 0.71400005
-0.055747148 0.022434447 0.71383333
-0.052271642 0.022402648 0.71277791
-0.047510482 0.022398416 0.71266675
-0.042340007 0.022560781 0.71390927
-0.038306668 0.023346668 0.71400011
-0.033320002 0.023800004 0.71400011
-0.061200004 0.027880002 0.71400005
-0.05694712 0.027318286 0.71353346
-0.052250963 0.027143341 0.7125001
-0.047520302 0.02715506 0.71281266
-0.042108338 0.027166309 0.71312517
-0.037333731 0.02715151 0.71275014
-0.032574825 0.027144585 0.71256262
-0.029188812 0.027151192 0.71275002
-0.061200004 0.031960003 0.71400005
-0.056832381 0.031679433 0.71380013
-0.052327413 0.031940747 0.71355563
-0.04768803 0.031176466 0.71385729
-0.041953251 0.031820443 0.71363658
-0.037356194 0.032603182 0.71316683
-0.032597683 0.03259816 0.71306264
-0.029199049 0.03191524 0.71300006
-0.081486672 -0.065394759 0.71900004
-0.077378094 -0.065737151 0.71900004
-0.073543437 -0.065600194 0.71900004
-0.061765529 -0.065874092 0.71900004
-0.059574291 -0.066421911 0.71900004
-0.085732393 -0.062537469 0.71633339
-0.082568102 -0.062779531 0.71650004
-0.07749103 -0.062870614 0.71642864
-0.07280381 -0.063021593 0.7166667
-0.067665718 -0.06356477 0.71766675
-0.06248014 -0.062870614 0.71642864
-0.057489786 -0.062680252 0.71693337
-0.054096196 -0.061628573 0.71900004
-0.056505248 -0.058213577 0.71700001
-0.053491116 -0.058499373 0.71700001
-0.056098416 -0.05267651 0.71833342
-0.053411432 -0.051357146 0.71900004
-0.047866669 0.0082047619 0.71800005
-0.047025241 0.011892858 0.71770006
-0.044509526 0.013695238 0.71900004
-0.058042862 0.019802859 0.71700001
-0.04575143 0.016388573 0.71700001
-0.042843655 0.018456351 0.7178334
-0.039031431 0.019858096 0.71900004
-0.061343815 0.023487939 0.71833342
-0.058699053 0.022522859 0.7166667
-0.040232383 0.02113905 0.71600002
-0.037067305 0.022058098 0.71633339
-0.032568362 0.022091959 0.71744442
-0.028947305 0.023020318 0.71800005
-0.061429214 0.027072702 0.7166667
-0.059325717 0.025230478 0.71600002
-0.061371431 0.030685715 0.71600002
-0.056150481 0.034922861 0.71900004
-0.052531749 0.03479334 0.71633339
-0.047701377 0.033900321 0.7166667
-0.043909844 0.034354921 0.7166667
-0.033553336 0.036292382 0.71900004
-0.083201908 -0.070824765 0.72200006
-0.078171432 -0.070628576 0.72000003
-0.072568342 -0.071536906 0.72225004
-0.066102862 -0.073677145 0.72300005
-0.063348576 -0.070922859 0.72300005
-0.085714288 -0.065142862 0.72000003
-0.081799768 -0.067566909 0.72025013
-0.077828579 -0.068228573 0.72000003
-0.07234849 -0.067980863 0.72100019
-0.067334414 -0.067245156 0.72193342
-0.063260958 -0.068076193 0.72200006
-0.048888575 -0.0034428574 0.72300005
-0.045942862 0.0089142863 0.72000003
-0.044726193 0.0082566673 0.72250009
-0.043172382 0.012303387 0.72211123
-0.061929051 0.019954763 0.72250009
-0.058732145 0.018890239 0.72125006
-0.041736551 0.017002026 0.72137511
-0.037278611 0.017500443 0.72176933
-0.032689799 0.018062044 0.72157156
-0.028211433 0.017890003 0.72250009
-0.062443338 0.022300478 0.72050005
-0.028800001 0.021257143 0.72000003
-0.063771434 0.02537143 0.72000003
-0.071908578 -0.073982865 0.72600001
-0.067961916 -0.07224419 0.72519994
-0.064214289 -0.072500005 0.72500002
-0.068357147 -0.069738097 0.72500002
-0.047212977 -0.0024217861 0.72637498
-0.046936832 0.0043926993 0.72833335
-0.046958737 0.0067079365 0.72866672
-0.04271619 0.008080001 0.72733343
-0.039574288 0.0090257153 0.72900003
-0.067068577 0.014520001 0.72600001
-0.060972862 0.01455 0.72750002
-0.041059237 0.012026097 0.72579998
-0.037506353 0.012591812 0.72659999
-0.032720119 0.013328454 0.72712505
-0.028874924 0.013627938 0.72766674
-0.066868261 0.017754605 0.72633338
-0.062442344 0.017165283 0.72627276
-0.058690481 0.016571429 0.72500002
-0.066354528 0.020735953 0.72575003
-0.064214289 0.020714287 0.72500002
-0.061452385 0.033833336 0.72500002
-0.046836194 -0.0076895244 0.73400003
-0.045376193 -0.0025622225 0.73300004
-0.044040002 -0.00069904764 0.73400003
-0.045267858 0.0027850003 0.73124999
-0.043300956 0.0034914287 0.73333335
-0.039845716 0.0048933337 0.73400003
-0.031457145 0.0048933337 0.73400003
-0.027262859 0.0041942857 0.73400003
-0.067108572 0.0090876194 0.73400003
-0.045252383 0.0062657148 0.73100001
-0.041577466 0.0067355558 0.73166674
-0.037671145 0.0076722852 0.73250008
-0.032297384 0.007855 0.73325002
-0.028446192 0.0078528579 0.73299998
-0.066171028 0.011875239 0.73357147
-0.062683024 0.012441589 0.73266673
-0.035505716 0.010442858 0.73100001
-0.032372858 0.010790953 0.73100001
-0.027763814 0.011244899 0.73142856
-0.066138096 0.016012382 0.73100001
-0.045561906 -0.0070095244 0.73600006
-0.043576196 -0.0070285723 0.73800004
-0.042755678 -0.0030041561 0.73818183
-0.038709525 -0.00070380955 0.73900002
-0.041405298 0.0021045506 0.73688889
-0.037546776 0.0033546032 0.73766667
-0.032067943 0.0036656086 0.73733336
-0.027522648 0.0022602119 0.73677778
-0.024533335 0.00070095243 0.73600006
-0.065232858 0.0084166676 0.73650002
-0.062633745 0.0081167351 0.73657149
-0.05974286 0.0084333336 0.73800004
-0.035748575 0.0063085719 0.73600006
-0.033645719 0.0063085719 0.73600006
-0.059580956 0.010514286 0.73600006
-0.043105241 -0.01095381 0.74200004
-0.042164128 -0.008009525 0.74200004
-0.040252857 -0.0028261906 0.74150008
-0.038301717 -0.0026868575 0.74200004
-0.031829208 -0.00070730166 0.74266672
-0.027554445 -0.0014141272 0.74183339
-0.036461275 0.0011755556 0.74100006
-0.032956988 0.0011766668 0.74150008
-0.040952068 -0.011599684 0.74566674
-0.038442384 -0.011390476 0.7475
-0.040442862 -0.008514287 0.74500006
-0.038111433 -0.0076229936 0.7470001
-0.027782859 -0.006411429 0.74800003
-0.036716036 -0.0033182544 0.74616671
-0.032877292 -0.0033383884 0.74669242
-0.027708575 -0.0042638099 0.74600005
-0.035666287 -0.011888764 0.75200003
-0.03241786 -0.012000001 0.75224996
-0.02602159 -0.011220319 0.75200003
-0.023634287 -0.010742858 0.75200003
-0.035590101 -0.0081478106 0.75040007
-0.032181378 -0.0078677256 0.75088888
-0.027114894 -0.0079990476 0.75100011
-0.028618097 -0.011936191 0.75500005
