# .PCD v0.7 - Point Cloud Data file format
VERSION 0.7
FIELDS x y z
SIZE 4 4 4
TYPE F F F
COUNT 1 1 1
WIDTH 306
HEIGHT 1
VIEWPOINT 0 0 0 1 0 0 0
POINTS 306
DATA ascii
-0.041991431 0.013997144 0.63900006
-0.041585717 0.017107619 0.639
-0.039557144 0.017040001 0.63900006
-0.047141775 0.0084827226 0.64285719
-0.042695753 0.0077656414 0.64253855
-0.037953813 0.0073445239 0.64275008
-0.033692621 0.0082707135 0.64325005
-0.046976548 0.012396452 0.64209098
-0.042748261 0.012079304 0.64060003
-0.037822917 0.012200418 0.64056247
-0.032453526 0.012247429 0.64300007
-0.028213335 0.012880001 0.64400005
-0.047670774 0.017111607 0.64168751
-0.043972794 0.016979594 0.6400001
-0.037242621 0.017097065 0.64108336
-0.033350136 0.016425455 0.64309102
-0.04708048 0.022012383 0.64200008
-0.042758215 0.021991549 0.64137495
-0.038351715 0.021321623 0.64330006
-0.047361668 0.026210239 0.64375007
-0.043157015 0.025650067 0.64342862
-0.035068575 0.004306667 0.64600003
-0.031681526 0.0040681907 0.64720005
-0.027909407 0.0032379762 0.64762497
-0.035014287 0.005528572 0.64500004
-0.031488657 0.0068779225 0.64600003
-0.027381772 0.0075714295 0.64714289
-0.023089208 0.0078788372 0.64744443
-0.026668338 0.012104843 0.64624995
-0.023288097 0.011875954 0.64775002
-0.052311592 0.018463017 0.64616668
-0.031491853 0.018103493 0.64555556
-0.027599923 0.016931033 0.64641666
-0.056571435 0.022011429 0.648
-0.053014535 0.02219143 0.64724994
-0.049757145 0.022114288 0.64500004
-0.03651591 0.022869432 0.6455
-0.032498688 0.022062201 0.64761531
-0.053003822 0.027117025 0.64712501
-0.048392866 0.027807621 0.64525002
-0.042890374 0.028116405 0.64644444
-0.038088985 0.025598915 0.64657146
-0.032091431 0.025302859 0.648
-0.052450161 0.031114498 0.64622223
-0.048254289 0.031418573 0.6468333
-0.043817144 0.030240001 0.648
-0.04875429 0.035177145 0.648
-0.025380954 0.0043333336 0.65000004
-0.025380954 0.0061904769 0.65000004
-0.021339867 0.013194559 0.65085721
-0.025710002 0.018276667 0.65050006
-0.022692749 0.017057437 0.65215391
-0.01927905 0.016791429 0.65300006
-0.056974053 0.022912621 0.65025002
-0.030333336 0.022904765 0.65000004
-0.028075242 0.02186889 0.65188891
-0.056580957 0.026866669 0.65000004
-0.040269051 0.028498573 0.65050006
-0.03701983 0.028005801 0.65081823
-0.033428576 0.027223133 0.65171432
-0.046463579 0.033145003 0.65050006
-0.042210143 0.032280341 0.65178573
-0.03777175 0.031419579 0.65255558
-0.046755835 0.037205793 0.65192312
-0.043740641 0.03586318 0.65300006
-0.053266674 -0.016293334 0.65800005
-0.056692146 -0.010962619 0.65775007
-0.052934438 -0.012186742 0.65746158
-0.048356574 -0.011120764 0.65600008
-0.061076909 -0.0072045242 0.65775001
-0.057470612 -0.0073876837 0.65733343
-0.052499413 -0.0075001195 0.65625006
-0.047572386 -0.0075102388 0.65724999
-0.04449334 -0.006893334 0.65800011
-0.056913432 -0.0028753334 0.65670007
-0.052878812 -0.0028145239 0.65708339
-0.046373338 -0.0043866672 0.65800005
-0.044493336 -0.0043866672 0.65800005
-0.057653338 0.0006266667 0.65800005
-0.052013338 0.0006266667 0.65800005
-0.021001589 0.018922225 0.65500009
-0.018721193 0.018721668 0.65525001
-0.026501907 0.023112519 0.65585721
-0.02293421 0.022102145 0.65675008
-0.018770954 0.021274764 0.65700001
-0.03132708 0.028114561 0.65600008
-0.0281677 0.027542939 0.65725005
-0.024440002 0.025693335 0.65800005
-0.040547621 0.034309525 0.65500003
-0.036844086 0.033633746 0.65571433
-0.033168048 0.031778838 0.65711117
-0.028826669 0.030706668 0.65800005
-0.042121544 0.037800223 0.65561545
-0.038188834 0.037392993 0.65736371
-0.04678572 0.040547621 0.65500009
-0.042571709 0.041145038 0.65600002
-0.037297688 0.041234836 0.65742862
-0.034466669 0.04198667 0.65800005
-0.066759229 -0.017392987 0.66300011
-0.062006284 -0.016796002 0.66300005
-0.057823181 -0.016611537 0.66233343
-0.054851431 -0.017022857 0.66200006
-0.066805147 -0.013512573 0.66300005
-0.061833572 -0.012619762 0.66250008
-0.058216512 -0.0131127 0.66083336
-0.06178667 -0.009457143 0.66200006
-0.059714291 -0.0094285719 0.66000003
-0.043371432 -0.0069142859 0.66000003
-0.05594286 -0.00062857149 0.66000003
-0.051895719 -0.001572381 0.66050005
-0.048165865 -0.0023706963 0.66076928
-0.044628575 -0.0031428575 0.66000003
-0.056497335 0.0021400002 0.66060007
-0.053702544 0.0020316404 0.66166675
-0.049177147 0.00063047622 0.66200006
-0.02137143 0.023885716 0.66000003
-0.017665716 0.023976192 0.66250008
-0.025781192 0.027668335 0.66025001
-0.022567941 0.027864702 0.66193342
-0.019574286 0.027782859 0.66300005
-0.031925581 0.03372531 0.66100001
-0.027527552 0.033016127 0.66121429
-0.023520717 0.032044999 0.66300005
-0.03633143 0.038091432 0.66000003
-0.032783572 0.037828453 0.66200012
-0.028744223 0.037034564 0.6622858
-0.0327508 0.041359365 0.66133344
-0.066900007 -0.026122859 0.66900003
-0.072103105 -0.021806432 0.66850007
-0.067261659 -0.022761971 0.6675334
-0.062188257 -0.02276629 0.66766667
-0.057245478 -0.022900598 0.66787493
-0.053587895 -0.022837145 0.6687144
-0.072310001 -0.017760599 0.66600007
-0.067513339 -0.018366668 0.66500002
-0.062418528 -0.01850741 0.66500002
-0.057114158 -0.019098643 0.66528577
-0.053570479 -0.019269526 0.667
-0.071711123 -0.013749207 0.66633332
-0.067256287 -0.012274461 0.66563636
-0.063966669 -0.012666668 0.66500002
-0.071306199 -0.0089128576 0.66850007
-0.067488104 -0.0095500005 0.66850007
-0.063966669 -0.0095000006 0.66500002
-0.051518101 0.003453545 0.66600001
-0.047640961 0.0034947621 0.667
-0.042688575 0.0044600004 0.66900003
-0.055265717 0.0063523818 0.66700006
-0.051928382 0.0067460961 0.66820014
-0.047995239 0.0060390485 0.66750008
-0.017215153 0.027693944 0.66500002
-0.020900002 0.03166667 0.66500002
-0.019633334 0.03166667 0.66500002
-0.066116191 -0.030169526 0.67400002
-0.062906668 -0.030169526 0.67400002
-0.057771433 -0.030169526 0.67400002
-0.054400004 -0.030720001 0.67200005
-0.076707631 -0.025997145 0.67400002
-0.07221429 -0.027184358 0.67271435
-0.067888923 -0.027635068 0.67190909
-0.062666282 -0.027497541 0.6714167
-0.057521667 -0.027483735 0.67108339
-0.053150836 -0.02729393 0.67037505
-0.076960482 -0.022560714 0.67199999
-0.073317267 -0.02412012 0.67087501
-0.069552384 -0.024885716 0.67000002
-0.064447626 -0.024885716 0.67000002
-0.051311117 -0.023064552 0.67066669
-0.047422096 -0.022879999 0.67106658
-0.080238104 -0.017973334 0.67400002
-0.077351652 -0.018538309 0.67122221
-0.051161431 -0.019825239 0.67150003
-0.047341671 -0.01983262 0.67175007
-0.071359687 -0.0066028582 0.671
-0.067558736 -0.0074575669 0.67133337
-0.064704135 -0.0070457151 0.67266673
-0.071040004 -0.0044800001 0.67200005
-0.06654413 -0.0040653972 0.67400002
-0.064832382 -0.0032095241 0.67400002
-0.044028573 0.0044666668 0.67000002
-0.056278575 0.0089533348 0.67149997
-0.053839684 0.0087253973 0.67033339
-0.045304764 0.0057428577 0.67000002
-0.044028573 0.0057428577 0.67000002
-0.056701593 0.011340319 0.67400002
-0.054400004 0.010880001 0.67200005
-0.080833338 -0.031686671 0.67900008
-0.077523977 -0.031656507 0.6783334
-0.072453022 -0.031175554 0.67722225
-0.067291752 -0.032035451 0.67722225
-0.062337339 -0.032717526 0.67620009
-0.058253933 -0.032346785 0.67587507
-0.081420481 -0.027140001 0.6785
-0.077644967 -0.027812764 0.67600006
-0.073285721 -0.028928574 0.67500001
-0.082217336 -0.022588193 0.67759997
-0.079130009 -0.023160476 0.67550004
-0.080357149 -0.019928573 0.67500001
-0.070071436 -0.0057857148 0.67500001
-0.068142861 -0.0057857148 0.67500001
-0.070963502 -0.0032152385 0.67533344
-0.068032622 -0.0022509526 0.67550009
-0.064928576 -0.0019285716 0.67500001
-0.085337147 -0.035828575 0.68400002
-0.082307905 -0.036364492 0.68357152
-0.07195691 -0.036141194 0.68375003
-0.067390159 -0.03661979 0.68255562
-0.063606672 -0.036348097 0.68150002
-0.086881906 -0.031997941 0.6833334
-0.082801804 -0.032646034 0.68099999
-0.077770963 -0.03434905 0.68050003
-0.072423004 -0.033848029 0.68157142
-0.068100959 -0.03405048 0.68099999
-0.064114287 -0.034323812 0.68000001
-0.087296195 -0.027365824 0.68233335
-0.08419048 -0.0272 0.67999995
-0.086650804 -0.023553653 0.68066669
-0.0848381 -0.023961907 0.68000001
-0.086617149 -0.040683813 0.68900001
-0.084648579 -0.040027622 0.68900001
-0.071524769 -0.040027622 0.68900001
-0.087111853 -0.037333064 0.68771434
-0.082499526 -0.038303811 0.68750006
-0.07726191 -0.036667623 0.6875
-0.072591126 -0.038366668 0.68666673
-0.068600014 -0.038546674 0.68600005
-0.088372074 -0.034257781 0.68733346
-0.087245718 -0.045605719 0.69400001
-0.0819581 -0.045605719 0.69400001
-0.077595808 -0.045870103 0.69400001
-0.072625957 -0.046217386 0.69324994
-0.067020588 -0.045870103 0.69400001
-0.064112388 -0.046266671 0.69400001
-0.090762675 -0.041880768 0.69360006
-0.087388769 -0.042971816 0.69200003
-0.082674012 -0.042177141 0.69276923
-0.077859223 -0.042230658 0.69281256
-0.072518393 -0.042560741 0.6907692
-0.067547634 -0.042395785 0.69242865
-0.064066201 -0.043591909 0.69350004
-0.09169779 -0.037601907 0.69266665
-0.088714294 -0.038771432 0.69000006
-0.080945723 -0.03882762 0.69100004
-0.077571668 -0.03878548 0.69025004
-0.090884291 -0.034904286 0.69150007
-0.071964607 -0.052036032 0.69749999
-0.092031248 -0.046347816 0.6972
-0.087560005 -0.0470981 0.69650006
-0.082428478 -0.047513761 0.6961112
-0.07723631 -0.048564412 0.69612503
-0.072614834 -0.048947621 0.69585729
-0.068365313 -0.047940824 0.69500011
-0.095725715 -0.042544764 0.69800007
-0.093165487 -0.042438813 0.69625008
-0.096286908 -0.037185956 0.69725001
-0.094442099 -0.036689721 0.69540006
-0.076066673 -0.055991113 0.7026667
-0.073490955 -0.056120478 0.7015
-0.096480004 -0.050920479 0.70350003
-0.092151687 -0.051400177 0.70254552
-0.087209016 -0.05167013 0.70290917
-0.082398616 -0.05163065 0.70236373
-0.077607922 -0.052543737 0.70107692
-0.0735908 -0.053581275 0.70033336
-0.097579449 -0.047451831 0.70175004
-0.093000002 -0.048333336 0.70000005
-0.088 -0.048666671 0.70000005
-0.098695874 -0.042997252 0.70177782
-0.098726362 -0.037886035 0.70200008
-0.078891434 -0.060011432 0.708
-0.095074289 -0.056640003 0.708
-0.092311911 -0.056600478 0.70749998
-0.087517262 -0.056550842 0.70687497
-0.082085289 -0.057093337 0.70711106
-0.078023098 -0.05767858 0.70624995
-0.10144954 -0.051398735 0.70700002
-0.09768682 -0.052927624 0.70600009
-0.09311372 -0.054148007 0.70540005
-0.08728572 -0.054385718 0.70500004
-0.083257154 -0.054385718 0.70500004
-0.10138573 -0.047671434 0.7050001
-0.10218953 -0.061817829 0.71328574
-0.097805411 -0.061808094 0.71316683
-0.094022542 -0.060945086 0.71366668
-0.086999379 -0.061398417 0.7136668
-0.082543217 -0.061584767 0.71200013
-0.078493342 -0.062253814 0.7105
-0.1054 -0.057120003 0.71400005
-0.10264438 -0.057431817 0.71280015
-0.097915433 -0.05769334 0.71099997
-0.092284292 -0.059035718 0.71250004
-0.087351434 -0.058911435 0.71100008
-0.083847627 -0.058828574 0.71000004
-0.10213353 -0.053704955 0.71020001
-0.099400006 -0.054771431 0.71000004
-0.092442863 -0.065737143 0.71900004
-0.10433143 -0.060689528 0.71600002
-0.095181912 -0.063682862 0.71900004
-0.09188287 -0.062596507 0.71700007
-0.087989919 -0.063435242 0.71620005
-0.10660446 -0.058871116 0.71600002
-0.096744291 -0.065758571 0.72300005
-0.094290793 -0.06676127 0.72266674
-0.098738104 -0.071119055 0.72500002
-0.10112545 -0.068567894 0.72514284
-0.097529769 -0.068529762 0.72499996
