# .PCD v0.7 - Point Cloud Data file format
VERSION 0.7
FIELDS x y z
SIZE 4 4 4
TYPE F F F
COUNT 1 1 1
WIDTH 637
HEIGHT 1
VIEWPOINT 0 0 0 1 0 0 0
POINTS 637
DATA ascii
-0.10463049 -0.030169526 0.67400002
-0.068683811 -0.030169526 0.67400002
-0.10591429 -0.025034288 0.67400002
-0.10292381 -0.027040003 0.67333329
-0.097368322 -0.026194291 0.67381817
-0.092508964 -0.026045715 0.67360002
-0.087896839 -0.026091114 0.67366666
-0.075873151 -0.026061336 0.67400002
-0.072535239 -0.026157623 0.67400002
-0.069325715 -0.026960004 0.67400002
-0.10591429 -0.021824764 0.67400002
-0.1024879 -0.022785036 0.67257142
-0.097352862 -0.022417624 0.67250001
-0.092056341 -0.02278504 0.67257142
-0.087510005 -0.022545559 0.67316663
-0.084089532 -0.021182859 0.67400002
-0.07574477 -0.023750478 0.67400002
-0.072535247 -0.022466671 0.67400002
-0.068844289 -0.022466671 0.67400002
-0.10634224 -0.018401271 0.67400002
-0.10261013 -0.017955597 0.67337489
-0.097678743 -0.018097781 0.67386663
-0.092587307 -0.019030055 0.67355561
-0.087714769 -0.019081905 0.67349994
-0.084089532 -0.01989905 0.67400002
-0.072535239 -0.019899052 0.67400002
-0.06996762 -0.01989905 0.67400002
-0.10591429 -0.014763811 0.67400002
-0.10283315 -0.01450705 0.67400002
-0.099495247 -0.014763811 0.67400002
-0.045913335 -0.035566669 0.67900002
-0.044620004 -0.035566669 0.67900002
-0.11187335 -0.030393338 0.67900008
-0.10795821 -0.031676721 0.67877775
-0.10117829 -0.03088381 0.67840004
-0.096946076 -0.031023214 0.67862499
-0.092542194 -0.031278506 0.67814285
-0.087848812 -0.031006429 0.67825001
-0.082702152 -0.03166008 0.67841667
-0.077562548 -0.031671427 0.67866671
-0.072250649 -0.031609844 0.67733335
-0.067112774 -0.031621717 0.67759997
-0.063373342 -0.031040002 0.67900002
-0.058200002 -0.030393336 0.67900002
-0.051733337 -0.030393336 0.67900002
-0.047553249 -0.031800173 0.67890906
-0.042928725 -0.031985126 0.67900002
-0.11575334 -0.025866669 0.67900002
-0.1124587 -0.02714524 0.67862499
-0.10772053 -0.027239483 0.67654556
-0.10092857 -0.028285716 0.67500001
-0.09824305 -0.028714288 0.67600006
-0.092923604 -0.027971217 0.67600006
-0.086870804 -0.027814077 0.67566675
-0.08250495 -0.027073395 0.67681259
-0.077879921 -0.027483379 0.67681825
-0.072697148 -0.028628573 0.67550004
-0.066359848 -0.027061112 0.67650008
-0.062045004 -0.02714536 0.67862499
-0.057670914 -0.027336368 0.67899996
-0.052379999 -0.027375558 0.67899996
-0.047696449 -0.027272703 0.67860001
-0.042923674 -0.027504914 0.67892307
-0.038800001 -0.029100003 0.67900002
-0.1156681 -0.021971431 0.67850006
-0.11248948 -0.02198042 0.6788125
-0.108 -0.022370953 0.67600006
-0.085500002 -0.023785716 0.67500001
-0.082189463 -0.022270769 0.67707705
-0.077803813 -0.021921908 0.67700005
-0.065841071 -0.022214644 0.67612505
-0.062056437 -0.021978574 0.67874998
-0.058846671 -0.023280002 0.67900002
-0.046775561 -0.023064446 0.67900002
-0.043696199 -0.022633335 0.67900002
-0.11558287 -0.018725716 0.67800003
-0.095785722 -0.016071429 0.67500001
-0.092315659 -0.016625851 0.67514294
-0.08707381 -0.016899524 0.676
-0.082662575 -0.017624034 0.67769235
-0.07725361 -0.017789798 0.67757154
-0.072545432 -0.017683145 0.67769998
-0.067501262 -0.01822667 0.67800003
-0.063588902 -0.018322226 0.67900008
-0.10668039 -0.011967239 0.67560005
-0.10247408 -0.012034507 0.67607701
-0.097281352 -0.012775939 0.67766678
-0.092715316 -0.013098302 0.67807144
-0.087775297 -0.012906966 0.67768764
-0.083173513 -0.013578009 0.67890906
-0.07760001 -0.014226668 0.67899996
-0.073073342 -0.013580001 0.67899996
-0.068546668 -0.014226668 0.67900002
-0.10662113 -0.0077536516 0.67850006
-0.10185306 -0.0079408167 0.67871433
-0.097000003 -0.0077600004 0.67899996
-0.092473343 -0.0077600004 0.67900002
-0.088045277 -0.0082027856 0.67861545
-0.084390007 -0.008406667 0.67900002
-0.10605334 -0.0045266668 0.67900002
-0.096497037 -0.0033770376 0.67899996
-0.092588365 -0.0025344326 0.67838466
-0.08984255 -0.0032323811 0.67866671
-0.095318675 0.0027160004 0.67900002
-0.092602685 0.0029746671 0.67899996
-0.088852003 0.0040093339 0.67900002
-0.088852011 0.0063373344 0.67900002
-0.10162286 -0.035828575 0.68400002
-0.09771429 -0.035828575 0.68400002
-0.092502862 -0.035828575 0.68400002
-0.086957969 -0.036364496 0.68357152
-0.082453817 -0.036236674 0.68350005
-0.077520005 -0.035828575 0.68400002
-0.072431795 -0.036623217 0.68362504
-0.067699052 -0.036453813 0.68350005
-0.062537149 -0.035828575 0.68400002
-0.057023138 -0.036371976 0.68371433
-0.052076194 -0.03645381 0.68349999
-0.047772381 -0.03657886 0.68340003
-0.043061525 -0.036296576 0.68300003
-0.038414925 -0.035811119 0.68366671
-0.12122341 -0.03144354 0.68171436
-0.11750741 -0.031811111 0.68166667
-0.1129016 -0.03216508 0.67999995
-0.10743397 -0.034075238 0.68366671
-0.10288533 -0.03338743 0.68200004
-0.097321913 -0.033739287 0.68124998
-0.091916196 -0.033855241 0.6817143
-0.087278649 -0.033854697 0.68171436
-0.08232826 -0.034357466 0.68066669
-0.077940479 -0.034424763 0.68200004
-0.072853342 -0.034475241 0.68300003
-0.067161143 -0.034165718 0.6820001
-0.06184588 -0.032871272 0.68116665
-0.056942523 -0.032739662 0.68164295
-0.052695818 -0.032838475 0.6814
-0.048571434 -0.033546668 0.68000001
-0.041744765 -0.033959366 0.68133342
-0.037632447 -0.032445062 0.6813125
-0.034513097 -0.032560237 0.68375003
-0.12171137 -0.027672969 0.68061537
-0.11775544 -0.02752305 0.68160009
-0.05547937 -0.026552385 0.68000001
-0.05355658 -0.026841907 0.68080008
-0.049866669 -0.025257144 0.68000001
-0.041663494 -0.025688892 0.68000001
-0.037613045 -0.027122203 0.6818462
-0.03450048 -0.027339526 0.68350005
-0.1177162 -0.023025716 0.68100005
-0.056712933 -0.021834012 0.68000001
-0.052201573 -0.021880206 0.68150014
-0.048291791 -0.021551786 0.68062496
-0.041978415 -0.021528466 0.68044448
-0.038176488 -0.021965642 0.68300015
-0.033994857 -0.021230668 0.68380004
-0.071343809 -0.016214287 0.68099999
-0.066057146 -0.016190477 0.68000001
-0.061756723 -0.017223386 0.68099999
-0.057199843 -0.017549366 0.68250006
-0.052094996 -0.017581668 0.68375003
-0.04753175 -0.018882222 0.68366671
-0.041630477 -0.01886381 0.68300003
-0.03792417 -0.01774155 0.68362504
-0.033874288 -0.016937144 0.68400002
-0.081988573 -0.011527619 0.68000001
-0.077714294 -0.011657143 0.67999995
-0.072018817 -0.012325477 0.68125004
-0.067466155 -0.013138183 0.68054539
-0.062475875 -0.014917145 0.68099999
-0.057293929 -0.014323215 0.68362504
-0.05276572 -0.014331429 0.68400002
-0.036870863 -0.014201144 0.68400002
-0.034525715 -0.014331429 0.68400002
-0.10426667 -0.0064761909 0.68000001
-0.086973816 -0.0058414293 0.68150002
-0.08224763 -0.0097142868 0.68000001
-0.077784598 -0.008563119 0.68218184
-0.07297273 -0.0085668406 0.68245465
-0.069499053 -0.0097428579 0.68200004
-0.10602763 -0.0032523812 0.68300003
-0.10265388 -0.002598274 0.68218756
-0.098222226 -0.0015111113 0.68000001
-0.090019055 -0.00064761908 0.68000001
-0.087662525 -0.0025338531 0.6809091
-0.10229524 0.00091009535 0.68240005
-0.097873755 0.0015738778 0.6805715
-0.090990484 0.00097142864 0.68000001
-0.087165929 0.0016571431 0.68133336
-0.09520001 0.0064761909 0.68000001
-0.092500217 0.0079818387 0.68192869
-0.095147625 -0.045277145 0.68900001
-0.034778096 -0.045277145 0.68900001
-0.10761525 -0.041340001 0.68900007
-0.10224017 -0.041616827 0.6881668
-0.09753377 -0.042055849 0.68900013
-0.09252286 -0.041996196 0.68900001
-0.087492071 -0.040465083 0.68900007
-0.083992392 -0.040683813 0.68900001
-0.076446198 -0.040683813 0.68900001
-0.072360009 -0.042341523 0.68820012
-0.067587614 -0.040683813 0.68900001
-0.063650481 -0.040027622 0.68900001
-0.057088576 -0.040902544 0.68900001
-0.05245667 -0.041310001 0.68849999
-0.047210004 -0.040981907 0.68850005
-0.041996192 -0.04035572 0.68900001
-0.037140384 -0.041864958 0.68900007
-0.033577908 -0.041577719 0.68860006
-0.11220859 -0.037027895 0.68900007
-0.10728976 -0.037289765 0.68691677
-0.10240115 -0.03792705 0.68660003
-0.097275801 -0.038106263 0.68814296
-0.092686541 -0.03787946 0.68742865
-0.088040769 -0.038330287 0.68680006
-0.082381338 -0.038113527 0.68760008
-0.077318102 -0.038004763 0.68800008
-0.07231921 -0.039427463 0.6861667
-0.068155058 -0.038853336 0.68680012
-0.062789291 -0.037935477 0.68675005
-0.057447899 -0.038765989 0.68657148
-0.052285958 -0.039214525 0.68625009
-0.047348712 -0.039131023 0.68642867
-0.042266477 -0.038080193 0.68699998
-0.03777656 -0.038380809 0.68661553
-0.032753021 -0.037341114 0.68783343
-0.028872384 -0.037402865 0.68900007
-0.11245429 -0.034651905 0.68650007
-0.10649334 -0.03462667 0.68600005
-0.031964593 -0.032917835 0.68754554
-0.028478671 -0.033072002 0.68900007
-0.035933334 -0.025480002 0.68600005
-0.032754168 -0.027517503 0.68787503
-0.035933338 -0.022866666 0.68600005
-0.033973336 -0.024173334 0.68600005
-0.05030667 -0.015026668 0.68600005
-0.048673339 -0.016660001 0.68600005
-0.035933334 -0.018293336 0.68600005
-0.033973336 -0.018946668 0.68600005
-0.092120007 0.011106667 0.68600005
-0.079514287 -0.045342859 0.69000006
-0.071365714 -0.045868576 0.69000006
-0.06717287 -0.046759844 0.69150007
-0.062046759 -0.046866275 0.69308329
-0.057420008 -0.046860002 0.69299996
-0.052737623 -0.046804603 0.69216669
-0.047267836 -0.04639101 0.69255555
-0.042428929 -0.046390839 0.69337499
-0.037475877 -0.046022229 0.69033337
-0.026981905 -0.045408573 0.6910001
-0.023133336 -0.045605719 0.69400001
-0.11516667 -0.040801909 0.69100004
-0.11237144 -0.040611431 0.69000006
-0.095614292 -0.041400004 0.69000006
-0.092050552 -0.042208802 0.69000012
-0.087838106 -0.042933341 0.69000006
-0.082361922 -0.042495247 0.69000006
-0.077871427 -0.042495247 0.69000006
-0.070971429 -0.044028573 0.69000006
-0.066636458 -0.042731524 0.69027281
-0.062045723 -0.042498026 0.69138461
-0.058012705 -0.042652491 0.69133329
-0.05263 -0.043419052 0.69075
-0.047162861 -0.043215774 0.69100004
-0.042292822 -0.042891439 0.69090915
-0.037785716 -0.043700002 0.69000006
-0.030885717 -0.041400004 0.69000006
-0.027504638 -0.041982483 0.69093347
-0.022574605 -0.042112514 0.69306672
-0.018591432 -0.04153315 0.69220001
-0.11500001 -0.038771432 0.69000006
-0.11237143 -0.038771432 0.69000006
-0.080828577 -0.038771432 0.69000006
-0.026285714 -0.037457146 0.69000006
-0.022375241 -0.037511438 0.6910001
-0.017914049 -0.037306666 0.69025004
-0.026066666 -0.032419048 0.69000006
-0.022364583 -0.032889709 0.69068754
-0.017223621 -0.033000898 0.69026673
-0.030885717 -0.028257145 0.69000006
-0.027789872 -0.028387275 0.69027281
-0.022375241 -0.028956192 0.69100004
-0.018426668 -0.029614288 0.69100004
-0.097352386 0.011550477 0.69300002
-0.094516195 0.015201906 0.69400001
-0.042030953 -0.047988094 0.69500005
0.0094396202 -0.028318858 0.69800001
0.011965715 -0.02792 0.69800001
0.0099714296 -0.024596192 0.69800001
0.012298096 -0.022934288 0.69800001
-0.10209823 0.012763691 0.69612509
-0.098415822 0.013113715 0.69540006
-0.10082223 0.0157327 0.69800007
-0.097104959 0.016871428 0.69740003
-0.094020002 0.01790381 0.69620007
-0.095060959 0.02060762 0.69800001
-0.093731433 0.02060762 0.69800001
-0.10127144 0.043685719 0.69500005
-0.097578101 0.044253659 0.69700003
-0.09203691 0.044190716 0.69774997
-0.08837112 0.044517782 0.69766665
-0.1011804 0.048140004 0.69620007
-0.098006994 0.047611684 0.69626671
-0.092932984 0.047793929 0.69700015
-0.088339299 0.047822781 0.69741672
-0.096343815 0.051162224 0.69766665
-0.092999533 0.051150002 0.69749999
-0.0012068573 -0.043044575 0.70400006
0.0017432381 -0.041435432 0.70400006
0.0073752385 -0.041234285 0.70400006
0.010504128 -0.041346036 0.70400012
-0.00066761911 -0.03605143 0.70100003
0.0026775005 -0.037488457 0.70287508
0.0073602395 -0.037472785 0.70258343
0.011245109 -0.037264161 0.70209098
-0.0006690477 -0.032111429 0.70250005
0.0025366354 -0.03218209 0.70106679
0.0073377788 -0.032687832 0.70044446
0.011333333 -0.032666672 0.70000005
-0.00067047623 -0.027489524 0.70400006
0.0028232969 -0.027580077 0.70107704
0.0073333336 -0.027818184 0.69999999
-0.00066952384 -0.02299016 0.70300007
0.002669286 -0.022703571 0.70112509
0.0073333336 -0.022666669 0.69999999
0.010333334 -0.021666668 0.70000005
-0.0012443538 -0.017131157 0.70342863
0.0026742264 -0.017376371 0.70181262
0.0073497631 -0.017370716 0.70158339
0.011741226 -0.017179457 0.70157158
-0.0010057143 -0.01240381 0.70400006
0.0020114286 -0.01354362 0.70400006
0.0069212704 -0.013619684 0.70333338
0.012497779 -0.013613652 0.70300001
-0.10607572 0.018680478 0.70050001
-0.10300996 0.018007535 0.70027274
-0.098888896 0.018888891 0.70000005
-0.10578477 0.020755239 0.70300001
-0.10232881 0.02274151 0.70225012
-0.097541094 0.022818033 0.70053339
-0.093444288 0.02336143 0.70083344
-0.09756875 0.027329264 0.70300007
-0.093411051 0.026938288 0.70360005
-0.097070061 0.031810369 0.70400006
-0.044251435 0.034194287 0.70400006
-0.10184 0.038859528 0.70350003
-0.097552732 0.037718307 0.70364296
-0.092660442 0.038318794 0.70363647
-0.087038107 0.038161527 0.70300007
-0.082477532 0.038230099 0.70180005
-0.077674054 0.038167227 0.7030834
-0.072464012 0.037636954 0.7032001
-0.067320958 0.038783815 0.70385718
-0.062354289 0.039558098 0.70400012
-0.057650361 0.038880602 0.70387501
-0.051830824 0.038187191 0.70345461
-0.047389705 0.037654459 0.70263648
-0.042926293 0.037575178 0.70206678
-0.038343813 0.038877904 0.70139998
-0.10157581 0.041887432 0.7026
-0.097488403 0.041970652 0.70154554
-0.09238486 0.041786194 0.70090008
-0.087488577 0.042379484 0.70027274
-0.082710601 0.042688806 0.70037502
-0.077464819 0.042737566 0.70118755
-0.072084218 0.042715296 0.70081252
-0.067540966 0.042796191 0.70216674
-0.062906966 0.042829584 0.70268756
-0.057529286 0.042810358 0.70237505
-0.052200891 0.042829942 0.70268756
-0.047400951 0.042727627 0.70100015
-0.042731609 0.042731848 0.70106262
-0.03885543 0.041792955 0.70100003
-0.08600001 0.047333341 0.70000005
-0.082744129 0.047379054 0.70066667
-0.077490568 0.04743024 0.70141673
-0.072120488 0.047413021 0.70116681
-0.067578316 0.047506142 0.7025556
-0.062941991 0.047542468 0.7030834
-0.057565879 0.047526516 0.70283335
-0.052925177 0.046991572 0.70342863
-0.047536194 0.046197146 0.70300001
-0.044730481 0.046065718 0.70100003
-0.10132548 0.052837864 0.70225006
-0.097617567 0.053145189 0.70044452
-0.092363812 0.053115003 0.7015
-0.087336034 0.051245242 0.70183343
-0.083689049 0.050549529 0.70300001
-0.00067142863 -0.046328574 0.70500004
0.0029580954 -0.046648961 0.7058
0.0063828574 -0.046360478 0.70550001
-0.00067142863 -0.044985719 0.70500004
0.0029095241 -0.043344449 0.70499998
0.007577552 -0.04364286 0.70500004
0.011414287 -0.042300005 0.70500004
-0.010788572 -0.026297145 0.708
-0.0087657152 -0.026297145 0.708
-0.0013480954 -0.028300479 0.70749998
-0.010114286 -0.023600001 0.708
-0.0087657152 -0.023600001 0.708
-0.0013428573 -0.010071429 0.70500004
0.0029961041 -0.011430912 0.70609087
0.0075469846 -0.011580213 0.70611107
0.011266191 -0.011265716 0.70624995
0.0028312383 -0.0084910486 0.70760006
0.0074171438 -0.0087657152 0.70800006
0.010780477 -0.0087595247 0.70749998
-0.10556382 0.02353524 0.70600003
-0.10651222 0.027639523 0.70783341
-0.10254858 0.027686289 0.70559996
-0.092460766 0.028667239 0.70660001
-0.10563858 0.032295715 0.70649999
-0.10220287 0.032273572 0.70599991
-0.09780477 0.033347622 0.7050001
-0.092811026 0.032282442 0.70618743
-0.088289842 0.033173651 0.7076667
-0.081719242 0.034060575 0.70679998
-0.07741572 0.033657622 0.70683336
-0.073169217 0.033890478 0.70700002
-0.067380004 0.034364287 0.70749998
-0.061912932 0.033411428 0.70771438
-0.057511147 0.033131719 0.70710003
-0.052402589 0.032593336 0.70671433
-0.047222547 0.032415085 0.70666665
-0.042682763 0.032583527 0.70690006
-0.039689213 0.032960959 0.70633334
-0.1017694 0.036161229 0.70500004
-0.09230572 0.035874479 0.70539999
-0.08783754 0.035914864 0.70620006
-0.082585722 0.035585716 0.7050001
-0.077885717 0.035585716 0.70500004
-0.070500001 0.035585716 0.70500004
-0.066960536 0.036652595 0.70544446
-0.062521599 0.036973864 0.70588887
-0.05776405 0.036269762 0.70524997
-0.053311434 0.036122862 0.70500004
-0.049014289 0.035585716 0.70500004
-0.040957145 0.035585716 0.70500004
-0.03916667 0.03603334 0.7050001
-0.051750164 0.048165403 0.70566672
-0.047782224 0.047784131 0.70666665
-0.067676604 0.051118508 0.70757145
-0.061809532 0.050571434 0.70800006
-0.010192858 -0.032617144 0.71350008
-0.0075987023 -0.032434724 0.71354556
-0.003564286 -0.031724285 0.7125001
-0.015563334 -0.025712859 0.7105
-0.012065794 -0.026950559 0.71041667
-0.0073305629 -0.027171776 0.71163642
-0.0035148053 -0.026938705 0.71200007
-0.016950585 -0.0223745 0.71188897
-0.012705821 -0.022478944 0.71044445
-0.0071862862 -0.022919621 0.71200007
-0.0032420107 -0.022530267 0.71211123
0.0047333338 -0.0074380958 0.71000004
0.0060857148 -0.0074380958 0.71000004
-0.055080004 0.023800002 0.71400005
-0.05233556 0.023788892 0.71366668
-0.048926193 0.023783335 0.71350002
-0.040800001 0.023800002 0.71400005
-0.038760003 0.023800002 0.71400005
-0.090313338 0.027840953 0.71300006
-0.087700687 0.028587213 0.71228576
-0.082601905 0.028634015 0.71342868
-0.077465713 0.028539525 0.71350014
-0.072327763 0.028639594 0.71357149
-0.067225724 0.028520001 0.71300006
-0.062461548 0.028514167 0.71287501
-0.056776673 0.027708286 0.71310014
-0.05240491 0.02726865 0.71176934
-0.047457628 0.02711631 0.71187514
-0.04237055 0.026952043 0.71264297
-0.039084766 0.027561273 0.71166676
-0.087069944 0.031407081 0.71028578
-0.082868755 0.031729877 0.71163642
-0.077220961 0.03115881 0.71125001
-0.0723112 0.031666193 0.71125001
-0.067729212 0.031832226 0.71116674
-0.062690832 0.031344645 0.7116251
-0.057584763 0.030485716 0.71133339
-0.05341905 0.030428573 0.71000004
-0.048685715 0.030428573 0.71000004
-0.04195286 0.030450001 0.7105
-0.039951432 0.030471431 0.71100003
-0.048618097 0.019858096 0.71900004
-0.091073342 0.023281906 0.71900004
-0.087394819 0.023046246 0.71877778
-0.08267799 0.022546986 0.71744454
-0.077925801 0.022556748 0.71775001
-0.072467633 0.022703467 0.71845454
-0.067400143 0.023184085 0.71900004
-0.062517144 0.022707431 0.71819997
-0.057634205 0.022443032 0.71809095
-0.052664928 0.02188619 0.71816677
-0.047579624 0.022284767 0.71780002
-0.042863071 0.022378413 0.7168889
-0.091445409 0.026224447 0.71833342
-0.08739832 0.026195344 0.71755552
-0.082568735 0.025930321 0.71650004
-0.077737145 0.025912384 0.71600002
-0.07210996 0.026159685 0.7165556
-0.067602865 0.025948573 0.71700001
-0.062779047 0.025929999 0.71650004
-0.058267433 0.025790095 0.71640009
-0.091767631 0.019500321 0.72266674
-0.087408565 0.019270796 0.72266674
-0.082457863 0.019239051 0.72150004
-0.077356189 0.018908335 0.72200006
-0.072625726 0.019472701 0.72166675
-0.067100838 0.019097501 0.72262508
-0.062423099 0.018743098 0.7222501
-0.05779358 0.018575795 0.72241676
-0.052289452 0.018575478 0.72241676
-0.047435082 0.018789684 0.72183341
-0.043916669 0.019212859 0.72050005
-0.092623629 0.022091812 0.72040004
-0.088457152 0.021257143 0.72000003
-0.073371433 0.021257143 0.72000003
-0.067200005 0.021257143 0.72000003
-0.092571437 0.02537143 0.72000003
-0.07012286 -0.011802858 0.72900003
-0.067319594 -0.012788982 0.72871435
-0.064568579 -0.013885716 0.72900003
-0.045591429 0.0085628582 0.72900003
-0.091962099 0.014008573 0.72820008
-0.087420002 0.013181748 0.72850007
-0.082769804 0.013579594 0.72857153
-0.078169055 0.014107144 0.72850007
-0.070817143 0.014580001 0.72900003
-0.067107767 0.013579595 0.72857153
-0.062180612 0.013290739 0.72763646
-0.057502549 0.013160954 0.72744447
-0.052650403 0.013045002 0.72741675
-0.046820953 0.013062699 0.72833341
-0.043700002 0.013178731 0.72833341
-0.095117152 0.016662858 0.72900003
-0.092430837 0.017102977 0.72562498
-0.08736451 0.016485309 0.72557145
-0.082642183 0.016685717 0.72571433
-0.07732477 0.01649184 0.72585714
-0.072628587 0.016895512 0.72628576
-0.068035722 0.016749525 0.72525001
-0.062557153 0.016157145 0.72500002
-0.057309531 0.015880954 0.72500008
-0.052476194 0.015880954 0.72500002
-0.047392573 0.016442096 0.72540009
-0.044461273 0.016355874 0.7256667
-0.071011432 -0.010442858 0.73100001
-0.066602223 -0.010906985 0.73100007
-0.062750958 -0.011852096 0.73210001
-0.071905084 -0.0083768256 0.73300004
-0.067621596 -0.0083653973 0.73200005
-0.064834289 -0.0090628574 0.73200005
-0.067108579 0.0048933337 0.73400003
-0.06361334 0.0048933337 0.73400003
-0.04531429 0.0048800004 0.73200005
-0.092371441 0.0087142866 0.73200005
-0.087809764 0.0083626201 0.73175001
-0.08229167 0.0083683338 0.73225003
-0.077783339 0.0087204762 0.73250008
-0.072071336 0.0079904767 0.7331112
-0.067324959 0.007526096 0.73180002
-0.062776193 0.0079504764 0.7324
-0.057476599 0.0082673477 0.73214298
-0.052642729 0.0084582325 0.73142856
-0.047666945 0.0076620411 0.73142856
-0.096198283 0.013542286 0.73299998
-0.092937835 0.011454015 0.73214287
-0.087720007 0.010442858 0.73100001
-0.081867769 0.011041635 0.73114288
-0.077260241 0.011684049 0.73250002
-0.072724558 0.012251905 0.73221433
-0.067808956 0.010999811 0.73100001
-0.063074864 0.010721333 0.73100001
-0.057783812 0.010442859 0.73100007
-0.052910477 0.010790952 0.73100001
-0.04838524 0.010790953 0.73100001
-0.096902862 0.016034286 0.73200005
-0.060982861 -0.010514286 0.73600006
-0.086708009 -0.0074470476 0.73780006
-0.081641912 -0.0063342862 0.73900002
-0.07758572 -0.0067965086 0.7383334
-0.071788579 -0.0063342862 0.73900002
-0.065188579 -0.0077104769 0.73600006
-0.063519686 -0.0086720642 0.7383334
-0.090791434 -0.0035190478 0.73900002
-0.087624297 -0.0038709524 0.73900002
-0.081641912 -0.0049266671 0.73900002
-0.079530485 -0.0049266671 0.73900002
-0.090791434 0.0049266671 0.73900002
-0.087084763 0.0043609529 0.73860002
-0.082557388 0.0040390478 0.73774999
-0.07745862 0.0036387017 0.73754555
-0.072351113 0.0035104763 0.73755556
-0.067359529 0.0028064288 0.73675001
-0.062238861 0.0040735244 0.73760003
-0.057634287 0.0042161904 0.73800004
-0.052704085 0.0039141504 0.73785722
-0.047921907 0.0038616669 0.73725003
-0.090545721 0.0063171433 0.73700005
-0.087699056 0.0063142865 0.73666668
-0.082741193 0.0063107149 0.73625004
-0.076834835 0.0069118375 0.73628581
-0.073600002 0.0063085719 0.73600006
-0.060982861 0.0063085719 0.73600006
-0.057478096 0.0063085719 0.73600006
-0.052571431 0.0063085719 0.73600006
-0.04906667 0.0063085719 0.73600006
-0.10037239 0.013336191 0.73700005
-0.098901436 0.014029048 0.73650002
-0.057777423 -0.011394831 0.74114293
-0.08903493 -0.0068126991 0.74000001
-0.083866671 -0.0063428576 0.74000001
-0.076417148 -0.0068184133 0.74066675
-0.074000008 -0.0063428576 0.74000001
-0.06770429 -0.0063471436 0.74050003
-0.061617997 -0.0074560852 0.74177778
-0.057256717 -0.0077756611 0.74222231
-0.053071436 -0.0071772798 0.74300009
-0.087273024 -0.0024666667 0.73999995
-0.08259809 -0.0023961903 0.73999995
-0.077451818 -0.0026797466 0.74066663
-0.072656512 -0.0028212701 0.74066663
-0.067828208 -0.0028265477 0.74187493
-0.062233634 -0.0028285119 0.74256241
-0.057259452 -0.0028276984 0.74225008
-0.05232399 -0.0028295831 0.74243742
-0.048074927 -0.0021215875 0.74233335
-0.087601908 0.0019612699 0.7411111
-0.082457148 0.0012685715 0.74000001
-0.077100962 0.00098666677 0.74000001
-0.072590485 0.00070476194 0.74000001
-0.06765715 0.00070476194 0.74000001
-0.062477965 0.0013117009 0.74185723
-0.057554562 0.0015110208 0.74085724
-0.052072659 0.0013091158 0.74028575
-0.048628576 0.0014095239 0.74000001
-0.052504763 -0.008514287 0.74500006
