# .PCD v0.7 - Point Cloud Data file format
VERSION 0.7
FIELDS x y z
SIZE 4 4 4
TYPE F F F
COUNT 1 1 1
WIDTH 286
HEIGHT 1
VIEWPOINT 0 0 0 1 0 0 0
POINTS 286
DATA ascii
-0.062074289 0.0079114288 0.63900006
-0.076071434 0.013997144 0.63900006
-0.073028572 0.013997144 0.63900006
-0.067694627 0.012422015 0.639
-0.06329143 0.012171429 0.63900006
-0.059031434 0.012780001 0.63900006
-0.051728576 0.012780001 0.63900006
-0.076041676 0.01703262 0.63875008
-0.072950184 0.017020896 0.63831246
-0.067456007 0.017015718 0.63810015
-0.063266665 0.01703262 0.63875002
-0.057346161 0.01746132 0.63900006
-0.052215435 0.01716172 0.63900006
-0.075922623 0.021866906 0.63775003
-0.072807498 0.021758351 0.63813341
-0.067595847 0.02239782 0.63845849
-0.062926285 0.022152003 0.639
-0.056191437 0.020488573 0.63900006
-0.052337147 0.020488575 0.63900006
-0.066334292 0.026168574 0.63900006
-0.061577618 0.0085350797 0.64016676
-0.057577781 0.0083417995 0.64088893
-0.054332383 0.0091571435 0.64100003
-0.077409528 0.014019049 0.64000005
-0.072533339 0.012495238 0.64000005
-0.066438101 0.011580953 0.64000005
-0.061773099 0.012192301 0.64008331
-0.056886896 0.012052454 0.64015383
-0.05303736 0.011989312 0.64011115
-0.049448576 0.014040953 0.64100003
-0.080835238 0.018983811 0.64300001
-0.078171901 0.017099287 0.64124995
-0.060964406 0.01707012 0.64012504
-0.056685716 0.015238097 0.64000005
-0.054247621 0.015238096 0.64000005
-0.047984421 0.017696105 0.64072734
-0.076800004 0.022552382 0.64000005
-0.073508576 0.024746669 0.64000005
-0.065219052 0.024990479 0.64000005
-0.061433095 0.02240905 0.64025003
-0.057598684 0.022299049 0.64076924
-0.052492291 0.02282905 0.64089996
-0.047856446 0.021910671 0.64260018
-0.07715217 0.02735099 0.64253855
-0.072251357 0.027555004 0.64291674
-0.067187786 0.027791752 0.64133346
-0.062135115 0.027340703 0.64173347
-0.057698604 0.026519123 0.64292318
-0.052895874 0.025938416 0.64333338
-0.049680002 0.025146669 0.64400005
-0.080960006 0.030053336 0.64400005
-0.07728 0.030053336 0.64400005
-0.074213341 0.030053336 0.64400005
-0.06767112 0.030053338 0.64400005
-0.062968902 0.03066667 0.64400005
-0.048603814 0.015380953 0.64600003
-0.044365719 0.019101907 0.64700001
-0.046071433 0.023957144 0.64500004
-0.043620087 0.022116907 0.64508337
-0.08305715 0.028916193 0.64600003
-0.057128575 0.02887143 0.6450001
-0.052646808 0.028389391 0.64600009
-0.047835689 0.027177017 0.64560002
-0.043675762 0.027122859 0.64590907
-0.08261694 0.032469817 0.64699996
-0.077600002 0.032643177 0.64666665
-0.072512701 0.03213454 0.64633334
-0.067619368 0.032204345 0.64611113
-0.062462863 0.032402288 0.64679998
-0.058077037 0.030989422 0.6464445
-0.052763991 0.03145732 0.64763635
-0.048073214 0.032048814 0.64712495
-0.04409207 0.030966988 0.64600003
-0.073440008 0.035177145 0.648
-0.048113018 0.03557048 0.64766669
-0.071726352 -0.0060117464 0.65300012
-0.066948928 -0.006949611 0.65254545
-0.064056195 -0.0062190481 0.65300006
-0.077096038 -0.0026941271 0.65283346
-0.072071858 -0.0035241272 0.65300006
-0.067325726 -0.0032219915 0.6529091
-0.062812388 -0.0018657144 0.65300006
-0.06592191 0.00062190479 0.65300006
-0.062812388 0.00062190479 0.65300006
-0.067476191 0.034047622 0.65000004
-0.061998576 0.034100004 0.65100002
-0.057018336 0.033467621 0.65075004
-0.053031754 0.033634923 0.65000004
-0.082023814 0.035595238 0.65000004
-0.078052334 0.037168633 0.65043747
-0.072557896 0.037381485 0.65055549
-0.067177989 0.037112329 0.65135294
-0.062142383 0.037286673 0.65249997
-0.057224512 0.036549527 0.65245456
-0.052114561 0.037226535 0.65142858
-0.048591748 0.038253337 0.65133333
-0.075135246 0.041603811 0.65200001
-0.071740486 0.042122796 0.65178573
-0.067224495 0.042093478 0.65271437
-0.062501431 0.040734764 0.65300006
-0.055349529 0.04042381 0.65300006
-0.051353909 0.040908959 0.65280002
-0.049055241 0.040361907 0.65200001
-0.070788577 0.045329526 0.65200001
-0.066508576 0.045790479 0.65266675
-0.071440004 -0.010653334 0.65800005
-0.075596198 -0.0068736514 0.65600002
-0.072766483 -0.0083780959 0.65640008
-0.069348574 -0.0087466668 0.65600002
-0.07625258 -0.0016220954 0.6552
-0.072451025 -0.0011585036 0.65500003
-0.066997148 -0.00087333343 0.65500003
-0.063717693 -0.002584354 0.65500003
-0.076012075 0.0010419049 0.65600002
-0.072858967 0.0017505715 0.65610003
-0.068498582 0.0016668255 0.65583336
-0.064252384 0.00062380958 0.65500003
-0.057265718 0.039050478 0.65500003
-0.054271434 0.039300002 0.65500003
-0.066747621 0.043666668 0.65500003
-0.062284689 0.042944532 0.65508342
-0.05787671 0.042411651 0.65561545
-0.053855561 0.04137937 0.65500009
-0.067163497 0.04595397 0.65500009
-0.062844291 0.045989051 0.65550005
-0.058131751 0.045630798 0.65633339
-0.075771436 -0.015785715 0.66300005
-0.072213344 -0.016791239 0.66280007
-0.076993145 -0.012622518 0.6626429
-0.072562948 -0.012918176 0.66158354
-0.068252735 -0.011978614 0.66190916
-0.077432707 -0.0094428575 0.66100001
-0.077674285 -0.021647144 0.66850007
-0.072552152 -0.021639287 0.66825002
-0.06722445 -0.02237286 0.6680001
-0.062382083 -0.022184158 0.66900015
-0.05831987 -0.022108981 0.66871434
-0.082039289 -0.017806429 0.66775006
-0.077506602 -0.018018574 0.66549999
-0.071813345 -0.019220954 0.66533339
-0.067232981 -0.017760597 0.66600001
-0.06265837 -0.018007347 0.66842866
-0.057071056 -0.018343812 0.66880006
-0.081547275 -0.013194882 0.66762507
-0.079285719 -0.014588572 0.66600001
-0.066582069 -0.013950953 0.66583335
-0.064351432 -0.014017144 0.66900003
-0.082163826 -0.02610413 0.67400002
-0.07702858 -0.025034288 0.67400002
-0.07125143 -0.026318097 0.67400002
-0.067940958 -0.026920957 0.67299998
-0.062756553 -0.026895123 0.67237502
-0.059697147 -0.027601907 0.67400002
-0.085716836 -0.02330032 0.67333335
-0.0819382 -0.023010572 0.67110002
-0.078114681 -0.023907812 0.67119998
-0.072594017 -0.024198098 0.67114288
-0.068327621 -0.02458524 0.67050004
-0.062660955 -0.024630478 0.67000002
-0.085951909 -0.016676668 0.67350006
-0.060664289 -0.016602382 0.67050004
-0.058339622 -0.01646762 0.67020005
-0.086357147 -0.013432699 0.67166674
-0.084026679 -0.012498504 0.67057151
-0.062268946 -0.012649599 0.67192316
-0.057643928 -0.012807383 0.67249995
-0.085246675 -0.0089723812 0.67300004
-0.083840005 -0.0089600012 0.67200005
-0.062264763 -0.0096285725 0.67400002
-0.08697667 -0.031363335 0.67900002
-0.082349375 -0.031756826 0.67816675
-0.077860415 -0.031310752 0.67885715
-0.072198696 -0.031335119 0.67837501
-0.067055248 -0.031594612 0.67700005
-0.061957147 -0.031625554 0.67766666
-0.086233608 -0.027151976 0.67642862
-0.082638107 -0.028135717 0.67525005
-0.077195317 -0.027518099 0.67676926
-0.072571538 -0.02795672 0.67566675
-0.066905715 -0.028950002 0.67550004
-0.06244953 -0.02897143 0.67600006
-0.059874289 -0.02897143 0.67600006
-0.061633747 -0.0069083003 0.67714292
-0.057825275 -0.0078548584 0.67613345
-0.054804765 -0.0090257153 0.67700005
-0.061526675 -0.0029723814 0.67860001
-0.05789905 -0.0036590481 0.67800009
-0.086164139 -0.036245402 0.68366671
-0.082631275 -0.036436036 0.68316668
-0.070953816 -0.036453813 0.68350005
-0.067455135 -0.036656193 0.68322223
-0.062293336 -0.036974378 0.68327284
-0.086818419 -0.033344764 0.6820001
-0.08370541 -0.03395937 0.68133342
-0.077649534 -0.033239365 0.68133336
-0.072828814 -0.033415478 0.68124998
-0.067352384 -0.034323812 0.68000001
-0.062881909 -0.034357466 0.68066669
-0.085960954 -0.040027622 0.68900001
-0.082023814 -0.040027622 0.68900001
-0.071499288 -0.041981194 0.68875003
-0.067507625 -0.041291237 0.68820012
-0.062745251 -0.042309813 0.68770009
-0.059626669 -0.042588573 0.68800002
-0.086661674 -0.03760881 0.68675005
-0.082497828 -0.038399596 0.68671435
-0.076683633 -0.036573529 0.6882
-0.072504871 -0.038033761 0.6872223
-0.068378292 -0.039092574 0.68640012
-0.06314858 -0.03961524 0.68640012
-0.0819581 -0.045605719 0.69400001
-0.077528954 -0.045830667 0.69340003
-0.07244505 -0.046068985 0.69242865
-0.067284405 -0.046175599 0.69262499
-0.06269905 -0.04620064 0.69300008
-0.085662544 -0.042941272 0.6936667
-0.082564868 -0.042514287 0.69254547
-0.077712975 -0.04215036 0.69150001
-0.07361795 -0.042724922 0.69016671
-0.067044608 -0.043601118 0.69016671
-0.062519051 -0.044092383 0.69100004
-0.080828577 -0.038771432 0.69000006
-0.07801225 -0.038020417 0.69000012
-0.086628094 -0.046135243 0.69700003
-0.082442127 -0.047521066 0.69622231
-0.077387467 -0.047982067 0.69650006
-0.072688572 -0.048126191 0.69700003
-0.067971431 -0.048626669 0.69560015
-0.063542858 -0.048319049 0.69500005
-0.08814536 -0.043079171 0.69587505
-0.063024767 -0.055649526 0.70400006
-0.090514295 -0.050285719 0.70400006
-0.086786814 -0.05119225 0.70328581
-0.082749888 -0.050989412 0.70212501
-0.077540122 -0.050803695 0.70187509
-0.072267279 -0.051515587 0.7008183
-0.067326277 -0.052170403 0.70225
-0.063647263 -0.052455835 0.70162505
-0.091458097 -0.048072197 0.70300001
-0.088041916 -0.047800954 0.70033348
-0.086860016 -0.055886671 0.70700002
-0.082447946 -0.055939369 0.70766675
-0.066602029 -0.056847271 0.706375
-0.063876197 -0.057825718 0.70600003
-0.095074289 -0.05057143 0.708
-0.092369959 -0.052704852 0.70700008
-0.087883823 -0.053603813 0.70574999
-0.082145721 -0.054091752 0.70700002
-0.07812991 -0.05338781 0.70599997
-0.072081275 -0.05456572 0.70733333
-0.067814291 -0.054385718 0.70500004
-0.094134293 -0.049083814 0.70600003
-0.088400006 -0.065960005 0.71400005
-0.091848895 -0.062176667 0.71350014
-0.087397516 -0.062533043 0.71307701
-0.082867049 -0.06153943 0.71320015
-0.07747639 -0.061573904 0.7136001
-0.072437242 -0.06197324 0.71350014
-0.067871869 -0.061832208 0.71200019
-0.092311703 -0.057703897 0.71127278
-0.087632798 -0.05787443 0.71014291
-0.082497574 -0.057981797 0.71066666
-0.07721208 -0.05757159 0.71116674
-0.07242053 -0.057530582 0.71066666
-0.068995953 -0.058173098 0.71025002
-0.076409534 -0.054771435 0.71000004
-0.085879251 -0.067584388 0.71680003
-0.082488574 -0.065799437 0.71820009
-0.078747623 -0.065052383 0.71900004
-0.072601728 -0.06658496 0.71780008
-0.085238099 -0.064780958 0.71600002
-0.082510486 -0.064099051 0.71600002
-0.077108577 -0.064144284 0.71650004
-0.072307862 -0.064803571 0.71625006
-0.086071432 -0.072300002 0.72300005
-0.084005721 -0.071611427 0.72300005
-0.075054288 -0.070922859 0.72300005
-0.073677145 -0.070922859 0.72300005
-0.082067147 -0.068184674 0.72170007
-0.077612229 -0.067309372 0.72116679
-0.074422859 -0.068928264 0.72133338
-0.081839435 -0.072424583 0.72700006
-0.077844493 -0.072106808 0.72700006
-0.078023814 -0.069738105 0.72500008
-0.080758102 -0.074492387 0.73100001
-0.077973336 -0.074492387 0.73100001
