# .PCD v0.7 - Point Cloud Data file format
VERSION 0.7
FIELDS x y z
SIZE 4 4 4
TYPE F F F
COUNT 1 1 1
WIDTH 589
HEIGHT 1
VIEWPOINT 0 0 0 1 0 0 0
POINTS 589
DATA ascii
-0.046500005 -0.010540001 0.65100002
-0.046804938 -0.0078470139 0.65209091
-0.043433182 -0.0080655571 0.65150005
-0.060786672 -0.015666667 0.65800005
-0.065800004 -0.013160001 0.65800005
-0.062040009 -0.013034667 0.65800005
-0.059220005 -0.013160001 0.65800005
-0.051348098 -0.011271905 0.65750003
-0.047607858 -0.011275953 0.65775007
-0.05170624 -0.0074336804 0.65554553
-0.048312575 -0.0066158101 0.65540004
-0.043129206 -0.0060428581 0.65633339
-0.051807981 -0.0032863095 0.65737504
-0.047289528 -0.0033765719 0.65680009
-0.04393829 -0.0033794288 0.65720004
-0.061248574 -0.020837145 0.66300005
-0.058722865 -0.020837147 0.66300005
-0.047357149 -0.020837147 0.66300005
-0.043252856 -0.021152858 0.66300005
-0.065037146 -0.018942859 0.66300005
-0.0628663 -0.017595386 0.66161549
-0.057888158 -0.017618988 0.66068751
-0.052899651 -0.017634643 0.66125
-0.047857564 -0.01763268 0.66118759
-0.043530084 -0.017664686 0.66241682
-0.065879054 -0.011155239 0.66300005
-0.063853338 -0.01196381 0.66120005
-0.057319053 -0.012364763 0.66016668
-0.052979596 -0.012751021 0.66000003
-0.048030384 -0.01345362 0.66009998
-0.043523975 -0.012615873 0.66233343
-0.065668575 -0.0082085719 0.66300011
-0.062469952 -0.0082026459 0.66255563
-0.058726244 -0.008187619 0.66144449
-0.054768577 -0.008812381 0.66100001
-0.057017148 -0.0034657146 0.66150004
-0.053487487 -0.0013484355 0.66071439
-0.048227146 -0.0010480953 0.66050005
-0.044628575 -0.00062857149 0.66000003
-0.052861672 0.0012585715 0.66075003
-0.047861911 0.001259762 0.66125
-0.04473 0.0012604763 0.66150004
-0.063077144 -0.026122859 0.66900003
-0.047148574 -0.026122859 0.66900003
-0.070722863 -0.021025715 0.66900003
-0.066878766 -0.022251146 0.66749996
-0.062414769 -0.023136264 0.66678584
-0.057184767 -0.022876196 0.66716671
-0.052119642 -0.022884052 0.66737497
-0.047071036 -0.023537703 0.66791672
-0.041302096 -0.022749716 0.66720003
-0.03921048 -0.022209335 0.66619998
-0.070971437 -0.019278731 0.66733336
-0.067852229 -0.01902397 0.66583335
-0.040825721 -0.017345399 0.66633338
-0.038911909 -0.017762383 0.66616672
-0.040273339 -0.012830286 0.667
-0.037965398 -0.012795028 0.66811115
-0.067835875 -0.0071148151 0.6656667
-0.062700003 -0.005700001 0.66500008
-0.040564768 -0.0091323815 0.66900003
-0.070511431 -0.0044466672 0.66700006
-0.06686233 -0.0034578836 0.66722214
-0.06232686 -0.0031777148 0.66780013
-0.059254289 -0.0031857146 0.66900003
-0.057771433 -0.030811431 0.67400002
-0.045575242 -0.030169526 0.67400002
-0.044291433 -0.030811429 0.67400002
-0.071893334 -0.026318097 0.67400002
-0.067891903 -0.026900956 0.6724999
-0.062602863 -0.02761204 0.67136365
-0.057528101 -0.027486987 0.67116678
-0.052428581 -0.027493652 0.67133343
-0.047387809 -0.027793905 0.6724
-0.042745717 -0.027240744 0.67211109
-0.070934296 -0.023646668 0.671
-0.06855683 -0.024059368 0.67066669
-0.056152385 -0.024885716 0.67000002
-0.04280524 -0.024278574 0.67083335
-0.035963498 -0.011278413 0.67033339
-0.033254765 -0.010871906 0.67150003
-0.040260002 -0.0070295241 0.671
-0.037114903 -0.007951906 0.67192858
-0.032872859 -0.0081771435 0.67349994
-0.066411912 -0.00063857145 0.67050004
-0.062935434 -0.00089352386 0.67020005
-0.058408957 -0.0011502857 0.671
-0.03723048 -0.0044933334 0.67400002
-0.066462383 0.002138254 0.67316675
-0.062714353 0.0025612502 0.67193747
-0.057855852 0.0027438779 0.67178565
-0.05431905 0.0031952383 0.671
-0.062264767 0.0057771439 0.67400002
-0.059697147 0.0057771434 0.67400002
-0.04720667 -0.035566669 0.67900002
-0.075660005 -0.034273334 0.67900002
-0.072399691 -0.032136317 0.67753345
-0.067063257 -0.031598654 0.67708337
-0.062130921 -0.031742509 0.67763638
-0.057199329 -0.032149255 0.67700011
-0.052784696 -0.031772673 0.67653859
-0.047758576 -0.032269187 0.677643
-0.043714289 -0.032785717 0.67500001
-0.072321638 -0.028395923 0.67542869
-0.06750001 -0.028928574 0.67500007
-0.035357144 -0.0057857148 0.67500001
-0.032785717 -0.0057857148 0.67500007
-0.076016195 -0.0015069842 0.6783334
-0.072096407 -0.0016449738 0.67655557
-0.068887621 -0.00064380956 0.67600006
-0.036638957 -0.0021907622 0.67730004
-0.033767782 -0.0030080953 0.67750001
-0.075660005 0.0012933334 0.67900002
-0.071963184 0.0020439685 0.67766666
-0.068475723 0.0030058734 0.67616671
-0.047853336 0.0038800002 0.67900002
-0.037183337 0.00097000005 0.67900002
-0.071745403 0.0064634932 0.67866671
-0.067121588 0.0077466662 0.67766678
-0.062560879 0.0081893047 0.67723078
-0.057813454 0.0067653577 0.67637503
-0.066606671 0.010993334 0.67900008
-0.062295564 0.010993334 0.67900008
-0.071849287 -0.036088813 0.68275005
-0.067689143 -0.036839433 0.68340009
-0.062955722 -0.03625413 0.68383336
-0.056850638 -0.036236674 0.68350005
-0.051814839 -0.037182301 0.68291676
-0.048258234 -0.038031571 0.68342865
-0.070590481 -0.034323812 0.68000001
-0.067400478 -0.03434905 0.68050003
-0.062422149 -0.03446262 0.68275005
-0.057349529 -0.03440794 0.68166673
-0.052457146 -0.034323812 0.68000001
-0.049866669 -0.034323812 0.68000001
-0.031680848 -0.002091429 0.68199998
-0.075771436 0.0032380954 0.68000001
-0.07355953 0.0042128572 0.68050003
-0.051999051 0.0039000004 0.68250006
-0.041847311 0.0041196831 0.68300003
-0.037160952 0.0035374607 0.68188894
-0.032656007 0.0024728894 0.68306673
-0.02888 0.0028228574 0.68400002
-0.072063819 0.0090888897 0.68166673
-0.069295242 0.0090666674 0.68000001
-0.05651588 0.0085895257 0.68211114
-0.05206643 0.0078113098 0.68337506
-0.047474295 0.0078055561 0.68283337
-0.04361343 0.0071608583 0.68350005
-0.038434289 0.0058628577 0.68400002
-0.033874288 0.0058628577 0.68400002
-0.072071113 0.012362329 0.68311119
-0.06762521 0.013426377 0.68123084
-0.062296636 0.013440514 0.68192309
-0.057408232 0.012728233 0.68278575
-0.053417146 0.011074287 0.68400002
-0.047554288 0.011074287 0.68400002
-0.071440011 0.016720003 0.68400002
-0.067686789 0.016922262 0.68337506
-0.062537149 0.016285716 0.68400002
-0.071787246 -0.040815052 0.68900007
-0.067488573 -0.041608095 0.68800008
-0.063388012 -0.040552575 0.68900007
-0.057307303 -0.040465083 0.68900007
-0.052057147 -0.040920477 0.6875
-0.049000002 -0.041160002 0.68600005
-0.0724262 -0.038394131 0.68716669
-0.067613535 -0.039365526 0.68660003
-0.062478781 -0.038384359 0.68642867
-0.058013342 -0.038166668 0.68700004
-0.03072905 -0.0065385718 0.68650007
-0.027529288 -0.0065540476 0.68825006
-0.024279049 -0.0059057148 0.68900001
-0.030706668 -0.0045733335 0.68600005
-0.027774628 -0.0028068712 0.68735725
-0.024279049 -0.0045933337 0.68900001
-0.028113335 0.00098047627 0.68650007
-0.041598212 0.0090079764 0.68787503
-0.037740476 0.0071998416 0.68716669
-0.034203809 0.0085200006 0.68800002
-0.073880479 0.013076668 0.68650007
-0.052020576 0.012678668 0.68620008
-0.047023464 0.012544677 0.68663633
-0.042364385 0.011411238 0.6886
-0.072924092 0.017086804 0.68628579
-0.067946672 0.018946668 0.68600005
-0.062787861 0.018314049 0.68674999
-0.057443611 0.017310137 0.68764293
-0.052575558 0.016914859 0.68833351
-0.048049666 0.016017281 0.6884287
-0.075461909 0.021654287 0.68900001
-0.071678758 0.022246376 0.68853855
-0.068093479 0.021637417 0.68842864
-0.062994294 0.020341907 0.68900001
-0.059713338 0.020341907 0.68900001
-0.053151432 0.020341907 0.68900001
-0.070737347 0.026903812 0.68900007
-0.068900004 0.025591429 0.68900001
-0.076009527 -0.045605719 0.69400001
-0.071178101 -0.045474287 0.69200003
-0.06719929 -0.045457859 0.69175005
-0.06308572 -0.045342859 0.69000006
-0.05684191 -0.045605719 0.69400001
-0.05485905 -0.046266671 0.69400001
-0.077493414 -0.042186465 0.69207156
-0.072828762 -0.042934287 0.69139999
-0.066976741 -0.04349266 0.69042861
-0.062319882 -0.04291822 0.69062507
-0.058021698 -0.042951643 0.69144452
-0.054131117 -0.041858733 0.69033337
-0.076763697 -0.037641786 0.69037503
-0.024314288 -0.0072285719 0.69000006
-0.037194289 0.0093314303 0.69000006
-0.077600434 0.012822223 0.6924445
-0.041801229 0.013245308 0.69042861
-0.037481062 0.012494392 0.69044447
-0.034179848 0.01248905 0.69016671
-0.077314287 0.016983155 0.69200003
-0.07425715 0.019057143 0.69000006
-0.050600003 0.019057143 0.69000006
-0.046664447 0.017891958 0.69011116
-0.042231664 0.017159406 0.69287503
-0.037449747 0.017125497 0.6936155
-0.034082543 0.016493971 0.69266671
-0.076922998 0.022501502 0.69200003
-0.07425715 0.022561908 0.69000006
-0.066207148 0.023164287 0.69000006
-0.062281627 0.023175906 0.69130003
-0.057695314 0.022403337 0.69178569
-0.052852754 0.022248356 0.69169235
-0.047971118 0.021460848 0.69211113
-0.042300954 0.020489525 0.69400001
-0.077157393 0.027696429 0.69241667
-0.072952293 0.027902596 0.69009095
-0.067199945 0.027672861 0.69178587
-0.062602386 0.026594047 0.69375002
-0.058163814 0.025777144 0.69400001
-0.077028818 0.032164048 0.69274998
-0.072467707 0.032283101 0.69175005
-0.068384632 0.032165583 0.6932857
-0.076009527 0.035030477 0.69400001
-0.091872387 0.043953333 0.69400001
-0.089228578 0.044283811 0.69400001
-0.090550482 0.045605719 0.69400001
-0.080898486 -0.046892386 0.69740003
-0.077233814 -0.04737667 0.69670004
-0.072787508 -0.04725536 0.69637507
-0.068215877 -0.047618739 0.69766665
-0.061949804 -0.046960957 0.69728577
-0.057710242 -0.047761433 0.69650006
-0.080752388 -0.044347622 0.69500005
-0.060233336 -0.044347622 0.69500005
-0.078766674 0.009928572 0.69500005
-0.080205716 0.011930477 0.69600004
-0.08035937 0.017930795 0.69733334
-0.035131432 0.018560953 0.69600004
-0.033757146 0.01919524 0.69500005
-0.080378577 0.022585716 0.69749999
-0.078104764 0.022504762 0.69500005
-0.051628575 0.024490478 0.69500005
-0.047014017 0.023744084 0.69528586
-0.042392224 0.02318429 0.69550008
-0.037533179 0.020975081 0.69550008
-0.033854287 0.020578096 0.69700003
-0.080648258 0.028281592 0.6960001
-0.065528579 0.029785717 0.69500005
-0.061789051 0.028990477 0.69575006
-0.057135954 0.028182942 0.69625008
-0.052697815 0.027080862 0.69690007
-0.047794051 0.026552862 0.69700003
-0.043811433 0.026552383 0.69700003
-0.082026064 0.032604072 0.696091
-0.078766674 0.033757146 0.69500005
-0.066095814 0.032717526 0.69540006
-0.062659159 0.032105081 0.69744444
-0.058012113 0.032187082 0.69785714
-0.092401914 0.039220955 0.69800001
-0.086261526 0.037880193 0.69779998
-0.082091317 0.037072975 0.69512498
-0.077247046 0.037478682 0.69600004
-0.072773233 0.036056407 0.69677782
-0.068022005 0.036270577 0.69749999
-0.064481907 0.035897143 0.69800001
-0.096583553 0.042662725 0.69528586
-0.092916727 0.042301275 0.69522232
-0.087298036 0.042257912 0.69546676
-0.08242023 0.042002931 0.69661546
-0.077749051 0.041533098 0.69774997
-0.096160322 0.047086671 0.69633341
-0.092968583 0.047178097 0.6959092
-0.087636195 0.046730477 0.69500011
-0.081826672 -0.051060319 0.70233339
-0.077499531 -0.051445246 0.70150006
-0.072280005 -0.051630627 0.70123082
-0.067279197 -0.051011164 0.70342863
-0.062339835 -0.0516368 0.70245463
-0.058750801 -0.051407944 0.70100009
-0.082726195 -0.048701432 0.70050001
-0.066666678 -0.048666671 0.70000005
-0.062888891 -0.048666671 0.70000005
-0.082468577 0.012739048 0.70400006
-0.082039051 0.018007938 0.70033336
-0.085395008 0.023776906 0.70325005
-0.082726203 0.022682859 0.70050001
-0.037088003 0.023614099 0.70040005
-0.032445338 0.023367619 0.70100003
-0.08696083 0.027646804 0.70314288
-0.083384909 0.027350072 0.70042866
-0.050000004 0.028666668 0.70000005
-0.047333341 0.028666668 0.70000005
-0.04205155 0.027702264 0.70087504
-0.037492383 0.02745159 0.70300007
-0.033284448 0.027030161 0.70366669
-0.092035562 0.033731114 0.70366669
-0.087625563 0.032104447 0.70233339
-0.084262542 0.030459367 0.70033336
-0.062000003 0.034000002 0.70000005
-0.056000005 0.032666668 0.70000005
-0.052050065 0.032032322 0.70068753
-0.047467619 0.032092385 0.70200008
-0.043411829 0.031807382 0.7030834
-0.037323177 0.030618414 0.70400012
-0.096205562 0.038079843 0.70150006
-0.092418909 0.037038393 0.70123088
-0.088384449 0.037264872 0.70011121
-0.072444454 0.038888894 0.70000005
-0.067066677 0.038800005 0.70000005
-0.062393341 0.037531432 0.7001428
-0.057414047 0.037388101 0.70100003
-0.052396134 0.037388388 0.70353347
-0.048944764 0.036205716 0.70400006
-0.095333338 0.04066667 0.70000005
-0.092666671 0.04066667 0.70000005
-0.08200001 0.04466667 0.70000005
-0.076666668 0.043666672 0.70000005
-0.072076671 0.042713456 0.70075011
-0.067312457 0.042940445 0.70192319
-0.062971197 0.042167705 0.70091677
-0.059418101 0.040724766 0.70100003
-0.085029528 0.048875242 0.70300001
-0.08266554 0.04731819 0.70154554
-0.077700287 0.047209434 0.7021001
-0.072281197 0.046180718 0.70275003
-0.069059052 0.04626286 0.70400006
-0.065405719 -0.060685717 0.708
-0.06297829 -0.060550857 0.708
-0.081165001 -0.056915004 0.70725
-0.077542864 -0.055965718 0.70800006
-0.073461913 -0.055939373 0.70766664
-0.066498421 -0.056838416 0.70766675
-0.06262064 -0.057234183 0.70700002
-0.059813656 -0.057575561 0.70566672
-0.081780717 -0.054185003 0.70675004
-0.077214293 -0.054385718 0.7050001
-0.071909532 -0.054437146 0.70566672
-0.067238092 -0.053791434 0.70599997
-0.063114285 -0.054385718 0.70500004
-0.085634291 0.010788572 0.708
-0.083376199 0.011654287 0.70600003
-0.085634291 0.018880002 0.708
-0.083770484 0.017492859 0.70649999
-0.087426074 0.022864642 0.70612502
-0.030214287 0.024842858 0.70500004
-0.02887143 0.024842858 0.70500004
-0.014160001 0.023600001 0.708
-0.09173286 0.028034447 0.70649999
-0.089021288 0.026684128 0.70633334
-0.031123813 0.027989842 0.70533335
-0.028413907 0.027877143 0.70699996
-0.10046858 0.033714287 0.708
-0.097441234 0.033376738 0.70700008
-0.093005918 0.031314667 0.70559996
-0.041292861 0.033235718 0.70500004
-0.03768447 0.032620002 0.70561534
-0.032304823 0.032306731 0.70668739
-0.028404629 0.032256875 0.70771438
-0.097542547 0.035653021 0.70633334
-0.050357144 0.03961429 0.70500004
-0.047218967 0.038057927 0.70554543
-0.042920388 0.037541717 0.70640004
-0.037894733 0.037377078 0.70761549
-0.032590479 0.036186669 0.70800006
-0.028994288 0.035737146 0.708
-0.060011432 0.042480003 0.708
-0.057192862 0.041718572 0.70650005
-0.052494764 0.042401277 0.70666665
-0.047864359 0.041893747 0.70785719
-0.078557149 0.049014289 0.70500004
-0.067087308 0.047643069 0.70677781
-0.080580004 -0.06026572 0.71100003
-0.077673018 -0.060463499 0.71333337
-0.070720002 -0.060520004 0.71400005
-0.067690723 -0.060921669 0.71074998
-0.082740478 -0.057264294 0.71016669
-0.077206798 -0.058245361 0.71112502
-0.072435245 -0.058085039 0.71271437
-0.068618104 -0.058009207 0.71100008
-0.084523812 -0.054095238 0.71000004
-0.087720007 0.0088400003 0.71400005
-0.087681279 0.012740741 0.71244454
-0.084642865 0.014220001 0.71100003
-0.090914018 0.017948575 0.71314299
-0.08766029 0.017341048 0.71130008
-0.084523812 0.015552382 0.71000004
-0.092319526 0.022400716 0.71275002
-0.089482546 0.022314288 0.71000004
-0.016276192 0.023733336 0.71200001
-0.10530159 0.027853336 0.71333337
-0.10242036 0.028025122 0.71337509
-0.097574659 0.027615825 0.71261555
-0.093242392 0.025962701 0.71116674
-0.026300004 0.027049843 0.71211118
-0.022415347 0.027849207 0.71322232
-0.017514223 0.027287684 0.71273339
-0.013807303 0.028746352 0.71300006
-0.10525239 0.030557144 0.71300006
-0.10179748 0.032050483 0.71099997
-0.098401725 0.03099562 0.71060002
-0.025928468 0.032542858 0.71022224
-0.02238143 0.032557309 0.71216679
-0.017646549 0.032577746 0.71262509
-0.014246668 0.0318854 0.71233338
-0.037207305 0.039463177 0.71033335
-0.032573473 0.038373198 0.7104286
-0.027103335 0.036930718 0.71150005
-0.022428891 0.036023177 0.7136668
-0.018360002 0.036040001 0.71400011
-0.060857147 0.043952383 0.71000004
-0.057476193 0.043952387 0.71000004
-0.046477146 0.043497719 0.71140003
-0.042241648 0.042861909 0.71227282
-0.037496075 0.042249408 0.71262509
-0.032697964 0.041042455 0.71314299
-0.077269524 -0.061885241 0.71800005
-0.072539821 -0.061611433 0.71720004
-0.091073342 0.0089019053 0.71900004
-0.089703813 0.0089019053 0.71900004
-0.091296993 0.012749366 0.71716666
-0.089454293 0.010242858 0.71700001
-0.095866673 0.019858096 0.71900004
-0.093096837 0.017982543 0.71700001
-0.1061381 0.023281906 0.71900004
-0.10236032 0.023024447 0.7181111
-0.097740002 0.022553546 0.71766669
-0.094917148 0.02185143 0.71700001
-0.026705716 0.023966668 0.71900004
-0.022597145 0.023966668 0.71900004
-0.018459186 0.022560138 0.71785718
-0.10275277 0.025517335 0.71640009
-0.098194294 0.025230478 0.71600002
-0.025265716 0.025265716 0.71700001
-0.022534288 0.025265716 0.71700001
-0.019802859 0.025265716 0.71700001
-0.026606034 0.03888667 0.71633339
-0.022518573 0.038213812 0.71650004
-0.019356826 0.038031116 0.71733344
-0.075841226 -0.06679143 0.72300011
-0.07296358 -0.066080242 0.72275007
-0.077700958 -0.063948587 0.72200006
-0.073867142 -0.06356144 0.72150004
-0.090829052 -0.00068809529 0.72250009
-0.091079377 0.0022946035 0.72266674
-0.092078581 0.0082471436 0.72150004
-0.093746677 0.013066668 0.72200006
-0.10535143 0.019968573 0.72300005
-0.10247954 0.019256987 0.72216672
-0.097443394 0.018265188 0.72222233
-0.093942866 0.016457144 0.72000003
-0.022034287 0.019968573 0.72300005
-0.10665572 0.021330953 0.72250009
-0.10285715 0.021257143 0.72000003
-0.030985717 0.022722859 0.72300005
-0.027379338 0.022699907 0.72230005
-0.022676667 0.021987781 0.7215001
-0.019885715 0.021257143 0.72000003
-0.077563494 -0.071579374 0.72500008
-0.080841437 -0.066331908 0.72549999
-0.078355029 -0.06822487 0.72522217
-0.07319048 -0.068357147 0.72500002
-0.095811442 -0.00069428579 0.72900003
-0.092843056 -0.0017980954 0.72640008
-0.095580012 0.0027771431 0.72900003
-0.093535721 0.0027700001 0.72750008
-0.097133815 0.0076319054 0.72850007
-0.093325868 0.0070115654 0.72585714
-0.10692 0.014580001 0.72900003
-0.10237621 0.013973471 0.72842866
-0.097573772 0.012658964 0.7275455
-0.094308898 0.010837144 0.72633338
-0.032631431 0.014580001 0.72900003
-0.02777143 0.014580001 0.72900003
-0.023605715 0.013885716 0.72900003
-0.11085572 0.016627144 0.72750002
-0.10776858 0.017425025 0.72663635
-0.10226096 0.016582383 0.72549993
-0.098323189 0.016348574 0.72533339
-0.032178234 0.017126806 0.72771436
-0.027655166 0.017282622 0.72591662
-0.022818098 0.017629525 0.72600007
-0.11116667 0.020023812 0.72500002
-0.1084343 0.020581717 0.7252
-0.031795003 0.020735476 0.72575003
-0.028033335 0.020300001 0.72500002
-0.022095241 0.020023812 0.72500002
-0.10108572 -0.00069714291 0.73200005
-0.099181913 -0.0011615874 0.73166674
-0.10136191 0.0048933337 0.73400003
-0.098604381 0.0027887621 0.73220003
-0.10181067 0.0079615247 0.73320001
-0.099600643 0.0076622227 0.73133337
-0.11124648 0.012420191 0.73280001
-0.10730077 0.012540571 0.73159999
-0.10250398 0.011155715 0.73216671
-0.099555247 0.010442858 0.73100001
-0.031639528 0.012793811 0.73283339
-0.027892541 0.012782699 0.73216671
-0.024366667 0.011835239 0.73100001
-0.10739144 0.0049133338 0.73700011
-0.10259636 0.0032722228 0.73616672
-0.11211421 0.0075929873 0.73700005
-0.1073107 0.0077144974 0.73644447
-0.10412691 0.0073621436 0.73625004
-0.032126989 0.0086761918 0.73866671
-0.028360954 0.0086720642 0.7383334
-0.024633335 0.0091495244 0.73900002
-0.11145143 0.010514286 0.73600006
-0.10794668 0.010514286 0.73600006
-0.031585716 0.010528572 0.73700011
-0.027361274 0.01052381 0.73666668
-0.03038667 0.0049466668 0.74200004
-0.028266668 0.0049466668 0.74200004
-0.031244447 0.0068126991 0.74000001
-0.02798032 0.0068184133 0.74066675
-0.093280964 -0.080463186 0.74766672
-0.096171431 -0.076224767 0.74800003
-0.092507765 -0.077242464 0.74800009
-0.097240008 -0.073375233 0.74800009
-0.093182385 -0.072884135 0.74783343
-0.086198099 -0.07337524 0.74800003
-0.084773339 -0.07337524 0.74800003
-0.10111715 -0.081037149 0.75300002
-0.09820509 -0.081001282 0.75266671
-0.090714291 -0.080714293 0.75000006
-0.08677429 -0.081037149 0.75300002
-0.083794288 -0.080929533 0.75200003
-0.10189513 -0.076825604 0.75212497
-0.097585149 -0.07826896 0.75120002
-0.091428578 -0.077500008 0.75000006
-0.08723025 -0.077221192 0.75075001
-0.08265461 -0.07708846 0.75177789
-0.07960286 -0.07673429 0.75300002
-0.10528 -0.071619049 0.75200003
-0.10226477 -0.072229207 0.75088888
-0.098571435 -0.071428575 0.75000006
-0.090714291 -0.072142862 0.75000006
-0.088571437 -0.072857149 0.75000006
-0.10580477 -0.067590803 0.7523334
-0.10251004 -0.067402206 0.75107694
-0.097504921 -0.067384094 0.75042862
-0.093571432 -0.069285721 0.75000006
-0.10159525 -0.063347623 0.75300002
-0.098965719 -0.063108578 0.75300002
-0.082690485 -0.081252389 0.75500005
-0.10282382 -0.079814292 0.75500005
-0.082025245 -0.079867154 0.75550008
-0.075800002 -0.073634297 0.75800002
-0.074356198 -0.073634297 0.75800002
-0.11088 -0.065520003 0.75600004
-0.10748287 -0.06604325 0.75540012
-0.11088001 -0.062640011 0.75600004
-0.10723292 -0.062612392 0.75566673
-0.10330319 -0.062077783 0.75500005
-0.097934298 -0.061981905 0.75500005
-0.11083493 -0.058180954 0.7573334
-0.10744556 -0.057687145 0.75716674
-0.10246535 -0.057499886 0.75660008
-0.098283693 -0.058557428 0.7564286
-0.10684191 -0.054142863 0.75800002
-0.10467619 -0.054142863 0.75800002
-0.080860637 -0.081343815 0.76033342
-0.078895241 -0.080342859 0.76000005
-0.080395713 -0.077497624 0.76050007
-0.077718221 -0.077355839 0.76087511
-0.074552387 -0.076000005 0.76000005
-0.078274295 -0.074650481 0.76100004
-0.098438099 -0.055733338 0.76000005
-0.10758573 -0.052851625 0.76020002
-0.10235231 -0.052206084 0.76053858
-0.098865241 -0.053234287 0.76050007
