# .PCD v0.7 - Point Cloud Data file format
VERSION 0.7
FIELDS x y z
SIZE 4 4 4
TYPE F F F
COUNT 1 1 1
WIDTH 590
HEIGHT 1
VIEWPOINT 0 0 0 1 0 0 0
POINTS 590
DATA ascii
-0.047988575 -0.04147429 0.68400002
-0.097062863 -0.035828575 0.68400002
-0.087012261 -0.036386944 0.68400007
-0.082731441 -0.035828575 0.68400002
-0.076217145 -0.035828575 0.68400002
-0.072569147 -0.036089148 0.68400002
-0.067954399 -0.036691327 0.68388891
-0.062971435 -0.036262862 0.68400002
-0.059280004 -0.035828575 0.68400002
-0.047554288 -0.037131432 0.68400002
-0.043645717 -0.037131432 0.68400002
-0.036945309 -0.03675919 0.68400007
-0.032812998 -0.037554219 0.68321431
-0.029314287 -0.036480002 0.68400002
-0.10097144 -0.033222858 0.68400002
-0.097219944 -0.032606889 0.6836924
-0.092088319 -0.032393768 0.68400002
-0.087275356 -0.03256524 0.68387502
-0.082080014 -0.032571431 0.68400002
-0.077520005 -0.032393772 0.68400002
-0.072926611 -0.032556251 0.68368751
-0.067845538 -0.032685146 0.68366677
-0.063025728 -0.033548571 0.68400002
-0.057716578 -0.033483427 0.68400002
-0.054068577 -0.034525715 0.68400002
-0.048422866 -0.034091428 0.68400002
-0.036480002 -0.033222858 0.68400002
-0.032535955 -0.032535121 0.68324995
-0.028708033 -0.032238644 0.68285722
-0.09771429 -0.028662859 0.68400002
-0.090548575 -0.028662859 0.68400002
-0.087291434 -0.028662857 0.68400002
-0.082494557 -0.028011432 0.68400002
-0.07768286 -0.028174285 0.68400002
-0.073164977 -0.028440956 0.68388891
-0.069702864 -0.029314287 0.68400002
-0.031051433 -0.02888 0.68400002
-0.028635558 -0.027984127 0.6833334
-0.088148259 -0.040027626 0.68900001
-0.082023814 -0.040027622 0.68900001
-0.076118097 -0.040027622 0.68900001
-0.073493332 -0.040027622 0.68900001
-0.067537621 -0.04065381 0.68850005
-0.063213028 -0.040027626 0.68900001
-0.057704292 -0.041310001 0.68849999
-0.052420005 -0.041280001 0.68800002
-0.045951113 -0.042031117 0.68600005
-0.042793337 -0.041486669 0.68600005
-0.035985716 -0.041220002 0.68700004
-0.034049049 -0.041250002 0.6875
-0.10063906 -0.036458097 0.68766677
-0.097275771 -0.037617359 0.68755561
-0.092754208 -0.037186932 0.68718183
-0.087806992 -0.038565397 0.68633342
-0.082347021 -0.038112558 0.68672734
-0.0771906 -0.037288453 0.6868751
-0.072824009 -0.038046475 0.68640006
-0.068097346 -0.039080955 0.68620008
-0.062299207 -0.038120478 0.68616676
-0.057385027 -0.038039498 0.68626672
-0.052285962 -0.037907384 0.68624997
-0.046980608 -0.038190305 0.68599999
-0.04246667 -0.037952729 0.68599999
-0.038559157 -0.038704768 0.68622226
-0.102255 -0.033755954 0.68825006
-0.099960014 -0.032448892 0.68600005
-0.093688011 -0.033058669 0.68600005
-0.077746674 -0.03462667 0.68600005
-0.065986671 -0.030706668 0.68600005
-0.062241308 -0.031692263 0.68612504
-0.057322688 -0.032254983 0.68609095
-0.052166227 -0.032554161 0.68640012
-0.046714798 -0.032332238 0.68638468
-0.042497467 -0.032690004 0.68650001
-0.038338576 -0.032456513 0.68616664
-0.14108096 -0.025591429 0.68900001
-0.13670635 -0.026466353 0.68900007
-0.10083461 -0.027341273 0.68900001
-0.097214974 -0.026103677 0.6877144
-0.093007632 -0.027412897 0.68661541
-0.087562986 -0.02613798 0.68612498
-0.081452571 -0.026017526 0.68640012
-0.076962672 -0.025741337 0.68600005
-0.07195726 -0.026166074 0.68687499
-0.06757161 -0.027920347 0.68763649
-0.062908754 -0.027520772 0.68806261
-0.057871982 -0.027810883 0.68828589
-0.052659832 -0.028327703 0.68881828
-0.047203999 -0.028452953 0.68840009
-0.042027831 -0.028333442 0.68833339
-0.037729666 -0.02892939 0.68814296
-0.032905631 -0.027429441 0.68727273
-0.029528573 -0.025591429 0.68900001
-0.14213088 -0.022048002 0.68900007
-0.13780001 -0.022310479 0.68900007
-0.10039715 -0.024279049 0.68900001
-0.096460007 -0.024279049 0.68900001
-0.090945721 -0.024208574 0.68700004
-0.087278835 -0.023220001 0.68788898
-0.082997404 -0.022700259 0.68818188
-0.0780489 -0.023611113 0.6886667
-0.072837144 -0.024279049 0.68900001
-0.14764287 -0.015748572 0.68900001
-0.14183091 -0.017717145 0.68900007
-0.13766375 -0.017044941 0.68831259
-0.14764287 -0.013780001 0.68900001
-0.14108096 -0.01312381 0.68900001
-0.13761836 -0.012450714 0.68808341
-0.13334477 -0.012418731 0.68633342
-0.14108096 -0.0085304771 0.68900001
-0.13831039 -0.0088221179 0.68900007
-0.13386287 -0.0098428577 0.68900001
-0.0819581 -0.045605719 0.69400001
-0.077992387 -0.045605719 0.69400001
-0.074026674 -0.045605719 0.69400001
-0.060807623 -0.045605719 0.69400001
-0.05744826 -0.04556191 0.69333333
-0.052761432 -0.045507144 0.69250005
-0.048225723 -0.045583814 0.6936667
-0.040318098 -0.045605719 0.69400001
-0.03727334 -0.046144087 0.69357151
-0.032827303 -0.046046358 0.69400001
-0.11668744 -0.041842293 0.69300002
-0.11137047 -0.040648572 0.69400001
-0.10707429 -0.040648576 0.69400001
-0.10250582 -0.041610766 0.69349998
-0.097610362 -0.042212144 0.69250005
-0.092358261 -0.042048354 0.69230771
-0.087069534 -0.042876955 0.69260007
-0.082631722 -0.042702001 0.69190001
-0.077988029 -0.042480823 0.69228572
-0.072524115 -0.042684402 0.69276929
-0.067393333 -0.042946905 0.69375002
-0.062067151 -0.042523142 0.69329995
-0.057296671 -0.043466516 0.69150007
-0.052599885 -0.043395363 0.69037503
-0.047815241 -0.043867815 0.69160002
-0.04174643 -0.043396428 0.69300008
-0.037662145 -0.042925719 0.69075
-0.033806287 -0.043541145 0.69060004
-0.11717883 -0.036958467 0.69392318
-0.11238722 -0.037273478 0.69357151
-0.10746033 -0.03757884 0.69222224
-0.10317493 -0.037805397 0.69100004
-0.078857146 -0.038771432 0.69000006
-0.14276573 -0.031064764 0.69400001
-0.13888699 -0.031915557 0.69333339
-0.11764953 -0.032386668 0.69400001
-0.1122863 -0.032887328 0.69384629
-0.10741328 -0.032946907 0.69191664
-0.10377769 -0.03221279 0.6902858
-0.14739512 -0.027531371 0.69153339
-0.14256597 -0.028009014 0.69130766
-0.13874301 -0.027899731 0.69042861
-0.12095429 -0.027099049 0.69400001
-0.11566667 -0.025777144 0.69400001
-0.11236192 -0.02798032 0.69400001
-0.10856478 -0.02928794 0.6936667
-0.10360953 -0.029133335 0.69000006
-0.068342865 -0.025628572 0.69000006
-0.056514293 -0.025628572 0.69000006
-0.052177142 -0.025891429 0.69000006
-0.047314286 -0.026066666 0.69000006
-0.042276196 -0.026066668 0.69000006
-0.037474923 -0.026298098 0.69033337
-0.034171432 -0.025628572 0.69000006
-0.15055843 -0.023011114 0.69033337
-0.14724055 -0.02234911 0.69018769
-0.1439143 -0.023657145 0.69000006
-0.097421043 -0.022119742 0.69245464
-0.092312597 -0.022089729 0.69092864
-0.087728575 -0.0207 0.69000006
-0.081903815 -0.021428764 0.69020003
-0.077259243 -0.021584384 0.69100004
-0.072270267 -0.021927698 0.69130766
-0.067151554 -0.022381546 0.69125003
-0.062336273 -0.022229159 0.69123077
-0.057796586 -0.02251124 0.69120002
-0.052704647 -0.022396788 0.69174999
-0.047455654 -0.022407208 0.69206244
-0.042194881 -0.022412853 0.69225001
-0.037429016 -0.022292897 0.69323087
-0.03285829 -0.022563299 0.69280005
-0.028975241 -0.02199048 0.69371432
-0.14628004 -0.017348573 0.69000006
-0.14338858 -0.016165717 0.69000006
-0.096499056 -0.019167621 0.69400001
-0.092570215 -0.018589254 0.69357145
-0.087056428 -0.018135477 0.6925
-0.082601905 -0.017289085 0.69215387
-0.077942319 -0.01717375 0.69356251
-0.074687622 -0.019167621 0.69400001
-0.067090482 -0.017718012 0.69372743
-0.062533513 -0.017840696 0.69381827
-0.057943501 -0.018286351 0.69400001
-0.14588572 -0.012485716 0.69000006
-0.14297552 -0.012297961 0.69000012
-0.082619056 -0.012558095 0.69400007
-0.079314291 -0.012558095 0.69400001
-0.066756196 -0.013880001 0.69400001
-0.064112388 -0.01388 0.69400001
-0.14630125 -0.0078865718 0.69010007
-0.14271951 -0.0078259753 0.69000006
-0.13737105 -0.0066665313 0.69014293
-0.13412192 -0.0072314292 0.69033337
-0.082619064 -0.0099142864 0.69400001
-0.07997524 -0.0099142864 0.69400001
-0.14630905 -0.0026357148 0.69199997
-0.14240113 -0.0031715154 0.69136363
-0.13771023 -0.0036554984 0.69245464
-0.13417335 -0.0046266671 0.69400001
-0.037226669 -0.056504767 0.69800001
-0.081648573 -0.051113337 0.69700003
-0.077777147 -0.051186673 0.69800007
-0.10583556 -0.046623498 0.6960001
-0.10200538 -0.047475677 0.69672734
-0.097744301 -0.046467625 0.69700003
-0.092357151 -0.045846671 0.69766665
-0.087593578 -0.045786433 0.69675004
-0.082457148 -0.048249383 0.6969232
-0.077192731 -0.048344951 0.69709092
-0.072340958 -0.047122456 0.69685721
-0.067483641 -0.046980783 0.69654554
-0.062565245 -0.047322199 0.69590008
-0.057668574 -0.047726672 0.6960001
-0.053027861 -0.047726672 0.69600004
-0.047412146 -0.047412626 0.69625008
-0.042609442 -0.047190744 0.696091
-0.036689717 -0.048082095 0.69540006
-0.033348259 -0.047924131 0.69566673
-0.11303864 -0.042435456 0.69500011
-0.10713402 -0.042834703 0.69500011
-0.10303652 -0.043906353 0.69500005
-0.09332858 -0.044347622 0.69500005
-0.089357145 -0.044347622 0.69500005
-0.066190481 -0.044347622 0.69500005
-0.063542858 -0.044347622 0.69500005
-0.14072764 -0.035181906 0.69700003
-0.1387362 -0.035181906 0.69700003
-0.11980477 -0.03839048 0.69500005
-0.14663112 -0.032291435 0.69666672
-0.14261763 -0.033167463 0.69650006
-0.13966191 -0.033757146 0.69500005
-0.11781905 -0.032433338 0.69500011
-0.11186191 -0.031109527 0.69500005
-0.11784313 -0.027900141 0.69514292
-0.11252382 -0.027667621 0.69500011
-0.10921429 -0.026476193 0.69500005
-0.11633335 -0.023266669 0.69800007
-0.11115392 -0.022973714 0.6972
-0.10960715 -0.02125762 0.69749999
-0.11101525 -0.018613335 0.69800001
-0.10968572 -0.017948573 0.69800001
-0.097455136 -0.017014498 0.6961112
-0.0927108 -0.016126245 0.69588894
-0.087728575 -0.01580422 0.6955716
-0.072774544 -0.017099116 0.69593346
-0.068176195 -0.016018096 0.69500011
-0.061292388 -0.015753334 0.69500011
-0.056851845 -0.015986532 0.69528586
-0.052839823 -0.017347749 0.69526678
-0.047701314 -0.017224168 0.69562507
-0.042361908 -0.017209524 0.69499999
-0.037099168 -0.017223693 0.69562507
-0.032506589 -0.017246589 0.69658345
-0.029142588 -0.017560817 0.69771427
-0.096390486 -0.013516827 0.69800007
-0.092382461 -0.013197416 0.69785714
-0.087593578 -0.012607859 0.69675004
-0.076338343 -0.01275119 0.69550008
-0.072176792 -0.012775357 0.69687504
-0.067757152 -0.012138519 0.69522232
-0.06211048 -0.012469438 0.69581825
-0.057025895 -0.012732036 0.69700003
-0.052457679 -0.012616191 0.69722223
-0.047716033 -0.012590952 0.69583344
-0.042443182 -0.012599047 0.69633341
-0.037327047 -0.012486476 0.69740003
-0.033459686 -0.013073652 0.69800007
-0.028584763 -0.013295239 0.69800001
-0.087001286 -0.0086336518 0.69733334
-0.082436383 -0.007552953 0.69580007
-0.077292472 -0.0081440704 0.69690913
-0.071538731 -0.0081939688 0.69766665
-0.067692302 -0.0087553253 0.69745457
-0.062915407 -0.0095258746 0.6978333
-0.059163813 -0.0093066674 0.69800001
-0.052516192 -0.0086419052 0.69800001
-0.047823261 -0.0086342068 0.69741666
-0.043061804 -0.0089373561 0.69800001
-0.037226669 -0.0099714296 0.69800001
-0.031243812 -0.0073123816 0.69800001
-0.029249527 -0.0073123816 0.69800001
-0.14297143 -0.00066190481 0.69500005
-0.13736635 -0.0011038096 0.69566679
-0.13465667 -0.0026519047 0.69650006
-0.075561278 -0.0031022225 0.69800007
-0.14622302 0.00155 0.69683337
-0.14229672 0.002791048 0.69753343
-0.1381637 0.0018258335 0.69662505
-0.028584763 0.036561906 0.69800001
-0.050285719 -0.055649526 0.70400006
-0.046900481 -0.055610001 0.70350003
-0.04229508 -0.055870008 0.70116675
-0.037733335 -0.055600006 0.70000005
-0.034000002 -0.055333339 0.70000005
-0.097436905 -0.050053574 0.70075005
-0.09275429 -0.050047629 0.70066667
-0.08818572 -0.050107151 0.7015
-0.07670255 -0.052024767 0.70033336
-0.072296418 -0.051641319 0.70138472
-0.06722679 -0.051212508 0.70062506
-0.062933341 -0.051066674 0.69999999
-0.05761905 -0.050571434 0.70000011
-0.051989656 -0.051991686 0.70166683
-0.047468573 -0.052150473 0.70200008
-0.042723987 -0.052069824 0.70093763
-0.037339646 -0.05200953 0.70012492
-0.032666668 -0.052000009 0.69999999
-0.030000001 -0.052000005 0.70000005
-0.096666671 -0.048133336 0.70000005
-0.092341639 -0.04812504 0.70042866
-0.087714292 -0.047904767 0.70000011
-0.070666671 -0.048666671 0.70000005
-0.048666671 -0.048666671 0.70000005
-0.14677095 -0.035358574 0.70050001
-0.14400001 -0.035333335 0.70000005
-0.148 -0.034000002 0.70000005
-0.13610667 -0.02145524 0.70400006
-0.13247381 -0.021409288 0.70250005
-0.12748525 -0.021358572 0.70083332
-0.12284001 -0.021140954 0.70100009
-0.11733455 -0.022253856 0.70036364
-0.11300001 -0.022500003 0.70000005
-0.13174134 -0.017690668 0.70360005
-0.1273932 -0.017214727 0.70146167
-0.12279025 -0.017397264 0.7026251
-0.11753652 -0.017515685 0.70200014
-0.11233085 -0.01708762 0.70046157
-0.10519001 -0.016079525 0.70350003
-0.10217525 -0.015893335 0.70120001
-0.099333338 -0.015333334 0.70000005
-0.030000001 -0.015333334 0.70000005
-0.13037144 -0.012704763 0.70200002
-0.12733069 -0.012974286 0.70220011
-0.12225982 -0.013003239 0.70380008
-0.1171037 -0.012899405 0.70362502
-0.11233453 -0.012702938 0.70208335
-0.10789494 -0.012286983 0.70366669
-0.10221954 -0.013362382 0.70150006
-0.097201906 -0.011837857 0.70025003
-0.09311112 -0.010888889 0.70000005
-0.090000004 -0.010000001 0.70000005
-0.075548574 -0.01069524 0.70200002
-0.0735908 -0.010449207 0.70033336
-0.057000004 -0.010333334 0.70000005
-0.037 -0.011666668 0.70000005
-0.032370374 -0.01162963 0.70000005
-0.029555557 -0.011555556 0.70000005
-0.095333338 -0.0086666672 0.70000005
-0.092333339 -0.0083333338 0.70000005
-0.08866667 -0.0073333336 0.70000005
-0.081333339 -0.0060000005 0.70000005
-0.077026904 -0.0070030959 0.70025003
-0.072513223 -0.0071682148 0.70012498
-0.067714766 -0.0063376194 0.70050001
-0.062427144 -0.0070692385 0.70029992
-0.057151526 -0.0072121215 0.69999999
-0.052017864 -0.0060021435 0.70025003
-0.047378417 -0.0060057146 0.70066667
-0.042016875 -0.0067643546 0.70028579
-0.037359841 -0.0073377783 0.70050001
-0.032845236 -0.007335477 0.70025003
-0.029555557 -0.0077777784 0.70000005
-0.134 -0.0026666669 0.70000005
-0.086517572 -0.0021560849 0.70300001
-0.082431987 -0.0028585037 0.70042861
-0.078266673 -0.0024000003 0.69999999
-0.07203798 -0.0026675002 0.70037502
-0.067413345 -0.0026693651 0.70083344
-0.062756196 -0.0026704764 0.70100015
-0.057425596 -0.0026705957 0.70112514
-0.052124467 -0.0026714883 0.70168757
-0.047468573 -0.0026723812 0.70200008
-0.04278411 -0.0026718457 0.70193762
-0.037609909 -0.0028081278 0.70266682
-0.032241337 -0.0028069215 0.70233351
-0.028140478 -0.00067000004 0.70350003
-0.13800001 0.0040000002 0.70000005
-0.086480439 0.0024989611 0.7039091
-0.082284689 0.0026769049 0.70241678
-0.077395894 0.0026695835 0.70056254
-0.072070181 0.0026705361 0.70068759
-0.067525089 0.0026758732 0.70200008
-0.062917322 0.0026787501 0.70281261
-0.057614431 0.0023933337 0.70342863
-0.052406292 0.0025473656 0.70366681
-0.047785446 0.0016281635 0.70385724
-0.042623129 0.0012451701 0.70400012
-0.02745086 0.0020097145 0.70300007
-0.081798099 0.0060342862 0.70400006
-0.077179693 0.006469842 0.7026667
-0.072359532 0.0067002382 0.70350003
-0.066813447 0.0069273021 0.70388895
-0.062689528 0.0063695242 0.70400006
-0.059672385 0.0060342862 0.70400006
-0.054308575 0.0060342862 0.70400006
-0.081127621 0.034194287 0.70400006
-0.077554673 0.033887241 0.70320004
-0.07210286 0.034048572 0.70100003
-0.067313015 0.032948572 0.70288891
-0.062442292 0.033828955 0.70200002
-0.057619527 0.033723019 0.70350003
-0.052134097 0.033906668 0.70360005
-0.047151193 0.033774048 0.70225
-0.042830762 0.033058763 0.70270002
-0.038176432 0.033152383 0.70324999
-0.032375876 0.033714924 0.70333338
-0.027135814 0.033551808 0.70180005
-0.086247265 0.038182504 0.70337504
-0.082263574 0.037450716 0.70225
-0.077486545 0.037405722 0.70137507
-0.072045304 0.037356731 0.70043749
-0.067504577 0.037755243 0.70039999
-0.062782086 0.03740399 0.70131254
-0.057625063 0.037523519 0.70356262
-0.052197147 0.037472982 0.70262516
-0.047446351 0.037423179 0.70166677
-0.042986814 0.037257832 0.70214301
-0.037505955 0.036836907 0.70325005
-0.032385718 0.037352249 0.70214295
-0.027937416 0.03651946 0.70085722
-0.085466862 0.042668384 0.70220006
-0.082430989 0.042631283 0.70192319
-0.077595957 0.042813458 0.70237505
-0.072187692 0.042673532 0.70226681
-0.067517072 0.04252056 0.7030834
-0.062644288 0.041204765 0.70350003
-0.057660956 0.040899049 0.70400006
-0.052238286 0.041924 0.70320004
-0.047888339 0.041190714 0.70325005
-0.044858098 0.040840954 0.70300001
-0.033523813 0.040899049 0.70400006
-0.075763814 0.04626286 0.70400006
-0.13764286 -0.020814287 0.70500004
-0.13656859 -0.017860001 0.70500004
-0.13450953 -0.017009526 0.70500004
-0.10742858 -0.015442858 0.70500004
-0.13534001 -0.014140001 0.70700002
-0.13261582 -0.013302286 0.70539999
-0.12085715 -0.011414287 0.70500004
-0.11884286 -0.011414287 0.70500004
-0.1081 -0.013428573 0.70500004
-0.089300007 -0.0013428573 0.70500004
-0.035585716 -0.00067142863 0.70500004
-0.030214287 -0.00067142863 0.70500004
-0.090728581 0.0033590482 0.70566672
-0.088762864 0.0030885718 0.70500004
-0.05774286 0.0047000004 0.70500004
-0.050357144 0.0047000004 0.70500004
-0.047402862 0.0041628578 0.70500004
-0.043195236 0.0038047628 0.70499998
-0.037600003 0.0026857145 0.70499998
-0.032267503 0.0026903574 0.70587492
-0.028065717 0.0033571429 0.70500004
-0.090814292 0.0074009537 0.70633334
-0.087368265 0.0073939692 0.70566666
-0.082811579 0.0077729262 0.70528579
-0.078333348 0.0082809534 0.70500004
-0.072514288 0.0087285722 0.70500004
-0.067814291 0.0087285731 0.7050001
-0.06217429 0.0081914291 0.70500004
-0.057559747 0.0075077931 0.70499998
-0.052188318 0.0075077931 0.70499998
-0.047076039 0.0073982552 0.70616663
-0.042406246 0.0074047628 0.70677769
-0.037715241 0.0074087307 0.70716661
-0.03234724 0.0071438099 0.70760006
-0.027974967 0.0075953752 0.70657146
-0.08703927 0.01196176 0.70676917
-0.082684293 0.012101112 0.70583332
-0.077885717 0.012085714 0.70499998
-0.07252679 0.012087977 0.70512497
-0.067142867 0.012085714 0.70499998
-0.062472068 0.012092384 0.70533335
-0.057813931 0.012102263 0.70587492
-0.052472979 0.012110357 0.70637488
-0.047132738 0.012120716 0.7069999
-0.042590674 0.011726668 0.70760006
-0.037848439 0.01194245 0.70785725
-0.032500576 0.012002285 0.70800018
-0.02802572 0.011268165 0.70785719
-0.086664386 0.016039241 0.7076
-0.082419321 0.017696192 0.70685709
-0.077660277 0.017280817 0.70557141
-0.072565727 0.017469764 0.70549995
-0.067273222 0.017491309 0.70637488
-0.062285174 0.017714154 0.70757139
-0.057647012 0.01732388 0.70735723
-0.052542444 0.017514585 0.70731246
-0.047191434 0.017528692 0.70787507
-0.04203048 0.015958097 0.70800006
-0.038973719 0.016587431 0.708
-0.086982869 0.024499049 0.70800006
-0.08221966 0.022913335 0.70762503
-0.077460729 0.022901826 0.70725
-0.072681792 0.022882264 0.70662487
-0.067380004 0.022909528 0.70750004
-0.061482608 0.022619221 0.70800012
-0.057314288 0.023109609 0.70800012
-0.052781571 0.022634629 0.70792872
-0.046901774 0.022728572 0.70785725
-0.042480003 0.023599999 0.70800006
-0.039108574 0.023600001 0.70800006
-0.034388572 0.024948573 0.708
-0.090900004 0.028280001 0.70700002
-0.087372385 0.027736017 0.70718175
-0.082146674 0.02760667 0.70699996
-0.077433333 0.027606668 0.70700002
-0.072720803 0.027606033 0.70699996
-0.06728445 0.027585875 0.70649993
-0.062385913 0.027487049 0.70739996
-0.057745118 0.027739223 0.70727265
-0.052601214 0.027739396 0.70727271
-0.047161352 0.027622305 0.70741671
-0.042433549 0.027614921 0.70722228
-0.037741907 0.027632227 0.70766675
-0.03289016 0.027945399 0.70800006
-0.027376002 0.028454861 0.708
-0.024948573 0.028994288 0.708
-0.09083572 0.032295719 0.70649999
-0.087471433 0.032295719 0.70649987
-0.082551278 0.031921431 0.70566666
-0.077817142 0.031582858 0.70559996
-0.072566204 0.031578578 0.70550001
-0.066919051 0.030661907 0.70500004
-0.062677622 0.031421907 0.70574999
-0.057759818 0.031297144 0.70520002
-0.052459478 0.031450648 0.70536363
-0.047873575 0.03141072 0.70550001
-0.042971432 0.030661907 0.70500004
-0.036954287 0.03124286 0.70550001
-0.032148194 0.031340387 0.70619994
-0.027804084 0.031266943 0.70714289
-0.086614296 0.035585716 0.7050001
-0.041628577 0.038942859 0.70500004
-0.037600003 0.03961429 0.70500004
-0.07318572 0.044985719 0.70500004
-0.065464288 0.043978576 0.70500004
-0.062319845 0.043490641 0.70616674
-0.057608578 0.042517573 0.70611107
-0.052371431 0.04364286 0.70500004
-0.047076352 0.043267466 0.70616668
-0.042768579 0.041809667 0.70642865
-0.037413657 0.040995877 0.70566672
-0.082116917 0.047117863 0.70675009
-0.077386945 0.047778506 0.70657146
-0.072420292 0.047518384 0.70669997
-0.067993931 0.047462739 0.70687509
-0.063338578 0.045819528 0.70749998
-0.032457143 0.0087904772 0.71000004
-0.041923814 0.014200001 0.71000004
-0.037190478 0.013523811 0.71000004
-0.030471431 0.014220001 0.71100003
-0.02776286 0.014220002 0.71100008
-0.087007627 0.018537907 0.71040004
-0.042750269 0.01810688 0.71000004
-0.03731342 0.018011257 0.71000004
-0.03246798 0.017587263 0.71025008
-0.027211115 0.017734285 0.71073341
-0.090313338 0.022408573 0.71300006
-0.087475128 0.022164881 0.71062499
-0.063223809 0.023328573 0.71000004
-0.057476193 0.020961907 0.71000004
-0.049361907 0.023666669 0.71000004
-0.042600006 0.020961907 0.71000004
-0.037190478 0.02231429 0.71000004
-0.032490879 0.022338016 0.71075004
-0.027070558 0.022332307 0.71058339
-0.087904766 0.02501905 0.71000004
-0.064238101 0.02501905 0.71000004
-0.051615875 0.025469845 0.71000004
-0.049361907 0.02501905 0.71000004
-0.035838097 0.02501905 0.71000004
-0.031330161 0.025920637 0.71000004
-0.027554762 0.025864288 0.71000004
-0.061533336 0.043952383 0.71000004
-0.04261937 0.043973021 0.71033335
-0.038023919 0.043146033 0.71155554
-0.034178734 0.043232702 0.71300006
