# .PCD v0.7 - Point Cloud Data file format
VERSION 0.7
FIELDS x y z
SIZE 4 4 4
TYPE F F F
COUNT 1 1 1
WIDTH 674
HEIGHT 1
VIEWPOINT 0 0 0 1 0 0 0
POINTS 674
DATA ascii
-0.092613339 0.0042933337 0.64400005
-0.096293345 0.0083822226 0.64400005
-0.092242591 0.0071832659 0.64385724
-0.088385954 0.0084107146 0.64225006
-0.084988579 0.0091714291 0.64200002
-0.10169067 0.012634668 0.64400005
-0.097925372 0.012240119 0.64262509
-0.09270826 0.012242224 0.64277786
-0.087938793 0.011813062 0.64314288
-0.084507629 0.01102381 0.64300001
-0.10181334 0.015946668 0.64400005
-0.098032385 0.017040636 0.64360005
-0.092513785 0.01716361 0.64242119
-0.087785564 0.017577937 0.6438334
-0.084026672 0.019013334 0.64400005
-0.095066674 0.020240001 0.64400005
-0.09308286 0.020208573 0.64300001
-0.086548962 0.021452574 0.64360011
-0.083141536 0.02219524 0.64380008
-0.085662231 0.025555557 0.64400005
-0.084026672 0.025146669 0.64400005
-0.10059429 -0.00061714288 0.648
-0.099360004 -0.00061714288 0.648
-0.097957999 0.0029602859 0.64770001
-0.11096229 0.0080228588 0.648
-0.10707157 0.0087240832 0.64771438
-0.10198002 0.0079065086 0.64700001
-0.097532295 0.0067633339 0.64569998
-0.11082318 0.011925716 0.64766669
-0.10720842 0.012323037 0.64693743
-0.10313525 0.012025581 0.64514291
-0.087351441 0.012777144 0.64500004
-0.082765713 0.01372635 0.64533335
-0.11046858 0.016662858 0.648
-0.10718307 0.017144321 0.64753336
-0.1029004 0.017479619 0.6462
-0.098900005 0.019042859 0.64500004
-0.086122863 0.016094288 0.64500004
-0.08231017 0.017101398 0.64593333
-0.07874953 0.019072384 0.64600003
-0.10198223 0.020766668 0.64766669
-0.097181395 0.022128794 0.64676923
-0.09217184 0.022428574 0.64642859
-0.088662863 0.022996193 0.64560002
-0.081455924 0.022233063 0.64585721
-0.079611436 0.022217143 0.648
-0.096891433 0.025302859 0.648
-0.092091434 0.026262861 0.648
-0.087661266 0.027303174 0.64666665
-0.083428584 0.027092382 0.64649999
-0.086641908 0.030525241 0.64750004
-0.08283513 0.031314168 0.64787495
-0.10670111 0.0038202726 0.65300012
-0.10206874 0.0035128572 0.65083337
-0.11080953 0.0055714292 0.65000004
-0.10783786 0.0065064295 0.65075004
-0.10377048 0.0058852388 0.65050006
-0.11604743 0.013806286 0.65300006
-0.11328287 0.012666804 0.65100002
-0.11588159 0.016376827 0.65300012
-0.11232439 0.017252956 0.65160006
-0.10957143 0.019190477 0.65000004
-0.11069906 0.021144763 0.65300006
-0.10734215 0.021252383 0.65149999
-0.10296214 0.02314024 0.65225005
-0.099973343 0.023596192 0.65200001
-0.078679524 0.023851432 0.65050006
-0.10510191 0.026120003 0.65300006
-0.10174363 0.026493145 0.65300006
-0.097321443 0.027310384 0.65170002
-0.093537837 0.02840694 0.65042865
-0.089761913 0.02909524 0.65000004
-0.081643678 0.027509527 0.65014291
-0.07774847 0.02740868 0.65077782
-0.095736913 0.031083573 0.65275002
-0.092025146 0.031918287 0.65200001
-0.088093914 0.032633144 0.65140003
-0.083058648 0.032816466 0.65014291
-0.078075126 0.030982502 0.65062505
-0.090176195 0.035448574 0.65300006
-0.086608261 0.036259368 0.65266669
-0.084241912 0.036637466 0.65200007
-0.091368012 -0.0078960005 0.65800005
-0.088360004 -0.0077288896 0.65800005
-0.11790001 0.013100001 0.65500003
-0.12085477 0.018786192 0.65750003
-0.11790202 0.018390054 0.65577781
-0.11415715 0.019338097 0.65500003
-0.11761437 0.022116337 0.65769237
-0.1129129 0.022853553 0.65669239
-0.10758641 0.023799188 0.6551429
-0.11154667 0.025693335 0.65800005
-0.10759716 0.027524447 0.65683341
-0.10277335 0.028918099 0.65533334
-0.09918572 0.02931905 0.65500003
-0.10627081 0.031108892 0.65766668
-0.10240879 0.031494923 0.65700006
-0.097887143 0.032369763 0.65675008
-0.093125485 0.034063097 0.65625
-0.09580715 0.036319524 0.65750003
-0.092418984 0.037478615 0.65669239
-0.087982222 0.038402334 0.65622222
-0.091869347 0.041234672 0.65800005
-0.088610679 0.041234672 0.65800005
-0.092820011 -0.016206667 0.66300005
-0.087768577 -0.015785715 0.66300005
-0.096095659 -0.011596328 0.66071433
-0.092138425 -0.012732317 0.66173339
-0.087319531 -0.012374642 0.66200006
-0.083980009 -0.011365715 0.66300005
-0.09724573 -0.0077257152 0.66109097
-0.09361621 -0.0075495243 0.66060001
-0.087210484 -0.007275511 0.6601429
-0.083463743 -0.0074127479 0.66123086
-0.09597715 -0.003157143 0.66300011
-0.092388734 -0.0028369843 0.66216683
-0.087675624 -0.0032699052 0.66040009
-0.084292389 -0.0037738099 0.66050005
-0.095345721 0.00063142861 0.66300005
-0.12101652 0.022443812 0.6606667
-0.11826143 0.024532858 0.66050005
-0.12042096 0.025849525 0.66200006
-0.11706027 0.027596515 0.66153342
-0.11227136 0.028199447 0.66041672
-0.11588154 0.032406479 0.66200012
-0.11235062 0.032744128 0.66200018
-0.10758201 0.033416972 0.66200012
-0.10250636 0.034238737 0.66166675
-0.098365724 0.034187309 0.6606667
-0.10645887 0.036496576 0.66300005
-0.10226268 0.037875533 0.66281259
-0.097501509 0.038244531 0.66191685
-0.10544858 0.041042861 0.66300005
-0.10247668 0.041663971 0.66283345
-0.097093917 0.041989904 0.66200012
-0.086651437 -0.021025715 0.66900003
-0.082403824 -0.021450479 0.66900009
-0.077592008 -0.02200667 0.66780013
-0.072507784 -0.022262067 0.66783345
-0.069448575 -0.021025715 0.66900003
-0.091846429 -0.017451905 0.66624999
-0.087466531 -0.018218022 0.66661537
-0.082510419 -0.017772563 0.66643751
-0.077556431 -0.017798809 0.66749996
-0.072525725 -0.018448571 0.66800016
-0.067961916 -0.019326668 0.66900009
-0.085500002 -0.014566667 0.66500002
-0.082245104 -0.012875172 0.66650009
-0.078121431 -0.01384143 0.66825008
-0.073271438 -0.014654288 0.66900003
-0.10290858 -0.0057171434 0.66700006
-0.09887477 -0.0057042865 0.66550004
-0.082456194 -0.0095142862 0.66600001
-0.10608477 -0.0044466672 0.66700006
-0.10289596 -0.0031757937 0.66691673
-0.098396868 -0.0021545717 0.66569996
-0.091833338 -0.00063333346 0.66500008
-0.088732868 -0.0006338096 0.66550004
-0.09833239 0.0010619049 0.66900003
-0.092276447 0.0024326192 0.66591668
-0.088631049 0.0026708571 0.66759998
-0.091474295 0.0057171434 0.66700006
-0.088356085 0.0069918525 0.66744447
-0.11083334 0.033566669 0.66500002
-0.11235271 0.037122861 0.66566664
-0.10796924 0.038523909 0.66530001
-0.10196667 0.041800003 0.66500002
-0.09943334 0.043700002 0.66500002
-0.09675429 -0.026270479 0.6728
-0.09179239 -0.02535524 0.67400002
-0.086913913 -0.025804574 0.67400002
-0.082124136 -0.026305085 0.67366672
-0.077298872 -0.027562479 0.67300004
-0.072881192 -0.027071672 0.67275
-0.068142317 -0.026616331 0.6722858
-0.091657259 -0.022434395 0.67300004
-0.087358758 -0.023279905 0.67149997
-0.082862541 -0.0234327 0.671
-0.077886678 -0.024472702 0.67033339
-0.072742857 -0.024885716 0.67000002
-0.067908421 -0.022964982 0.67123079
-0.064832382 -0.022466669 0.67400002
-0.093441911 -0.019198097 0.67200005
-0.072742864 -0.015952382 0.67000002
-0.077193655 -0.011574816 0.67111117
-0.073023617 -0.012169334 0.67259997
-0.080839813 -0.0085822865 0.67260003
-0.077343442 -0.0093632387 0.67340004
-0.072535247 -0.0096285734 0.67400002
-0.086697474 -0.0010650795 0.671
-0.08499334 -0.00063904765 0.671
-0.096352391 0.0025523813 0.67000002
-0.091247626 0.0019142858 0.67000002
-0.086654298 0.0023419049 0.67066669
-0.082686476 0.0026602005 0.67194736
-0.077906042 0.0034130164 0.67233336
-0.091383815 0.0070295241 0.671
-0.086015433 0.0072843814 0.671
-0.082405068 0.0077793985 0.67184204
-0.077614956 0.0076728575 0.67129999
-0.080666043 0.011340319 0.67400002
-0.078196198 0.011538096 0.67299998
-0.088257529 -0.030625144 0.67839998
-0.082182743 -0.031162262 0.67812496
-0.077418819 -0.031615157 0.67741668
-0.072408058 -0.031486321 0.6771819
-0.067656092 -0.031354286 0.67800003
-0.064020008 -0.030393336 0.67900002
-0.097071439 -0.025071431 0.67500001
-0.093214288 -0.026035715 0.67500001
-0.087874815 -0.02814593 0.67677784
-0.08266858 -0.02798548 0.67550009
-0.075214289 -0.028928574 0.67500001
-0.071357146 -0.028928574 0.67500007
-0.066740006 -0.028328575 0.67600006
-0.064247765 -0.026748981 0.6755715
-0.10018414 -0.021328893 0.67866677
-0.097346231 -0.022065889 0.67609102
-0.094500005 -0.022500005 0.67500007
-0.066214293 -0.023785716 0.67500001
-0.064285718 -0.023785716 0.67500001
-0.095927626 -0.019958096 0.67600006
-0.094500005 -0.019928573 0.67500001
-0.070724569 -0.013318096 0.67880005
-0.068844527 -0.011959286 0.67875004
-0.081623338 -0.0061285715 0.67750001
-0.077246934 -0.0069778352 0.67745459
-0.072145283 -0.0072982423 0.67776924
-0.068521194 -0.009049762 0.67875004
-0.082573801 -0.0025823812 0.67737502
-0.077592678 -0.0025866071 0.67893744
-0.072703823 -0.0037876195 0.67900002
-0.080357149 0.00064285717 0.67500001
-0.077455007 0.00064547622 0.67774999
-0.086140327 0.011386032 0.67666674
-0.083097026 0.012402024 0.67637503
-0.090548575 -0.035828575 0.68400002
-0.073177144 -0.035828575 0.68400002
-0.067357719 -0.036089148 0.68400002
-0.062928006 -0.036349718 0.68400002
-0.090416193 -0.033825718 0.68300003
-0.087223716 -0.032972705 0.68177783
-0.082673207 -0.03368463 0.68199998
-0.077444457 -0.034492068 0.6833334
-0.072400011 -0.034185909 0.68240005
-0.066874556 -0.033670206 0.6817143
-0.062357217 -0.032676447 0.68346673
-0.058845721 -0.032354288 0.68400002
-0.0625256 -0.027354646 0.68387502
-0.068232708 -0.016246034 0.68233341
-0.06702397 -0.013319366 0.6821667
-0.064491436 -0.012377145 0.68400002
-0.06708239 -0.0073571443 0.68166673
-0.07300096 -0.0019431747 0.68033332
-0.069000483 -0.0045566671 0.68350005
-0.074804768 0.00065047626 0.68300003
-0.070212387 -0.045277145 0.68900001
-0.085960954 -0.040027622 0.68900001
-0.071688816 -0.041668095 0.68900007
-0.067506835 -0.041946195 0.68816674
-0.063838296 -0.041816954 0.68820012
-0.059713338 -0.040683813 0.68900001
-0.087655656 -0.037660547 0.68685734
-0.082683727 -0.037206322 0.68754554
-0.077244863 -0.03720424 0.68800002
-0.071950488 -0.038199618 0.68680012
-0.067762017 -0.038565826 0.68633336
-0.06254182 -0.03854667 0.68599999
-0.058241315 -0.036974404 0.68712503
-0.08761096 -0.034651905 0.68650007
-0.058230482 -0.033366665 0.68700004
-0.060782146 -0.027449287 0.68625003
-0.059453338 -0.028093334 0.68600005
-0.066082865 -0.020282859 0.68700004
-0.063394532 -0.022113098 0.68800008
-0.066082865 -0.017665718 0.68700004
-0.064201079 -0.017034406 0.68787503
-0.063206904 -0.012118333 0.68775004
-0.063625112 -0.0080348048 0.68745458
-0.070581913 -0.0010917461 0.68833339
-0.067600004 -0.0028809528 0.68780011
-0.064437918 -0.0035434288 0.68900007
-0.086584769 -0.047368258 0.69400001
-0.071609527 -0.046531431 0.69300002
-0.067727 -0.045958735 0.69266671
-0.062539697 -0.046024453 0.6936667
-0.086828791 -0.04286794 0.6924445
-0.082941987 -0.041854948 0.69246161
-0.077824883 -0.042212497 0.69250005
-0.073470645 -0.043205243 0.69083345
-0.067028575 -0.044028573 0.69000006
-0.061778232 -0.043350209 0.69114292
-0.058373615 -0.041776881 0.69314283
-0.080828577 -0.038771432 0.69000006
-0.078857146 -0.038771432 0.69000006
-0.056678098 -0.038225718 0.69200003
-0.061026126 -0.021720547 0.69114292
-0.059249531 -0.022563431 0.69279999
-0.061473247 -0.017377621 0.69110006
-0.059025243 -0.016159048 0.69250005
-0.061657723 -0.012752572 0.69020003
-0.059419051 -0.013375239 0.69066668
-0.061412573 -0.0074960007 0.69040006
-0.059360195 -0.0069758105 0.69100004
-0.066809535 -0.00065714295 0.69000006
-0.062014729 -0.0022121214 0.69072729
-0.059183002 -0.0029165992 0.69157147
-0.067117348 0.0025084447 0.69226676
-0.062700003 0.002642381 0.69300002
-0.065874934 0.0063892072 0.69400001
-0.063451439 0.005948572 0.69400001
-0.085826993 -0.047436513 0.69500005
-0.082308806 -0.047305126 0.69653851
-0.077238373 -0.046534158 0.69657153
-0.073611118 -0.046644133 0.69633341
-0.066963404 -0.048209939 0.69614297
-0.062060952 -0.048668768 0.69620007
-0.057399563 -0.047605425 0.69646162
-0.08141429 -0.044347622 0.69500005
-0.056697149 -0.043258507 0.69571435
-0.0549381 -0.041700002 0.69500005
-0.058371909 -0.025870003 0.69650006
-0.057525449 -0.022840548 0.69657153
-0.05802232 -0.017701499 0.69571435
-0.060233336 -0.011252382 0.69500005
-0.059163813 -0.011965714 0.69800001
-0.06040667 -0.0099571431 0.69700003
-0.058499053 -0.0086419061 0.69800001
-0.057585716 -0.00066190481 0.69500005
-0.069500007 0.0046333335 0.69500005
-0.060233336 0.002647619 0.69500005
-0.058780383 0.0022584766 0.69660008
-0.066852391 0.0079428582 0.69500011
-0.062130619 0.0082413619 0.69614291
-0.05912143 0.0066423817 0.69749999
-0.061734289 0.011284764 0.69700003
-0.059163813 0.011300953 0.69800001
-0.066000007 -0.055333339 0.70000005
-0.081407808 -0.051199812 0.70180005
-0.077836715 -0.0514265 0.70290917
-0.074035242 -0.051255718 0.70350003
-0.066888899 -0.050888896 0.70000005
-0.062848486 -0.052545462 0.69999999
-0.057236481 -0.051756293 0.7021001
-0.054308575 -0.050956197 0.70400006
-0.077333339 -0.048666671 0.70000005
-0.073333338 -0.048666671 0.70000005
-0.055333339 -0.046000004 0.70000005
-0.052924979 -0.047566459 0.70344448
-0.053470477 -0.04274286 0.70400006
-0.055649526 -0.035535239 0.70400006
-0.052918099 -0.039520636 0.70333338
-0.056539577 -0.031725824 0.70211118
-0.054308575 -0.031959366 0.70400012
-0.056651074 -0.027575118 0.70187509
-0.054308575 -0.028160002 0.70400006
-0.055777784 -0.022666669 0.70000005
-0.054250717 -0.02277405 0.70325005
-0.056017466 -0.018522225 0.70300007
-0.054270003 -0.018759526 0.70350003
-0.056864578 -0.011613525 0.70080012
-0.056331161 -0.0071485722 0.70057148
-0.054308575 -0.0073752394 0.70400012
-0.056239527 -0.0040161908 0.70300007
-0.054308575 -0.0046933335 0.70400006
-0.057580765 0.003606667 0.70139998
-0.057200424 0.0076414817 0.70111114
-0.061688341 0.013005001 0.70025003
-0.057280451 0.01206254 0.70100009
-0.054308575 0.011398096 0.70400006
-0.060840003 0.016046667 0.70200002
-0.057410486 0.017128846 0.70328587
-0.054308575 0.017432382 0.70400006
-0.047220685 0.033044901 0.70400012
-0.042900003 0.03284524 0.70383334
-0.037546672 0.034194287 0.70400006
-0.04626286 0.036205716 0.70400006
-0.043133967 0.036429215 0.70400006
-0.039111115 0.036429211 0.70400012
-0.053268574 -0.060011432 0.708
-0.080126673 -0.055886671 0.70700002
-0.078161433 -0.055926196 0.70749998
-0.062351055 -0.056426097 0.70699996
-0.057392385 -0.05694392 0.70711118
-0.052549928 -0.05726786 0.70741671
-0.04922286 -0.056640003 0.708
-0.081242859 -0.054385718 0.70500004
-0.077569723 -0.05417886 0.70580006
-0.074740008 -0.054540005 0.70700002
-0.061100002 -0.054385718 0.70500004
-0.05774286 -0.054385718 0.70500004
-0.052167214 -0.05264898 0.70614284
-0.048681274 -0.051824763 0.70666671
-0.050482143 -0.047115479 0.70674998
-0.049199685 -0.046952069 0.70766664
-0.051408168 -0.04295266 0.70628577
-0.04922286 -0.043828573 0.708
-0.053426538 -0.037120413 0.70500004
-0.052956872 -0.032003406 0.70642871
-0.05243266 -0.027035106 0.70714289
-0.051965334 -0.022482475 0.70680004
-0.04922286 -0.022251431 0.708
-0.056400001 -0.016114287 0.70500004
-0.053417154 -0.017421771 0.70742863
-0.056400001 -0.014100001 0.70500004
-0.053904288 -0.012801906 0.70749998
-0.052623808 -0.0071335244 0.70660001
-0.056480002 -0.0013438095 0.70600003
-0.053770207 -0.0024036739 0.70700008
-0.056176197 0.0022380955 0.70500004
-0.054129057 0.0022461908 0.7075001
-0.055728573 0.0060428577 0.70500004
-0.054145005 0.0077350009 0.70625007
-0.0537479 0.012209662 0.70671433
-0.061693974 0.019069843 0.70666671
-0.059085719 0.019471429 0.70500004
-0.052171234 0.01748701 0.70621431
-0.04922286 0.018205715 0.708
-0.060348574 0.022925716 0.708
-0.057379119 0.022714067 0.7062307
-0.052453689 0.022865834 0.7061249
-0.048750162 0.02336381 0.70766664
-0.060011432 0.02697143 0.708
-0.057269949 0.027624236 0.70744449
-0.052520003 0.027606664 0.70699996
-0.047656406 0.027905293 0.70700002
-0.042381279 0.028926034 0.70633334
-0.039053336 0.028953334 0.70700002
-0.057076357 0.031234764 0.70783329
-0.052347623 0.032162096 0.70646673
-0.048208576 0.031020004 0.70500004
-0.042971432 0.030214287 0.70500004
-0.037623271 0.031959187 0.70542854
-0.050997149 0.037293337 0.70766675
-0.048008386 0.037923623 0.70599997
-0.042701367 0.039054833 0.70528579
-0.04697524 0.041131433 0.70800006
-0.042480003 0.041131433 0.70800006
-0.076840006 -0.060520004 0.71400005
-0.072080009 -0.060520004 0.71400005
-0.067273811 -0.060477622 0.71350002
-0.062206399 -0.061042048 0.71328574
-0.057375144 -0.061853241 0.71210003
-0.052516017 -0.061876018 0.71109092
-0.047674637 -0.061615586 0.71236372
-0.0441381 -0.060435243 0.71300006
-0.076962151 -0.057978813 0.71200001
-0.072080001 -0.059160005 0.71400005
-0.067014053 -0.057875481 0.71074998
-0.06226794 -0.058433022 0.71066666
-0.058911432 -0.058911432 0.71100003
-0.046885718 -0.057485197 0.71163642
-0.043685403 -0.057040006 0.71300006
-0.047221832 -0.052871671 0.71175015
-0.0441381 -0.05228667 0.71300006
-0.046874464 -0.047861308 0.71145457
-0.0441381 -0.049570478 0.71300006
-0.047328316 -0.042640179 0.71272737
-0.044179372 -0.042819373 0.7136668
-0.051381271 -0.037573021 0.713
-0.049570482 -0.037797149 0.71300006
-0.0512008 -0.032931272 0.7105
-0.049570478 -0.032594286 0.71300006
-0.051540006 -0.027191048 0.71020001
-0.048224386 -0.027713526 0.71320009
-0.051406395 -0.017329935 0.71157151
-0.049640004 -0.015640002 0.71400005
-0.05193305 -0.012203715 0.71190012
-0.049622625 -0.012235001 0.71375006
-0.051088098 -0.0077814297 0.7105
-0.049593654 -0.007472381 0.71333337
-0.051620822 -0.0024216331 0.71185726
-0.051918384 0.0029814288 0.71170008
-0.049640004 0.0047600004 0.71400005
-0.051960595 0.0072775004 0.71087503
-0.048782289 0.0074737146 0.71340007
-0.05143512 0.012181548 0.71062505
-0.049068194 0.012912381 0.7136001
-0.048903625 0.018015239 0.7112
-0.070720002 0.023800002 0.71400005
-0.067320004 0.023800004 0.71400011
-0.06321238 0.022538098 0.71175003
-0.046833884 0.022401227 0.71271437
-0.041441273 0.023777781 0.71333337
-0.037377283 0.022814561 0.71357161
-0.034680001 0.023800002 0.71400005
-0.075480007 0.028560001 0.71400005
-0.071819581 0.027413229 0.71366674
-0.067580886 0.027340751 0.71264303
-0.062712304 0.027217364 0.71038467
-0.04601391 0.026195621 0.71260005
-0.04225871 0.0263413 0.71254551
-0.038007624 0.026208712 0.71085721
-0.034680001 0.025160002 0.71400005
-0.071788572 0.032348581 0.71400011
-0.067681976 0.032416198 0.71206683
-0.06222637 0.032466132 0.71018755
-0.057714768 0.033592224 0.71016669
-0.054848574 0.034534287 0.71100003
-0.065960005 0.036040001 0.71400005
-0.062274925 0.036459688 0.71333337
-0.057391342 0.037448097 0.71230012
-0.053462319 0.037607353 0.71057147
-0.056387942 0.040082544 0.71333337
-0.051729143 0.04195429 0.71280003
-0.070530482 -0.071215242 0.71900004
-0.077378094 -0.066079527 0.71900004
-0.071900003 -0.066969715 0.71899998
-0.067449048 -0.066079527 0.71900004
-0.062655717 -0.066079527 0.71900004
-0.05725662 -0.067446031 0.71855557
-0.054020956 -0.067014292 0.71800005
-0.076951794 -0.062790602 0.71662503
-0.072469048 -0.063189052 0.71650004
-0.067761786 -0.062812738 0.71687502
-0.062687904 -0.063663132 0.71657151
-0.057320483 -0.06482619 0.71650004
-0.053870481 -0.064780958 0.71600002
-0.047800004 -0.04575143 0.71700001
-0.047051437 -0.040232383 0.71600002
-0.044323813 -0.040232383 0.71600002
-0.047429718 -0.037725147 0.71760005
-0.047104605 -0.03276905 0.71683335
-0.043824762 -0.034922861 0.71900004
-0.047572386 -0.025720954 0.71700001
-0.048173811 -0.022892384 0.71749997
-0.048840243 -0.017759049 0.71724999
-0.048169147 -0.011871239 0.71640009
-0.048124529 -0.0078497622 0.71675003
-0.05114286 -0.0047733337 0.71600002
-0.049282048 -0.0030246261 0.71728575
-0.048814647 0.0027327384 0.71687502
-0.047815956 0.007513572 0.71725005
-0.047868576 0.011796463 0.71657151
-0.067449056 0.019515716 0.71900004
-0.064325146 0.018164 0.71700001
-0.047116194 0.017755004 0.71700007
-0.042683497 0.019401588 0.71900004
-0.037641715 0.019299239 0.71860009
-0.033827242 0.019310286 0.71900004
-0.081845582 0.022391977 0.71871436
-0.077776887 0.022691689 0.71809089
-0.072538413 0.02240614 0.71777785
-0.067540333 0.021830797 0.71633333
-0.045687623 0.02113905 0.71600002
-0.042505398 0.022048254 0.71600002
-0.037504762 0.02113905 0.71600002
-0.032593425 0.022412643 0.7170909
-0.029444763 0.022597145 0.71900004
-0.081167437 0.026416956 0.71860003
-0.077837229 0.027084049 0.71691668
-0.073509336 0.026321528 0.71600002
-0.032731429 0.025230478 0.71600002
-0.077146493 0.032638274 0.71800005
-0.073748901 0.033461273 0.71700001
-0.070921592 0.036715239 0.71833342
-0.067697152 0.036698416 0.71800005
-0.063006833 0.038441114 0.71650004
-0.067061909 -0.071642853 0.72100008
-0.06267184 -0.072086543 0.72085726
-0.073371433 -0.067885719 0.72000003
-0.06693802 -0.067812823 0.72054559
-0.062400006 -0.068571433 0.72000003
-0.059657145 -0.068571433 0.72000003
-0.044096384 -0.037503626 0.72120005
-0.042692937 -0.032390878 0.7210834
-0.045942862 -0.029485716 0.72000003
-0.042083431 -0.028191624 0.72200006
-0.039221432 -0.026147146 0.72250009
-0.047511432 -0.021345716 0.72300005
-0.046881717 -0.017735431 0.72180003
-0.046640553 -0.012667484 0.72171438
-0.04475715 -0.013082858 0.72300005
-0.046632577 -0.0072908583 0.7222001
-0.044757146 -0.0075742863 0.72300005
-0.047467943 -0.0027498414 0.72233343
-0.047511436 0.0020657144 0.72300005
-0.046134289 0.0082628578 0.72300005
-0.044757146 0.0082628578 0.72300005
-0.083317146 0.014460001 0.72300005
-0.046006668 0.012358096 0.72100008
-0.042792518 0.012520891 0.72240007
-0.037106354 0.013541905 0.72300005
-0.033740003 0.014460001 0.72300005
-0.086071432 0.015837144 0.72300005
-0.08279594 0.017835241 0.72281826
-0.076431438 0.019509526 0.72300005
-0.072220199 0.018569717 0.7222001
-0.067849211 0.016865717 0.72122222
-0.045942862 0.016457144 0.72000003
-0.042423237 0.016886478 0.7208001
-0.037422858 0.016650479 0.72100008
-0.032290287 0.017312193 0.72140008
-0.028057145 0.018424127 0.72244453
-0.074742861 0.021257143 0.72000003
-0.028133811 0.021958575 0.72050005
-0.08056286 0.033740003 0.72300005
-0.078857146 0.034971431 0.72000003
-0.046261907 -0.026238097 0.72500002
-0.043730162 -0.026468258 0.72500002
-0.045796573 -0.022278478 0.72640002
-0.042589258 -0.021937689 0.7262857
-0.038634561 -0.021440275 0.72628576
-0.046261907 -0.018642858 0.72500002
-0.042900871 -0.017300241 0.72658336
-0.037891716 -0.017211145 0.7287001
-0.042432532 -0.012298316 0.72676927
-0.038861908 -0.013185082 0.72866672
-0.042751521 -0.0076190485 0.72727275
-0.046261907 -0.0020714288 0.72500008
-0.042946551 -0.0027707147 0.72737503
-0.046277858 0.002762143 0.72525007
-0.042976547 0.0027726192 0.72787505
-0.038648576 0.0039342861 0.72900003
-0.046325717 0.0062228576 0.72600001
-0.042476382 0.0074697151 0.72639996
-0.03762364 0.007750391 0.72790909
-0.033325717 0.0090257153 0.72900003
-0.0769962 0.013872381 0.72833341
-0.072650969 0.013837302 0.72650003
-0.069440961 0.013472858 0.72550005
-0.040738098 0.010357143 0.72500002
-0.037398778 0.010953063 0.72528577
-0.032416195 0.012270565 0.72700006
-0.028573338 0.012898288 0.72820014
-0.085737146 0.017977145 0.72600001
-0.080971442 0.017299049 0.72666669
-0.077648833 0.017162601 0.72618181
-0.073420644 0.016341271 0.72500008
-0.027204765 0.016157145 0.72500002
-0.085045718 0.020051429 0.72600001
-0.079404764 0.020023812 0.72500002
-0.037968576 -0.012190953 0.73150003
-0.039047785 -0.0076696831 0.73216671
-0.03858953 -0.0025078095 0.73139995
-0.037558913 0.0020930616 0.7322858
-0.08028096 0.0083780959 0.73300004
-0.078186676 0.0083780959 0.73300004
-0.073400006 0.0090876194 0.73400003
-0.035505716 0.0062657148 0.73100001
-0.032720953 0.0076580956 0.73100001
-0.029289287 0.008367857 0.73225003
-0.080618866 0.013506095 0.73100001
-0.077364609 0.011150954 0.7318334
-0.073846668 0.011146192 0.73150003
-0.027847622 0.010442858 0.73100001
-0.036338478 -0.011644381 0.7366001
-0.03448667 -0.010557144 0.73900002
-0.036514606 -0.0077238102 0.73733342
-0.03448667 -0.0091495244 0.73900002
-0.036280639 -0.0032774606 0.73733342
-0.033782862 -0.00070380955 0.73900002
-0.035748579 0.0021028575 0.73600006
-0.032289468 0.0028067257 0.73706263
-0.027399367 0.0028085716 0.73766679
-0.022585241 0.0031101361 0.73778588
-0.018951429 0.0021057145 0.73700005
-0.075702861 0.0084114289 0.73600006
-0.03154286 0.0063085719 0.73600006
-0.027122069 0.0072474605 0.73650014
-0.024087621 0.0067815883 0.73666668
-0.02593524 0.010514286 0.73600006
-0.03249893 -0.0070655961 0.74187505
-0.027880192 -0.0069346665 0.74300003
-0.021936193 -0.0063685719 0.74300003
-0.019105716 -0.0063685719 0.74300003
-0.032266401 -0.0031268029 0.74114287
-0.027547939 -0.0028263493 0.74166667
-0.022605717 -0.0028270236 0.74174994
-0.018145928 -0.0025922756 0.74233341
-0.021847621 0.00070476194 0.74000001
-0.019080002 0.00070666673 0.74200004
-0.026252383 -0.0078047626 0.74500006
-0.024833335 -0.0070952387 0.74500006
