# .PCD v0.7 - Point Cloud Data file format
VERSION 0.7
FIELDS x y z
SIZE 4 4 4
TYPE F F F
COUNT 1 1 1
WIDTH 628
HEIGHT 1
VIEWPOINT 0 0 0 1 0 0 0
POINTS 628
DATA ascii
-0.049362224 -0.035997782 0.67900008
-0.052877441 -0.032781024 0.67900002
-0.047844172 -0.032327142 0.67887497
-0.042636968 -0.032301366 0.6783126
-0.037530925 -0.031864688 0.6785385
-0.03296762 -0.031352144 0.67874998
-0.021340003 -0.031169334 0.67900002
-0.017456034 -0.031032225 0.67883337
-0.014851429 -0.032285716 0.67800003
-0.047844883 -0.027155239 0.67887497
-0.042617142 -0.027120003 0.67800015
-0.037451431 -0.027120002 0.67800015
-0.032469802 -0.026843268 0.67800015
-0.020046668 -0.029100003 0.67900002
-0.017447621 -0.02875524 0.67850006
-0.047429532 -0.0226271 0.67881817
-0.042648576 -0.021969521 0.67850012
-0.03748304 -0.021971967 0.67856252
-0.032285836 -0.021954764 0.67800015
-0.027772542 -0.020883653 0.67816675
-0.036536671 -0.018430002 0.67900002
-0.032706954 -0.017581049 0.67869997
-0.028453335 -0.018753335 0.67900002
-0.031686667 -0.014873334 0.67900002
-0.072308585 -0.035828575 0.68400002
-0.067357719 -0.036089148 0.68400002
-0.062379718 -0.036855146 0.68370003
-0.057208177 -0.037056275 0.68258345
-0.052534293 -0.036320955 0.68099999
-0.047084086 -0.037242185 0.68257147
-0.04285429 -0.037571367 0.68246669
-0.037668485 -0.037078358 0.68300009
-0.032766353 -0.036673654 0.6835556
-0.027344381 -0.036849719 0.68360007
-0.022723494 -0.036356196 0.68166673
-0.071820006 -0.033059999 0.68400002
-0.067699656 -0.032547623 0.68349999
-0.062435243 -0.0325175 0.68287498
-0.057563595 -0.032300446 0.68146163
-0.053104766 -0.030438097 0.68000001
-0.037346035 -0.034323812 0.68000001
-0.031767622 -0.033390239 0.68075001
-0.027248038 -0.032438394 0.68118757
-0.022340175 -0.032952122 0.6808182
-0.017501589 -0.033060953 0.68066669
-0.071005717 -0.029314287 0.68400002
-0.067748576 -0.029314287 0.68400002
-0.06229027 -0.028431641 0.68366671
-0.057057016 -0.027597418 0.68300015
-0.052618027 -0.027281512 0.68208337
-0.031152859 -0.029207144 0.68150002
-0.027308159 -0.027307084 0.68268752
-0.022177842 -0.027103685 0.68086678
-0.017670751 -0.026182314 0.68000001
-0.055697147 -0.023125716 0.68400002
-0.052235976 -0.022086082 0.68361545
-0.048139684 -0.020507937 0.68000001
-0.026920954 -0.022760192 0.68279999
-0.022094559 -0.022370068 0.68228585
-0.018349208 -0.023530161 0.68000001
-0.046685718 -0.018457144 0.68400002
-0.042870324 -0.017535241 0.68200004
-0.038089767 -0.017017858 0.68075001
-0.04147429 -0.014548573 0.68400002
-0.037523337 -0.013279662 0.68264288
-0.032953653 -0.012963811 0.68066669
-0.033862144 -0.0091164289 0.68375003
-0.080711432 -0.040027622 0.68900001
-0.076511815 -0.040552571 0.68900007
-0.072548576 -0.041737463 0.68833345
-0.068900004 -0.040027622 0.68900001
-0.062279053 -0.041300002 0.68833339
-0.0574264 -0.040751837 0.68857157
-0.052495241 -0.040027622 0.68900001
-0.047245719 -0.040683813 0.68900001
-0.041996196 -0.041340001 0.68900001
-0.037402861 -0.041340001 0.68900001
-0.032940764 -0.041077524 0.68900007
-0.027560001 -0.041011907 0.68900001
-0.024279049 -0.040027622 0.68900001
-0.087109298 -0.037566908 0.68900007
-0.082620159 -0.037376672 0.68850011
-0.077300481 -0.037340481 0.68783349
-0.072290197 -0.038694765 0.68629998
-0.067884982 -0.03840794 0.68611115
-0.062968582 -0.039437145 0.68633342
-0.059453338 -0.039853334 0.68600005
-0.052286431 -0.038560715 0.68625009
-0.047040004 -0.039853334 0.68600005
-0.043773334 -0.039853334 0.68600005
-0.03803448 -0.039342288 0.68620008
-0.032246351 -0.039219372 0.68633336
-0.027856573 -0.039365526 0.68660009
-0.024173334 -0.03854667 0.68600005
-0.085960954 -0.034778096 0.68900001
-0.082417525 -0.03372819 0.68900007
-0.077305846 -0.032755598 0.68787515
-0.073500007 -0.031686667 0.68600005
-0.077086136 -0.028941637 0.68842864
-0.072297618 -0.027969288 0.68699998
-0.067653149 -0.026955051 0.6870001
-0.063066266 -0.026067076 0.68671435
-0.058800004 -0.025480002 0.68600005
-0.066275239 -0.024279049 0.68900001
-0.062464245 -0.023250479 0.6887778
-0.05809493 -0.021906985 0.68666673
-0.05422667 -0.020253334 0.68600005
-0.057403177 -0.017603178 0.68883342
-0.052401546 -0.017028574 0.6877501
-0.047721338 -0.016342288 0.68639994
-0.043773334 -0.015026668 0.68600005
-0.051464092 -0.012655104 0.68900007
-0.047189683 -0.012451588 0.6881668
-0.042677145 -0.012262383 0.68675005
-0.0392 -0.011106667 0.68600005
-0.051182859 -0.0098428577 0.68900001
-0.046589524 -0.0090554301 0.68900007
-0.041996192 -0.0082023814 0.68900007
-0.037658732 -0.0081846043 0.68766677
-0.033998571 -0.0071919053 0.68650007
-0.0958381 -0.045605719 0.69400001
-0.092612199 -0.045843814 0.69360006
-0.077908814 -0.045556433 0.69325006
-0.072509147 -0.045830671 0.69340003
-0.060146671 -0.045605719 0.69400001
-0.057238486 -0.046134483 0.69400001
-0.052847266 -0.046242028 0.69362497
-0.046266671 -0.045605719 0.69400001
-0.042219408 -0.046174649 0.69262505
-0.037502073 -0.046055403 0.69083333
-0.032950714 -0.046134051 0.69199997
-0.096951276 -0.042210482 0.6925
-0.092075303 -0.042092081 0.69056255
-0.087221511 -0.04234409 0.69157147
-0.082841545 -0.042107768 0.6916154
-0.077981994 -0.042725723 0.69018191
-0.071932867 -0.04364334 0.69083345
-0.067309357 -0.042737585 0.69227278
-0.062348712 -0.043673065 0.69328582
-0.057583276 -0.043304905 0.69042861
-0.05264008 -0.042771991 0.69091672
-0.047643468 -0.042971261 0.69218177
-0.042149529 -0.043466195 0.69150001
-0.037457146 -0.043371435 0.69000006
-0.032857142 -0.043371435 0.69000006
-0.027389208 -0.043166358 0.69022226
-0.024331907 -0.042088099 0.69050002
-0.097111344 -0.037338387 0.69270003
-0.092045248 -0.037475079 0.69033337
-0.088714294 -0.03614286 0.69000006
-0.096429534 -0.034344286 0.69349998
-0.092367738 -0.032985475 0.6927501
-0.087670401 -0.032731865 0.69118184
-0.083238102 -0.031323813 0.69000006
-0.093194291 -0.029742859 0.69400001
-0.086676411 -0.028255241 0.69355565
-0.082510911 -0.027804689 0.69138461
-0.077812277 -0.026521483 0.69044447
-0.072701529 -0.025898859 0.69020003
-0.0819581 -0.02445524 0.69400001
-0.077711172 -0.023221647 0.69309098
-0.072470725 -0.02239738 0.69175005
-0.067258656 -0.022074424 0.69042861
-0.062757149 -0.0207 0.69000006
-0.071580328 -0.017398944 0.69377786
-0.067357503 -0.017168453 0.69337499
-0.062519692 -0.017109685 0.6910001
-0.058814287 -0.015442858 0.69000006
-0.067020573 -0.01361562 0.69400001
-0.062270481 -0.012541588 0.69311112
-0.057671949 -0.012609611 0.69027281
-0.054017145 -0.012222859 0.69000006
-0.061336387 -0.008328001 0.69400007
-0.057323024 -0.0079052392 0.69183338
-0.052836057 -0.0076134698 0.69100004
-0.047644943 -0.0073519489 0.6904546
-0.04271429 -0.0059142867 0.69000006
-0.03614286 -0.0059142862 0.69000006
-0.033185713 -0.0062428573 0.69000006
-0.060587309 -0.0041860323 0.69400001
-0.057286076 -0.0034663097 0.69337499
-0.052660212 -0.0029248302 0.69364291
-0.047520954 -0.0026383335 0.69300008
-0.042126436 -0.0026308333 0.69112504
-0.037457142 -0.0026285718 0.69000006
-0.033148918 -0.0024412924 0.69021434
-0.051333975 0.0011015874 0.69400001
-0.047074504 0.0019828572 0.69400007
-0.042282082 0.0026433934 0.69368762
-0.037306767 0.0021115241 0.69210005
-0.033579048 0.001317143 0.69133341
-0.046927627 0.042300954 0.69400001
-0.043094095 0.04269753 0.69400007
-0.045605719 0.046927623 0.69400001
-0.043937385 0.047241192 0.69375002
-0.064481907 -0.05118667 0.69800001
-0.096869215 -0.047109213 0.69666672
-0.092401594 -0.047749847 0.69633335
-0.087528102 -0.046417862 0.69625008
-0.082283571 -0.046782866 0.69675004
-0.077591762 -0.047749843 0.69633341
-0.073046863 -0.047594287 0.69600004
-0.067668349 -0.047104046 0.69658345
-0.062687263 -0.047590256 0.69623083
-0.057613976 -0.048562862 0.69533342
-0.054276194 -0.048319049 0.69500005
-0.048980951 -0.046333335 0.69500005
-0.1022162 -0.04204395 0.69757146
-0.099947624 -0.041700006 0.69500005
-0.066852383 -0.044347622 0.69500005
-0.10175937 -0.03711725 0.69733334
-0.099947624 -0.03839048 0.69500005
-0.10071144 -0.032905716 0.69800001
-0.097690754 -0.032120414 0.69642866
-0.10104382 -0.029914288 0.69800001
-0.097065598 -0.028372027 0.69687504
-0.09267576 -0.027682479 0.6954
-0.088517472 -0.02670921 0.69533342
-0.095060959 -0.023931429 0.69800001
-0.092136197 -0.023698097 0.69766665
-0.087577149 -0.022555716 0.69662499
-0.0825454 -0.021988574 0.69616675
-0.07744287 -0.020519052 0.69500005
-0.087083817 -0.016452858 0.69800001
-0.082408637 -0.017278872 0.69781244
-0.077602148 -0.017244525 0.69641674
-0.074227899 -0.016925853 0.69500011
-0.080768578 -0.012962857 0.69800001
-0.077654824 -0.012609948 0.69688892
-0.072809517 -0.012576191 0.69500011
-0.067797966 -0.01181973 0.69500011
-0.064204767 -0.011252382 0.69500005
-0.07611566 -0.0084894188 0.69766665
-0.072347224 -0.007963255 0.69691676
-0.0676606 -0.0079588089 0.69650006
-0.063542865 -0.0072809523 0.69500011
-0.075118102 -0.0046533337 0.69800001
-0.072407156 -0.0039852383 0.69749999
-0.067472458 -0.0028460545 0.69750011
-0.06265942 -0.002292674 0.69592309
-0.057916671 -0.00099285715 0.69500005
-0.054276194 -0.00066190481 0.69500005
-0.065811433 0.00066476193 0.69800001
-0.06218667 0.0017276191 0.69760001
-0.057253249 0.002354892 0.69681823
-0.053040266 0.0028305629 0.69536376
-0.048319053 0.0034986394 0.69500011
-0.037066668 0.0046333335 0.69500005
-0.032480001 0.0039780955 0.6960001
-0.055175241 0.0086419052 0.69800001
-0.052321468 0.0077853687 0.69700003
-0.047700122 0.0079515483 0.69562507
-0.042406671 0.007952976 0.69575
-0.037551362 0.0077158986 0.69738466
-0.033459686 0.0064260322 0.69800007
-0.046865717 0.011633333 0.69800001
-0.042534448 0.01174143 0.6978333
-0.03815734 0.012098667 0.69800001
-0.039220955 0.016619049 0.69800001
-0.055618417 0.038777784 0.69800007
-0.05209988 0.037828691 0.69687504
-0.048088573 0.037368711 0.6971429
-0.043502737 0.037690122 0.697375
-0.061822861 0.041215241 0.69800001
-0.057113051 0.04263458 0.69730002
-0.052830294 0.042238038 0.69513339
-0.048054289 0.042361911 0.69500011
-0.042361908 0.040376194 0.69500005
-0.055760004 0.045802861 0.69700003
-0.052036032 0.046721753 0.69749999
-0.04786979 0.047026847 0.69545466
-0.085029528 -0.055570479 0.70300001
-0.083080485 -0.055610001 0.70350003
-0.096097469 -0.050613023 0.70233339
-0.092053235 -0.051043499 0.70211112
-0.086887062 -0.05215501 0.70358342
-0.082646996 -0.051865719 0.7026667
-0.077862933 -0.051942248 0.70307153
-0.072488211 -0.051983744 0.70323086
-0.067593619 -0.051005587 0.70071441
-0.10794667 -0.047220688 0.70400012
-0.10238954 -0.046845719 0.7026667
-0.099265411 -0.048406988 0.7026667
-0.088000007 -0.048666671 0.70000005
-0.083333336 -0.048666671 0.70000005
-0.075333342 -0.048666671 0.70000005
-0.071333341 -0.048666671 0.70000005
-0.10677334 -0.043245718 0.70400006
-0.10337025 -0.043349288 0.70025003
-0.10711183 -0.036597908 0.70380008
-0.10442992 -0.036943432 0.70020002
-0.1061089 -0.032167621 0.70366669
-0.10342608 -0.032028217 0.70062506
-0.098140009 -0.026037145 0.70100003
-0.096733473 -0.022631701 0.70185727
-0.092977785 -0.021575874 0.70066667
-0.095787309 -0.018085081 0.70333338
-0.09285596 -0.017367385 0.70141673
-0.088666663 -0.018166667 0.70000005
-0.09144751 -0.012014644 0.70087504
-0.087723345 -0.012191498 0.70007145
-0.083222225 -0.011666667 0.69999999
-0.079333335 -0.010000001 0.70000005
-0.09038572 -0.0087038102 0.70300001
-0.087289669 -0.007742994 0.70271432
-0.082613684 -0.0074651092 0.70109099
-0.078463338 -0.0068903184 0.7001667
-0.082131051 -0.0029466669 0.70340008
-0.077548891 -0.0025353022 0.70073348
-0.072000004 -0.0013333334 0.70000005
-0.077579267 0.0015629631 0.70288897
-0.071897544 0.0021200799 0.70225
-0.067560181 0.0028548918 0.70109093
-0.063126512 0.0042233337 0.7001667
-0.058000006 0.004666667 0.70000005
-0.030000001 0.004666667 0.70000005
-0.070400007 0.0060342862 0.70400006
-0.0676127 0.0073640216 0.70288891
-0.062756196 0.0073438101 0.70100015
-0.057545118 0.0072161043 0.70036364
-0.036000002 0.0086666672 0.70000005
-0.032419052 0.0076049529 0.70040005
-0.030000001 0.0066666668 0.70000005
-0.067213163 0.011760866 0.70381826
-0.062617213 0.011855717 0.70264304
-0.057441846 0.012023871 0.7013126
-0.052165721 0.01246447 0.70015383
-0.047600005 0.013466668 0.70000005
-0.042666674 0.013555557 0.70000005
-0.036538098 0.012680952 0.70075011
-0.033635877 0.011584762 0.70166671
-0.061013337 0.015420954 0.70400006
-0.057169445 0.0167426 0.70318192
-0.052088752 0.017363634 0.70118761
-0.047395483 0.017356273 0.70091677
-0.042686377 0.017341491 0.7003125
-0.037062045 0.017435648 0.70028573
-0.03347633 0.017644219 0.70100009
-0.055649526 0.020784764 0.70400006
-0.052159641 0.022735355 0.70212507
-0.047400951 0.022699047 0.70100015
-0.042690124 0.022678813 0.70037502
-0.037529022 0.022572191 0.70120007
-0.033476193 0.020755239 0.70300001
-0.055649526 0.028830478 0.70400006
-0.052174609 0.027425079 0.70233339
-0.04739365 0.027368044 0.70088899
-0.042706832 0.02735937 0.70066679
-0.037797336 0.027380193 0.70120013
-0.034194287 0.028830478 0.70400006
-0.081617914 0.033102479 0.70360005
-0.077989057 0.033097237 0.70350003
-0.072342865 0.033714924 0.70333338
-0.067850865 0.033589907 0.70260006
-0.062553026 0.033097357 0.70288891
-0.057335861 0.03239245 0.70235723
-0.052089226 0.032052923 0.70118755
-0.047378577 0.032029681 0.70066679
-0.042677805 0.032008152 0.7001875
-0.038586941 0.031345583 0.70028579
-0.082325719 0.037354115 0.70381826
-0.077576965 0.037449822 0.7021876
-0.072058164 0.03736268 0.70056254
-0.067381442 0.037359055 0.70050001
-0.062705897 0.037355781 0.70043761
-0.057711434 0.036986012 0.70023084
-0.053333335 0.036000002 0.70000005
-0.046000004 0.036000002 0.70000005
-0.042000003 0.036222223 0.70000005
-0.038666669 0.035333335 0.70000005
-0.081127621 0.040899049 0.70400006
-0.077597886 0.042377658 0.70284629
-0.072129525 0.04274429 0.70125014
-0.067397468 0.042708736 0.70066679
-0.062768511 0.042861708 0.70007145
-0.059333336 0.042888891 0.70000005
-0.066761278 0.0466654 0.70333338
-0.062787466 0.047424447 0.7013334
-0.057632953 0.04762762 0.70039999
-0.053581279 0.0482454 0.70033336
-0.046554606 0.050565403 0.70166671
-0.091314286 -0.055728573 0.70500004
-0.087368265 -0.056453973 0.70566672
-0.11648668 -0.050500002 0.70700002
-0.11203144 -0.050800003 0.70649999
-0.10730445 -0.051301271 0.70566666
-0.10267218 -0.051524449 0.70666677
-0.098700009 -0.050357144 0.70500004
-0.092701279 -0.053740006 0.70533335
-0.088852391 -0.053490482 0.7050001
-0.081242859 -0.054385718 0.70500004
-0.077214293 -0.054385718 0.70500004
-0.07318572 -0.054385718 0.70500004
-0.11680444 -0.047365297 0.70711118
-0.11262429 -0.047401439 0.70599997
-0.10648858 -0.048208576 0.70500004
-0.10272858 -0.049014293 0.7050001
-0.11642489 -0.043069169 0.70662498
-0.11258338 -0.042913251 0.70709091
-0.1088232 -0.0429908 0.70533335
-0.11152687 -0.037625145 0.708
-0.10887511 -0.038340412 0.70628577
-0.14092574 -0.031691432 0.70800006
-0.13789144 -0.03135429 0.708
-0.11125715 -0.034388572 0.708
-0.10864534 -0.032713529 0.70679998
-0.10773334 -0.028953334 0.70700002
-0.10369334 -0.028953334 0.70700002
-0.10018477 -0.024204765 0.70600003
-0.09879335 -0.022176828 0.70566672
-0.10046858 -0.019554287 0.708
-0.097720325 -0.017930478 0.70600003
-0.094671436 -0.013428573 0.70500004
-0.090771437 -0.0067228577 0.70600003
-0.088041596 -0.0060485722 0.70566672
-0.091028579 -0.0047200001 0.708
-0.087465659 -0.0026902978 0.70643747
-0.083928578 -0.0013428573 0.70500004
-0.086416431 0.0021902383 0.70749998
-0.082532607 0.0028480589 0.70630765
-0.077734292 0.004033016 0.70566666
-0.073521435 0.0043642861 0.70500004
-0.081363097 0.0072435718 0.70749998
-0.077445723 0.0074080429 0.70711106
-0.072754033 0.0075145466 0.70554543
-0.085634291 0.011462858 0.708
-0.082089856 0.012266096 0.70766675
-0.077442631 0.012121192 0.70708323
-0.072694525 0.012116428 0.70674992
-0.067814291 0.014100002 0.7050001
-0.032483496 0.013218096 0.70566672
-0.081296004 0.017256765 0.70780003
-0.077415407 0.017503018 0.7068333
-0.072739109 0.017511727 0.70718747
-0.067345366 0.017511789 0.70712495
-0.062702343 0.01768052 0.70654541
-0.058716763 0.018945334 0.70540005
-0.080817968 0.022636736 0.70800006
-0.077497549 0.022912938 0.70758337
-0.072790429 0.02291625 0.70768762
-0.067428581 0.022925716 0.70800012
-0.062686756 0.022917859 0.70775002
-0.0579555 0.022993462 0.70593327
-0.035585716 0.024842858 0.70500004
-0.032933574 0.023862144 0.70574999
-0.028953334 0.024913335 0.70700002
-0.095074289 0.027645716 0.708
-0.093132958 0.028708193 0.7076
-0.087657154 0.028994288 0.708
-0.081572384 0.028217828 0.70785719
-0.077493973 0.027627939 0.70755559
-0.072771758 0.027625559 0.7075001
-0.067365244 0.027619209 0.70733327
-0.062581062 0.027588466 0.70655549
-0.057956453 0.027420005 0.70536363
-0.035585716 0.026185716 0.70500004
-0.032541364 0.026782451 0.70557147
-0.09753672 0.032511435 0.70718175
-0.092886664 0.032307856 0.70674986
-0.087517984 0.03231417 0.70687485
-0.082869768 0.031432144 0.70599997
-0.07707715 0.030802859 0.70620006
-0.072617345 0.031331811 0.70600003
-0.06693124 0.031314284 0.70559996
-0.062442861 0.030550001 0.70500004
-0.059085719 0.030214287 0.70500004
-0.096960485 0.036359526 0.70699996
-0.092680447 0.037530102 0.70619994
-0.08730156 0.037607029 0.70512497
-0.083928578 0.03961429 0.70500004
-0.090900004 0.041746669 0.70700002
-0.087327532 0.042287707 0.70681816
-0.082813099 0.042498339 0.70550001
-0.077214286 0.044985719 0.70500004
-0.081550799 0.045155879 0.70766664
-0.076571435 0.046931431 0.70733333
-0.10176667 -0.05341905 0.71000004
-0.098047629 -0.05341905 0.71000004
-0.14662078 -0.046609338 0.71340007
-0.14264977 -0.046871193 0.7132501
-0.13782144 -0.04639405 0.71375006
-0.15097493 -0.040969208 0.71300006
-0.14730784 -0.042767096 0.71277791
-0.14236525 -0.042710643 0.71183342
-0.13736686 -0.042256638 0.71333343
-0.11562858 -0.041247621 0.71000004
-0.15074858 -0.037347626 0.71300006
-0.14694002 -0.037920006 0.71100008
-0.14226846 -0.038038351 0.71066672
-0.13788383 -0.037150096 0.71180004
-0.11616077 -0.037542857 0.71160001
-0.1136966 -0.037963267 0.7100001
-0.15074858 -0.034631431 0.71300006
-0.14739946 -0.032349523 0.71060014
-0.14312699 -0.032682545 0.71000004
-0.13809022 -0.033308923 0.71109098
-0.11622572 -0.032397147 0.71366668
-0.11261233 -0.032215722 0.71107155
-0.15042572 -0.027584573 0.71340007
-0.14707875 -0.027110158 0.7116667
-0.14230764 -0.026943937 0.71086675
-0.13867661 -0.027771022 0.71128577
-0.11243553 -0.028107909 0.7129001
-0.10857287 -0.027821429 0.71250004
-0.15006953 -0.023766669 0.71300006
-0.14740013 -0.02241471 0.71322232
-0.14243318 -0.022381112 0.71216673
-0.14620002 -0.019720001 0.71400005
-0.14275073 -0.019033335 0.71375012
-0.13940001 -0.019720001 0.71400005
-0.09574572 -0.0013580953 0.71300006
-0.092560753 -0.0021802119 0.71055561
-0.096327767 0.003007211 0.71300006
-0.092560239 0.0028648356 0.71100008
-0.088967353 0.0029945583 0.7100001
-0.096315823 0.0072003813 0.71320003
-0.092308745 0.0074669844 0.71266675
-0.08731091 0.0074455026 0.71066666
-0.084215477 0.0077792867 0.71025002
-0.09574572 0.013580954 0.71300006
-0.091336869 0.012486192 0.71250004
-0.087474562 0.012250131 0.71100003
-0.084523812 0.010142858 0.71000004
-0.09698192 0.018340001 0.71322232
-0.092375897 0.017660301 0.71318763
-0.087413818 0.017618574 0.71150005
-0.084132545 0.018044606 0.7105
-0.10631143 0.023700001 0.71100003
-0.10344782 0.023184953 0.71180004
-0.097874135 0.022429844 0.7136668
-0.092243664 0.022381432 0.71216679
-0.087434612 0.022366667 0.71166676
-0.083965719 0.022345718 0.71100008
-0.031243019 0.022412542 0.71316671
-0.027480548 0.022624765 0.71371442
-0.10317691 0.025115954 0.71275002
-0.097947158 0.026931498 0.71207166
-0.092244871 0.026086565 0.71044445
-0.087787367 0.026514113 0.71054548
-0.083370008 0.026211193 0.71025002
-0.099400006 0.030428573 0.71000004
-0.096729293 0.039233096 0.71025002
-0.092915833 0.043067742 0.71212506
-0.14585429 -0.052041911 0.71900004
-0.14315145 -0.051819243 0.71780008
-0.13793716 -0.051214289 0.71700001
-0.13247429 -0.051897146 0.71700001
-0.14613144 -0.049848575 0.71700001
-0.14258508 -0.049802225 0.71633339
-0.13725702 -0.048935123 0.71612501
-0.13427524 -0.048857145 0.71750003
-0.13569906 -0.040232383 0.71600002
-0.13452287 -0.041654289 0.71700001
-0.12120286 -0.036292382 0.71900004
-0.1372543 -0.032094289 0.71700001
-0.12165937 -0.032412067 0.71900004
-0.11853483 -0.032838095 0.7166667
-0.13763715 -0.029444763 0.71900004
-0.12188764 -0.028075239 0.71900004
-0.11805254 -0.028659843 0.71650004
-0.11024667 -0.025336193 0.71900004
-0.10897906 -0.026163813 0.7166667
-0.15201542 -0.022301432 0.71683335
-0.13985556 -0.022513336 0.71633339
-0.10887715 -0.022597145 0.71900004
-0.15091144 -0.019802859 0.71700001
-0.1477702 -0.017375167 0.71653855
-0.14279087 -0.016502097 0.71600002
-0.025312703 -0.0020511113 0.71833342
-0.030757144 0.0020517462 0.71766675
-0.027896192 0.0017488891 0.71833336
-0.096215725 0.010918573 0.71650004
-0.09435223 0.011822382 0.71616668
-0.031499051 0.014380001 0.71900004
-0.029444763 0.014380001 0.71900004
-0.031499051 0.018488571 0.71900004
-0.027352383 0.017779047 0.71799999
-0.10160381 0.023184763 0.71600002
-0.027969843 0.021603495 0.71633339
-0.10181953 0.038950004 0.71750003
-0.13271049 -0.050196193 0.72200006
-0.13417858 -0.047479525 0.72250009
-0.13508572 -0.041828573 0.72000003
-0.13414763 -0.042421907 0.72233343
-0.13527334 -0.037078097 0.72100008
-0.1335216 -0.036478098 0.72266674
-0.12748124 -0.03587633 0.72242868
-0.12347072 -0.036456428 0.7222501
-0.13622668 -0.032071572 0.72085726
-0.13258837 -0.032288682 0.72133338
-0.1276319 -0.032251909 0.72050011
-0.12356573 -0.033051431 0.72000003
-0.13677923 -0.027330738 0.72236377
-0.13258819 -0.027526116 0.72258347
-0.12768279 -0.027751224 0.72078592
-0.12390896 -0.027031241 0.72040004
-0.13804477 -0.02316159 0.72233343
-0.13427144 -0.024100002 0.72300005
-0.12274286 -0.024000002 0.72000003
-0.11040001 -0.022628574 0.72000003
-0.027200002 -0.0011428571 0.72000003
-0.026983177 0.0041165082 0.72033346
-0.024100002 0.0048200004 0.72300005
-0.031630479 0.0089390483 0.72200006
-0.028218415 0.0075701592 0.72266674
-0.031492956 0.011414477 0.72200006
-0.027661176 0.012427034 0.72192311
-0.032228574 0.01577143 0.72000003
-0.13293558 -0.047080323 0.727
-0.13311349 -0.042656057 0.72742862
-0.13208222 -0.038036089 0.72611111
-0.12941588 -0.038066037 0.72666669
-0.14016667 -0.026238097 0.72500002
-0.13326192 -0.02554762 0.72500002
-0.14016667 -0.024166668 0.72500002
-0.13714696 -0.02119343 0.72730005
-0.13330621 -0.023062065 0.72649997
-0.025565241 0.0069100005 0.72549999
-0.023814922 0.0071679368 0.72833341
-0.02554762 0.011738096 0.72500002
-0.13018763 -0.050821908 0.73100001
-0.13112894 -0.047429644 0.73237503
-0.12862477 -0.049632385 0.73400003
-0.13136643 -0.042163096 0.73175007
-0.13230506 -0.021602994 0.73171437
-0.12833241 -0.046984445 0.73633337
-0.13107811 -0.04345905 0.73600006
-0.12925564 -0.043085717 0.73680001
