# .PCD v0.7 - Point Cloud Data file format
VERSION 0.7
FIELDS x y z
SIZE 4 4 4
TYPE F F F
COUNT 1 1 1
WIDTH 601
HEIGHT 1
VIEWPOINT 0 0 0 1 0 0 0
POINTS 601
DATA ascii
-0.10088097 -0.016778097 0.66900009
-0.09748286 -0.018013766 0.66900015
-0.094934292 -0.017840002 0.66900003
-0.10194287 -0.014654287 0.66900003
-0.09748286 -0.014654287 0.66900003
-0.094934292 -0.014654287 0.66900003
-0.11746858 -0.025034288 0.67400002
-0.10591429 -0.025034288 0.67400002
-0.10231962 -0.02529105 0.67400002
-0.097569533 -0.026318097 0.67400002
-0.092434302 -0.025890162 0.67400002
-0.087227739 -0.026888682 0.67400002
-0.082133576 -0.026950242 0.67375004
-0.076789416 -0.02673736 0.67377782
-0.072482377 -0.027421432 0.67349994
-0.068792857 -0.027100956 0.67349994
-0.11738668 -0.022683432 0.6728
-0.11317573 -0.022303334 0.67289996
-0.10749144 -0.022314636 0.67290908
-0.10236215 -0.022392144 0.67175001
-0.097171552 -0.023015717 0.67124999
-0.092223309 -0.022872532 0.67138463
-0.087311834 -0.022925718 0.67128581
-0.082467146 -0.023015719 0.67124999
-0.077314734 -0.022784429 0.67223531
-0.072406091 -0.023451049 0.6728
-0.068749666 -0.02370912 0.67285717
-0.1168 -0.019520001 0.67200005
-0.11231811 -0.018094562 0.67171425
-0.10740037 -0.017899407 0.67124999
-0.10273333 -0.018504763 0.67000002
-0.097628579 -0.015952382 0.67000002
-0.092217289 -0.017878097 0.67042857
-0.087848373 -0.017879937 0.6705001
-0.082727052 -0.017751696 0.67105561
-0.077524289 -0.018259408 0.67275
-0.11179513 -0.013038307 0.67333329
-0.10778701 -0.012943177 0.67286658
-0.10211729 -0.01249075 0.67014289
-0.097072758 -0.012323884 0.67023087
-0.092004888 -0.012777503 0.67087495
-0.087038696 -0.01279893 0.67199999
-0.082162164 -0.012944128 0.67293334
-0.077932864 -0.013309048 0.67349994
-0.10152429 -0.008472858 0.67149997
-0.097197957 -0.0081270337 0.67246151
-0.092398696 -0.0081387553 0.67338455
-0.087726995 -0.0092006363 0.67400002
-0.078954294 0.007060953 0.67400002
-0.086657152 0.013480001 0.67400002
-0.112395 -0.030359764 0.67825007
-0.10726811 -0.030802064 0.67850006
-0.10183185 -0.030928437 0.67857146
-0.097215518 -0.031113198 0.67857146
-0.092837982 -0.031162262 0.67812502
-0.087507628 -0.031364761 0.67760003
-0.082590804 -0.031618573 0.67750001
-0.077399291 -0.031606749 0.67725003
-0.072270393 -0.031477835 0.67700005
-0.067220002 -0.031671587 0.67866671
-0.062295564 -0.031255558 0.67899996
-0.057984449 -0.030824449 0.67900008
-0.11600498 -0.026946986 0.67544448
-0.11214013 -0.027167562 0.67593348
-0.1076633 -0.027203375 0.6763078
-0.1029639 -0.027672289 0.67570013
-0.097822145 -0.028317859 0.67575002
-0.09279608 -0.028354645 0.67662501
-0.088104524 -0.028617859 0.67524999
-0.082285725 -0.028928574 0.67500001
-0.077142864 -0.028928574 0.67500001
-0.072642863 -0.028928574 0.67500001
-0.066245601 -0.027574288 0.67677784
-0.06216085 -0.027000621 0.6778236
-0.057624333 -0.026962167 0.67845458
-0.054148212 -0.026670121 0.67887497
-0.1112143 -0.023142859 0.67500001
-0.10992858 -0.023785716 0.67500001
-0.071820326 -0.021224765 0.67533338
-0.067024484 -0.021394575 0.67670006
-0.062309153 -0.022083757 0.67761123
-0.057713345 -0.022993064 0.67871433
-0.05453556 -0.023495559 0.67900008
-0.075214289 -0.016714286 0.67500001
-0.072205059 -0.018049825 0.67693752
-0.067257077 -0.017645791 0.6785385
-0.063484199 -0.017713526 0.67880005
-0.080357149 -0.010928572 0.67500001
-0.076192506 -0.012377262 0.67512506
-0.072649881 -0.013547014 0.67727274
-0.067253336 -0.014873334 0.67900002
-0.064020008 -0.014226668 0.67900002
-0.10092857 -0.0057857148 0.67500001
-0.098405719 -0.0057885721 0.67533338
-0.092357151 -0.0057857148 0.67500007
-0.087299809 -0.006823048 0.67600006
-0.082445771 -0.0077266069 0.67631245
-0.078149319 -0.0082208477 0.67566669
-0.10018414 -0.0032311114 0.67866671
-0.097442947 -0.0025800797 0.67758334
-0.092683762 -0.0025731551 0.6758126
-0.087702148 -0.0025797621 0.67712504
-0.083152041 -0.0026441563 0.67872727
-0.079422861 -0.0045200004 0.67800003
-0.095491111 0.0010777778 0.67900008
-0.092292868 0.0025820637 0.67766666
-0.087526202 0.0025740478 0.67574996
-0.082994483 0.0029617145 0.6766001
-0.092269398 0.0069273477 0.67885715
-0.087593101 0.0077288104 0.67625004
-0.08233887 0.0077200592 0.67543757
-0.078506678 0.0081495252 0.67566675
-0.087286569 0.011795345 0.67555565
-0.082773641 0.012533774 0.67615396
-0.078544766 0.010944762 0.67600006
-0.10618287 -0.035828575 0.68400002
-0.10292572 -0.036480002 0.68400002
-0.096411437 -0.036480002 0.68400002
-0.09278205 -0.036386944 0.68400007
-0.08727584 -0.036473457 0.68387502
-0.08229062 -0.036357012 0.68342865
-0.078822859 -0.035828575 0.68400002
-0.071005717 -0.035828575 0.68400002
-0.067223221 -0.036623217 0.68362504
-0.062656365 -0.036978621 0.68336374
-0.057325721 -0.035828575 0.68400002
-0.051642071 -0.036236674 0.68350005
-0.047862142 -0.036141194 0.68375003
-0.041040003 -0.035828575 0.68400002
-0.037131436 -0.035828575 0.68400002
-0.034525715 -0.035828575 0.68400002
-0.10671286 -0.033552222 0.68183339
-0.10285831 -0.033565398 0.68211114
-0.097446561 -0.033782501 0.68212503
-0.092011586 -0.03389075 0.6824286
-0.087450869 -0.034175809 0.68220007
-0.082410164 -0.034391116 0.68133342
-0.077912621 -0.034412146 0.68175
-0.072680965 -0.034196001 0.68260008
-0.067598581 -0.034450002 0.6825
-0.062050622 -0.033855241 0.68171436
-0.056838028 -0.03278733 0.68115389
-0.051941313 -0.032465123 0.68175006
-0.047478497 -0.032520082 0.68291676
-0.042950895 -0.032539468 0.68331248
-0.037652574 -0.03244115 0.68400007
-0.034525715 -0.032571431 0.68400002
-0.056342863 -0.029142858 0.68000001
-0.051425323 -0.027607862 0.68208337
-0.047484767 -0.027320003 0.68300003
-0.042966373 -0.027342204 0.68356246
-0.038579047 -0.027866665 0.68400002
-0.034525715 -0.028662859 0.68400002
-0.056783952 -0.020656599 0.68085724
-0.051825464 -0.021950919 0.6819334
-0.047501992 -0.022123732 0.68325007
-0.043320008 -0.022691432 0.68400002
-0.039085716 -0.023451431 0.68400002
-0.061306402 -0.017343404 0.68171436
-0.057449613 -0.017689785 0.68336374
-0.05216074 -0.018013865 0.68366671
-0.048205718 -0.018240001 0.68400002
-0.071395241 -0.011681429 0.68150002
-0.067549855 -0.012339527 0.68200004
-0.062309097 -0.013313596 0.68345463
-0.066999055 -0.0097571434 0.68300003
-0.082679376 -0.0032380957 0.68000001
-0.096990384 0.0031016932 0.68144447
-0.0848381 0.00064761908 0.68000001
-0.096106194 0.0071452386 0.68183339
-0.093252577 0.0089748576 0.68279999
-0.092435718 0.011066191 0.68350005
-0.096616194 -0.042092383 0.68700004
-0.092891552 -0.041866791 0.6868751
-0.0875521 -0.042335909 0.68810004
-0.08242096 -0.041320004 0.6886667
-0.079399049 -0.040027622 0.68900001
-0.073493332 -0.040683813 0.68900001
-0.052495241 -0.040355716 0.68900001
-0.046589527 -0.040815052 0.68900007
-0.04248834 -0.040847857 0.68900007
-0.037402861 -0.040027622 0.68900001
-0.10126667 -0.03854667 0.68600005
-0.098309703 -0.038195588 0.68609095
-0.092570908 -0.03898868 0.68611115
-0.087546669 -0.039200004 0.68599999
-0.082410477 -0.038916193 0.68675005
-0.07706815 -0.037434895 0.68736374
-0.072396196 -0.037776452 0.68709105
-0.068243816 -0.03871524 0.68900001
-0.06102572 -0.03871524 0.68900001
-0.057619054 -0.037977621 0.68750006
-0.052448168 -0.038424492 0.68714297
-0.046976767 -0.038210865 0.6870001
-0.042722858 -0.037486907 0.6875
-0.038160425 -0.03772508 0.68688899
-0.03361943 -0.037021335 0.68680006
-0.039853334 -0.03462667 0.68600005
-0.032086127 -0.032087758 0.68757159
-0.036866672 -0.02678667 0.68600005
-0.033534423 -0.027370071 0.68657154
-0.042140003 -0.020580001 0.68600005
-0.037538417 -0.021824606 0.68750012
-0.034042023 -0.022256549 0.68737507
-0.057134099 -0.015296764 0.68640006
-0.052194286 -0.015593199 0.68628579
-0.047023907 -0.016767142 0.68770009
-0.043089848 -0.018154604 0.68900001
-0.039257146 -0.018974287 0.68700004
-0.057439372 -0.013104765 0.68799996
-0.052667625 -0.013188982 0.68757159
-0.048346668 -0.013720001 0.68600005
-0.097632393 0.0098285731 0.68800008
-0.095663816 0.01179524 0.68800002
-0.093472064 0.011983811 0.68633342
-0.068078101 -0.050893337 0.69400001
-0.077965006 -0.045589291 0.69375002
-0.071482748 -0.047051795 0.69337511
-0.067542806 -0.047628265 0.69393355
-0.062129535 -0.047456391 0.69400007
-0.057649747 -0.047221381 0.69400007
-0.052876193 -0.046266671 0.69400001
-0.041640006 -0.045605719 0.69400001
-0.037368257 -0.046766143 0.69377786
-0.032386668 -0.046398863 0.69400001
-0.027099051 -0.046266671 0.69400001
-0.082722865 -0.043474156 0.69014293
-0.077405311 -0.042232115 0.69128573
-0.072042942 -0.042478394 0.69107705
-0.06729465 -0.042226907 0.69275004
-0.062185459 -0.042275649 0.69357151
-0.057565138 -0.042048793 0.69230771
-0.052904069 -0.042960007 0.69200003
-0.047348574 -0.043403339 0.69050002
-0.041639052 -0.043286432 0.69125003
-0.037335072 -0.042731777 0.69218189
-0.032888889 -0.042137403 0.69346672
-0.02886159 -0.043843176 0.69400001
-0.031739593 -0.037579596 0.69228572
-0.029412383 -0.037343815 0.69400001
-0.032200001 -0.034828573 0.69000006
-0.045342859 -0.016428573 0.69000006
-0.042714287 -0.01807143 0.69000006
-0.09759403 0.012894152 0.69171435
-0.092164531 0.013825001 0.69125003
-0.097235486 0.01695881 0.69375008
-0.092300609 0.017143572 0.69224995
-0.087612309 0.017283814 0.69072729
-0.0958381 0.020489525 0.69400001
-0.092136763 0.021018287 0.69400001
-0.087968893 0.022525081 0.69333327
-0.090947628 0.047345083 0.6936667
-0.086944364 0.048805855 0.69385725
-0.082949534 0.04891048 0.69400001
-0.078983814 0.048580002 0.69400001
-0.087360166 0.051712863 0.69316667
-0.081297152 0.050893337 0.69400001
-0.078983814 0.051223814 0.69400001
-0.041880004 -0.05118667 0.69800001
-0.07611905 -0.046995241 0.69500005
-0.065528579 -0.046995241 0.69500005
-0.062880963 -0.046995241 0.69500005
-0.056632385 -0.049016669 0.69550002
-0.053102385 -0.048458099 0.69700003
-0.041778233 -0.048030481 0.69628584
-0.035963498 -0.047436513 0.69500005
-0.033095241 -0.046995241 0.69500005
-0.028461907 -0.046333335 0.69500005
-0.022921313 -0.046674646 0.69762498
-0.062880956 -0.044347622 0.69500005
-0.027545424 -0.042005498 0.69500011
-0.02257137 -0.0424878 0.69706261
-0.018424166 -0.041993931 0.69712502
-0.027254608 -0.036964767 0.69516677
-0.022583393 -0.037196372 0.69743752
-0.01805074 -0.037369352 0.69727278
-0.02799486 -0.033568956 0.69660008
-0.022601906 -0.033902861 0.69800001
-0.019278096 -0.033902861 0.69800001
-0.10156287 0.01526762 0.69700003
-0.099506363 0.017430162 0.69500005
-0.097439252 0.022538479 0.69600004
-0.092968069 0.023198705 0.6959092
-0.089357145 0.021842858 0.69500005
-0.096600771 0.027240384 0.69760001
-0.093332127 0.027249934 0.69785714
-0.089742862 0.027255239 0.69800001
-0.092094295 0.044390164 0.69566673
-0.087581784 0.043932799 0.69742864
-0.082732625 0.044190716 0.69775003
-0.07844191 0.044539049 0.69800001
-0.092335716 0.046002384 0.69500005
-0.087592058 0.046701062 0.69500011
-0.082147628 0.046902288 0.69560009
-0.076813273 0.047454 0.69576925
-0.072537489 0.048216626 0.69527292
-0.068453655 0.04811715 0.69633341
-0.064389527 0.048458099 0.69700003
-0.08610905 0.052990958 0.69550002
-0.082669109 0.052636094 0.69566673
-0.077510871 0.052336764 0.69560003
-0.07385429 0.051334288 0.69550002
-0.084303819 0.055096194 0.69700003
-0.051573575 -0.05090595 0.70100009
-0.047834765 -0.051616989 0.70083344
-0.044000003 -0.051333338 0.70000005
-0.050000004 -0.048666671 0.70000005
-0.048000004 -0.048666671 0.70000005
-0.026570857 -0.031643622 0.70100003
-0.023613717 -0.032151241 0.70040005
-0.096000001 0.028000001 0.70000005
-0.091666669 0.027666667 0.70000005
-0.087887377 0.027637666 0.70154548
-0.096606009 0.031804666 0.70149994
-0.092317082 0.032381099 0.70046157
-0.087459669 0.032066166 0.70229417
-0.083322868 0.033731114 0.70366669
-0.07777524 0.034194287 0.70400006
-0.032182857 0.034194287 0.70400006
-0.095878102 0.037546672 0.70400006
-0.092247277 0.037432499 0.70187509
-0.087348364 0.037271723 0.70176935
-0.082713731 0.037547372 0.7015335
-0.077526435 0.037425004 0.7017501
-0.072212562 0.037441254 0.70206261
-0.067430697 0.037346303 0.70315391
-0.062889211 0.038134765 0.70250005
-0.057551753 0.038142864 0.70266676
-0.052284293 0.038207944 0.70383334
-0.047872003 0.039021716 0.70400006
-0.042240005 0.039558098 0.70400012
-0.095605724 0.042118099 0.70200008
-0.092696093 0.042012911 0.70022225
-0.088074073 0.041555557 0.70000005
-0.082574919 0.042120796 0.70016664
-0.077189945 0.042406127 0.70042861
-0.072032087 0.042684942 0.70031244
-0.067469448 0.042751513 0.70141673
-0.062777862 0.042742617 0.70125014
-0.057410304 0.042723633 0.70093763
-0.05219863 0.042829946 0.70268756
-0.04769228 0.042632807 0.70311117
-0.042240005 0.041234288 0.70400006
-0.072000012 0.046000004 0.70000005
-0.067257911 0.046667434 0.70200008
-0.062788695 0.046758693 0.70137507
-0.057916194 0.046555877 0.70166671
-0.054077145 0.046065718 0.70100003
-0.076883815 0.054154288 0.70200008
0.0020228573 -0.041805722 0.70800006
0.0074171438 -0.042480003 0.70800006
0.0028657143 -0.037254285 0.70800006
0.0033714287 -0.034388572 0.70800006
0.0060685719 -0.034388572 0.708
-0.085513338 0.030300003 0.70700002
-0.081780002 0.03247619 0.70675004
-0.077451274 0.032327779 0.70716667
-0.073225722 0.033497147 0.70700002
-0.067372583 0.034021717 0.70600003
-0.062285315 0.033597145 0.70757145
-0.057582319 0.033741228 0.70657146
-0.052500717 0.033653572 0.70675004
-0.046945613 0.033467937 0.70755559
-0.042772148 0.034015 0.70725
-0.037869401 0.033492025 0.70687497
-0.03331786 0.033317383 0.70675004
-0.097357146 0.036257148 0.70500004
-0.062442861 0.035585716 0.7050001
-0.05774286 0.035585716 0.70500004
-0.052371431 0.035585716 0.70500004
-0.047217146 0.036462858 0.70574999
-0.04299175 0.037281111 0.70533335
-0.037834603 0.037655048 0.70686662
-0.033827625 0.036068257 0.70566672
-0.047671434 0.040957145 0.70500004
-0.043336667 0.042834528 0.70550001
-0.038831051 0.041787624 0.70539999
-0.06177143 0.049014289 0.70500004
-0.057625718 0.048209213 0.70633334
-0.05386667 0.047133334 0.70700002
-0.046460003 0.045113336 0.70700002
-0.043828573 0.045177147 0.708
0.0047566667 -0.051644288 0.71350002
-0.00067952386 -0.046208099 0.71350002
0.0028481276 -0.047350727 0.7122668
0.0063630478 -0.046980958 0.71079999
-0.0014534694 -0.042306803 0.71157151
0.0033809529 -0.043276191 0.71000004
0.0074380962 -0.042600002 0.71000004
0.011066668 -0.042001586 0.71133339
-0.0010145239 -0.038218811 0.71025002
0.0025357145 -0.038373813 0.71000004
0.0074380962 -0.037866667 0.71000004
0.011826961 -0.037558831 0.71107697
-0.00095123815 -0.033009145 0.71320003
0.0025511358 -0.032040372 0.71115398
0.0075651957 -0.032288663 0.71036369
0.012198571 -0.032524645 0.71150011
0.0028486983 -0.027281592 0.71260011
0.0074628573 -0.027134921 0.71233344
0.011867766 -0.027550848 0.71361554
0.0043022227 -0.023325082 0.71333337
0.0074768253 -0.02310889 0.71366668
0.0102 -0.023800002 0.71400005
-0.082504228 0.02859919 0.71257144
-0.07758572 0.027636562 0.71315396
-0.072437145 0.028159287 0.71250004
-0.06793651 0.028759368 0.71333337
-0.062106535 0.028581906 0.71214288
-0.056861304 0.027967101 0.71309102
-0.052163381 0.027345371 0.71300006
-0.047540076 0.027603226 0.71230787
-0.041785803 0.027743256 0.71341681
-0.037330799 0.027146988 0.71266687
-0.034083176 0.027535241 0.71100008
-0.082495242 0.030428573 0.71000004
-0.077194296 0.030471431 0.71100003
-0.072202861 0.031412929 0.7104286
-0.067600958 0.031677663 0.71045458
-0.062242031 0.031120837 0.71037501
-0.057516672 0.031126194 0.71050012
-0.05276167 0.031115478 0.71025002
-0.047623135 0.031008165 0.7100001
-0.042445716 0.031622618 0.71025002
-0.037717503 0.031289887 0.71037501
-0.033809528 0.031104766 0.71000004
-0.052281905 0.048371434 0.71088886
-0.00068476197 -0.055465717 0.71900004
0.0020485716 -0.055652864 0.71700001
-0.001369524 -0.052726671 0.71900004
0.002047725 -0.052564129 0.7167778
-0.0023254286 -0.048120674 0.7177
0.00068190478 -0.04977905 0.71600002
-0.0034238098 -0.044509526 0.71900004
-0.017256193 -0.031848785 0.7183333
-0.013166667 -0.03197905 0.71825004
-0.0075323815 -0.033553336 0.71900004
-0.0030758339 -0.032623217 0.71737498
-0.017803811 -0.028075244 0.71899998
-0.012853864 -0.028066987 0.71877778
-0.0015960848 -0.02756688 0.71766669
0.00068190478 -0.025230478 0.71600002
0.012956192 -0.025230478 0.71600002
-0.0011412699 -0.023053652 0.71900004
0.002392143 -0.022386191 0.71775001
0.007500953 -0.021139052 0.71600002
0.011773691 -0.022351786 0.71662503
0.0047933338 -0.019858096 0.71900004
0.0070130955 -0.018303573 0.71850002
0.0047933338 -0.014380001 0.71900004
0.0061457148 -0.014340001 0.71700001
-0.040400956 0.019858096 0.71900004
-0.03766191 0.019173335 0.71900004
-0.086964771 0.023281906 0.71900004
-0.082125723 0.022583812 0.71859998
-0.077522665 0.022694478 0.71780002
-0.072255239 0.023020318 0.71800005
-0.067572623 0.023094051 0.71850002
-0.062587246 0.023418859 0.71900004
-0.057411075 0.023236549 0.71762508
-0.052543342 0.023200478 0.71650004
-0.047661271 0.023031432 0.7183333
-0.042406511 0.022569684 0.71816671
-0.037614927 0.022567937 0.71811116
-0.086612865 0.026477382 0.71749997
-0.082626671 0.02594794 0.71700001
-0.077055246 0.025230478 0.71600002
-0.072017968 0.02582504 0.71628582
-0.06736736 0.02622504 0.71657151
-0.06304042 0.026171857 0.7168889
-0.057721909 0.025517335 0.71640009
-0.053870481 0.025230478 0.71600002
-0.047506034 0.025230478 0.71600002
-0.043300956 0.02557143 0.71600002
-0.0064491429 -0.052280005 0.72040004
-0.0042141499 -0.052428581 0.72028571
-0.0061800005 -0.048065718 0.72100008
-0.0048044445 -0.047356829 0.72066677
-0.0089390483 -0.035068575 0.72200006
-0.010742858 -0.033371434 0.72000003
-0.0074081905 -0.032648575 0.72020018
-0.0048000002 -0.032685719 0.72000003
-0.010742858 -0.028114287 0.72000003
-0.0074236193 -0.027909148 0.72180003
-0.0042179595 -0.027166534 0.72085726
-0.0027428572 -0.023314286 0.72000003
0.0006857143 -0.021257143 0.72000003
-0.00068825408 -0.017206352 0.72266674
0.0026074287 -0.017716512 0.72100019
0.0020600003 -0.014433335 0.72166675
-0.084005713 0.014460001 0.72300005
-0.087276436 0.018591428 0.72300005
-0.08297319 0.018267255 0.72276926
-0.078125477 0.019617382 0.72275007
-0.066057146 0.019266192 0.72250009
-0.062630802 0.019270796 0.72266674
-0.057678577 0.018858572 0.72270006
-0.052592006 0.018861337 0.72280008
-0.047773339 0.019412193 0.72280008
-0.042620242 0.018903574 0.72175014
-0.088182859 0.022080002 0.72000003
-0.08434286 0.021257143 0.72000003
-0.073371433 0.021257143 0.72000003
-0.066171438 0.021600001 0.72000003
-0.062057145 0.021600001 0.72000003
-0.057600003 0.021257143 0.72000003
-0.052114289 0.021257143 0.72000003
-0.048000004 0.021257143 0.72000003
-0.0075952387 -0.050404765 0.72500002
-0.006244286 -0.045790955 0.72850001
-0.0048400005 -0.04494286 0.72600001
-0.0020806352 -0.020088255 0.72733343
-0.0027704765 -0.018001907 0.72700006
-0.046517145 0.0086785723 0.72900003
-0.081979625 0.013686286 0.72579998
-0.078417793 0.014573335 0.72866672
-0.065957144 0.014580001 0.72900003
-0.061562646 0.013174076 0.72811115
-0.057520323 0.013165398 0.72766674
-0.05266114 0.012469823 0.72756255
-0.047183406 0.012786397 0.72857147
-0.043720003 0.013184763 0.72866672
-0.08630953 0.017261906 0.72500002
-0.081246041 0.016341271 0.72500008
-0.077355422 0.017182425 0.72700006
-0.072130725 0.017685238 0.72825009
-0.067611426 0.017117858 0.72624999
-0.062153932 0.016574169 0.72512496
-0.057309531 0.016226191 0.72500002
-0.052027464 0.016344924 0.72516674
-0.047473744 0.016876739 0.72542864
-0.043540321 0.016586352 0.7256667
-0.075261913 0.020023812 0.72500002
-0.072500005 0.020023812 0.72500008
-0.069047622 0.020023812 0.72500002
-0.06901715 -0.010457143 0.73200005
-0.068506673 0.0048933337 0.73400003
-0.06361334 0.0048933337 0.73400003
-0.076196194 0.0083885714 0.73400003
-0.07242135 0.0079691438 0.73400015
-0.067352675 0.0075284764 0.73210001
-0.062734202 0.0079448577 0.73190004
-0.057465315 0.0082655791 0.73200005
-0.052612115 0.0084537417 0.73100007
-0.047495924 0.0072676204 0.73185718
-0.080773726 0.011577143 0.73240006
-0.07727553 0.01213362 0.73229998
-0.072383948 0.012597017 0.73220015
-0.067665637 0.012342857 0.7310909
-0.063751161 0.011636328 0.73100007
-0.057783812 0.010442859 0.73100007
-0.047340956 0.010442858 0.73100001
-0.073100001 0.016012382 0.73100007
-0.077158101 -0.010521429 0.73650002
-0.073600002 -0.010514286 0.73600006
-0.06632781 -0.011077906 0.73620003
-0.063873336 -0.011230476 0.73700005
-0.081819437 -0.0068769529 0.73680001
-0.077226669 -0.0077217473 0.73716676
-0.072280481 -0.00842016 0.73683333
-0.067774706 -0.0085338783 0.73800009
-0.064046673 -0.0091495244 0.73900002
-0.086334288 -0.0014038096 0.73700005
-0.082668766 -0.0026658415 0.73686677
-0.077432208 -0.0029510476 0.73780012
-0.073900007 -0.0049266671 0.73900002
-0.086010963 0.002462619 0.73874998
-0.08215937 0.002808254 0.73733342
-0.077242196 0.0028075599 0.73731261
-0.0724684 0.0029986147 0.73745459
-0.067270488 0.0037082999 0.73685718
-0.062238861 0.0040735244 0.73760003
-0.057435941 0.0036404333 0.73790914
-0.052515764 0.0029983551 0.73700005
-0.049322858 0.004440953 0.73633337
-0.081658646 0.0075138779 0.73642862
-0.077832386 0.0073621427 0.73625004
-0.073600002 0.0063085719 0.73600006
-0.060982861 0.0063085719 0.73600006
-0.057478096 0.0063085719 0.73600006
-0.052571431 0.0063085719 0.73600006
-0.049767621 0.0063085719 0.73600006
-0.07500191 0.011916191 0.73600006
-0.061368257 -0.01128635 0.74066675
-0.072654605 -0.0063485722 0.74066675
-0.06738057 -0.0066384762 0.7416001
-0.062015504 -0.0076473602 0.74227285
-0.057474285 -0.0076040477 0.74275005
-0.053743336 -0.0063642859 0.74250007
-0.075409532 -0.00070476194 0.74000001
-0.072550133 -0.0026297837 0.7409091
-0.067856848 -0.0028272024 0.7421875
-0.062254585 -0.0028297021 0.74281251
-0.057266351 -0.0028290479 0.74233341
-0.053688571 -0.0028273808 0.74175
-0.071180955 0.00070476194 0.74000001
-0.067432657 0.00130966 0.74085718
-0.062416881 0.0013099323 0.74114293
-0.057830006 0.0010576191 0.74050003
-0.054266669 0.00070476194 0.74000001
-0.056052383 -0.0092238104 0.74500006
