# .PCD v0.7 - Point Cloud Data file format
VERSION 0.7
FIELDS x y z
SIZE 4 4 4
TYPE F F F
COUNT 1 1 1
WIDTH 649
HEIGHT 1
VIEWPOINT 0 0 0 1 0 0 0
POINTS 649
DATA ascii
-0.028012861 -0.029923335 0.66850007
-0.0057342863 -0.01083143 0.66900003
-0.0014866668 -0.011256192 0.66900003
0.0025463495 -0.012100002 0.66866672
0.0077315881 -0.012181113 0.66733336
0.010815239 -0.011450477 0.66800004
-0.0065307152 -0.007964286 0.66900009
-0.0025910481 -0.0075182873 0.66900003
0.0025477384 -0.0076439288 0.66887498
0.0074255038 -0.0086980956 0.66833341
0.010799048 -0.0095285717 0.66700006
-0.00063714292 -0.0038228575 0.66900003
0.0023361908 -0.0044600004 0.66900003
0.0012742858 0.0019114286 0.66900003
-0.060980957 -0.025676193 0.67400002
-0.05784275 -0.026175454 0.67400002
-0.052251052 -0.026061336 0.67400002
-0.047286987 -0.02503429 0.67400002
-0.031401362 -0.026819866 0.67285717
-0.027003815 -0.027188033 0.67285717
-0.060980957 -0.022466671 0.67400002
-0.057546228 -0.022633119 0.67307687
-0.052592453 -0.022905212 0.67180002
-0.047377586 -0.02258154 0.67153853
-0.042270958 -0.022415716 0.67250001
-0.037487242 -0.022209911 0.67399997
-0.032087781 -0.022461433 0.67383331
-0.027512193 -0.022649525 0.67180002
-0.024682097 -0.022636762 0.67140001
-0.061301909 -0.018936191 0.67400002
-0.05752527 -0.018063303 0.67260003
-0.052465063 -0.01791399 0.67181247
-0.047381014 -0.017927799 0.6723125
-0.042955812 -0.018592384 0.67319995
-0.036588576 -0.019043176 0.67400002
-0.031966858 -0.018016132 0.67399997
-0.027547939 -0.017935716 0.67266673
-0.024395786 -0.018181905 0.67157149
-0.0057771434 -0.016047619 0.67400002
-0.0025649208 -0.017311275 0.67316663
0.0020290478 -0.017619526 0.67266667
0.0066245506 -0.018165294 0.67311108
-0.055845719 -0.014763811 0.67400002
-0.051776908 -0.013624525 0.67324996
-0.048206933 -0.012997924 0.67327267
-0.044291433 -0.014763811 0.67400002
-0.035304762 -0.014763811 0.67400002
-0.033379048 -0.014763811 0.67400002
-0.025676193 -0.014121906 0.67400002
-0.0063884128 -0.012778889 0.67083335
-0.0028013189 -0.013125129 0.67092311
0.002552381 -0.014676192 0.67000002
0.0057428577 -0.014676192 0.67000002
-0.050710481 -0.008344762 0.67400002
-0.048142862 -0.0096285725 0.67400002
-0.0082988106 -0.006064048 0.67025006
-0.0019142858 -0.0095714293 0.67000002
0.0076630162 -0.0063852384 0.67050004
-0.010912382 -0.0025676193 0.67400002
-0.0076744058 -0.0025564288 0.67137504
-0.0028263265 -0.0023701363 0.67007148
0.0026039563 -0.002111502 0.6704616
0.0065295245 -0.0037112385 0.67200005
-0.010912382 0.0019257144 0.67400002
-0.0076917862 0.0025636908 0.67287493
-0.0025550593 0.0025542262 0.67043757
0.0026014652 0.0025032971 0.67000002
0.0057428577 0.00063809525 0.67000002
-0.0073139048 0.0070575238 0.6735999
-0.0024330795 0.0075563821 0.67219996
0.0019177779 0.0076714288 0.67116666
-0.002353651 0.011768255 0.67400002
0.0019257144 0.010912382 0.67400002
-0.075660005 -0.031040002 0.67900002
-0.072474822 -0.03124561 0.67877775
-0.067429699 -0.031569093 0.67899996
-0.061634135 -0.030816985 0.67883337
-0.057412382 -0.030964762 0.67733335
-0.05275074 -0.031510737 0.67772728
-0.047844172 -0.031034404 0.67887497
-0.042579059 -0.030941226 0.67885715
-0.038140241 -0.030705478 0.67875004
-0.075660005 -0.02716 0.67900002
-0.072307743 -0.027115241 0.67787504
-0.067024827 -0.027069226 0.67668748
-0.062707439 -0.027299618 0.67600006
-0.05810032 -0.028514288 0.67533338
-0.052771673 -0.028317623 0.67575008
-0.047683895 -0.027708812 0.67658341
-0.042547029 -0.027077384 0.67687511
-0.037355714 -0.027052145 0.67625004
-0.032785714 -0.026724493 0.67500007
-0.076630004 -0.022633333 0.67899996
-0.072314352 -0.021951372 0.67793763
-0.066956192 -0.022533335 0.67600006
-0.063000008 -0.022500005 0.67500007
-0.036000002 -0.023785716 0.67500001
0.0038742861 -0.020662859 0.67800003
-0.071934842 -0.018006397 0.67871433
-0.067210607 -0.017929081 0.67726678
-0.063092388 -0.017791219 0.67522228
-0.059874289 -0.01609524 0.67600006
-0.041048579 -0.01783905 0.67700005
-0.037717905 -0.017377144 0.67580003
-0.034071431 -0.017357145 0.67500001
-0.0019301588 -0.019938415 0.67533338
0.0040730163 -0.0186527 0.67533338
-0.066985056 -0.013836478 0.67889994
-0.062005538 -0.01291744 0.67818761
-0.057517499 -0.0127213 0.6771819
-0.053627264 -0.012076787 0.67637503
-0.045913525 -0.012474666 0.67520005
-0.044357147 -0.012857144 0.67500001
-0.030918097 -0.013524763 0.67633337
-0.027698878 -0.012588745 0.67636371
-0.061433338 -0.0097000003 0.67900008
-0.057230003 -0.0093766674 0.67900002
-0.052821722 -0.0094270473 0.67799997
-0.047820799 -0.0090065086 0.67550004
-0.02716 -0.0097000003 0.67900002
-0.012259049 -0.00064507942 0.67733335
0.0067704767 -0.0016104763 0.67699999
-0.011785715 0.0015000001 0.67500007
-0.0081123812 0.0086281914 0.67600006
-0.0045000003 0.0096428581 0.67500001
-0.0069831172 0.012851169 0.67772734
-0.0028307622 0.012609811 0.67550009
0.00096428569 0.012214286 0.67500001
-0.046251431 -0.041040003 0.68400002
-0.043625083 -0.041020006 0.68366671
-0.091200009 -0.035828575 0.68400002
-0.087291434 -0.035828575 0.68400002
-0.082080007 -0.035828575 0.68400002
-0.07195691 -0.036141194 0.68375003
-0.067699052 -0.036453813 0.68350005
-0.062928014 -0.036089148 0.68400002
-0.057666101 -0.036057722 0.68340009
-0.052713655 -0.035793655 0.6833334
-0.046251431 -0.039085716 0.68400002
-0.042455677 -0.038192127 0.68390912
-0.03810858 -0.037457149 0.68400002
-0.09576001 -0.031920001 0.68400002
-0.092283182 -0.032410163 0.68333328
-0.087115712 -0.032507148 0.682625
-0.08227136 -0.032620665 0.6818462
-0.078004114 -0.032492019 0.68123072
-0.072639331 -0.033862453 0.68185723
-0.067161158 -0.034165718 0.6820001
-0.062614106 -0.03338667 0.6820001
-0.05714798 -0.033769883 0.68187505
-0.051999051 -0.034450002 0.6825
-0.047755245 -0.033662997 0.68157142
-0.042954501 -0.033571642 0.68222225
-0.03857588 -0.033593655 0.68266672
-0.095760003 -0.02736 0.68400002
-0.092410654 -0.027332321 0.68331248
-0.087044351 -0.027282324 0.68206257
-0.082369208 -0.027240319 0.68100011
-0.078400329 -0.027213018 0.68033332
-0.097062871 -0.024102859 0.68400002
-0.092112005 -0.023842288 0.68400002
-0.086762942 -0.022277949 0.68338472
-0.082409851 -0.022060636 0.68133342
-0.078685716 -0.021371428 0.67999995
-0.085662872 -0.017914288 0.68400002
-0.082584448 -0.017556932 0.68277782
-0.077944532 -0.01818643 0.68200004
-0.073263101 -0.016855953 0.68075001
-0.085337147 -0.014331429 0.68400002
-0.082848005 -0.01443543 0.68280005
-0.077714294 -0.014895239 0.68000001
-0.072348036 -0.014358913 0.68085712
-0.067352384 -0.011657143 0.68000001
-0.065650001 -0.0091004763 0.6825
-0.062550902 -0.0080071967 0.68177783
-0.057202734 -0.0076938784 0.68142867
-0.053476833 -0.0075765084 0.68200004
-0.027847622 -0.008419048 0.68000001
-0.008419048 0.013600001 0.68000001
-0.059713338 -0.045277145 0.68900001
-0.10761525 -0.040027622 0.68900001
-0.091866672 -0.040027622 0.68900001
-0.087929532 -0.040027622 0.68900001
-0.082680009 -0.040027622 0.68900001
-0.076774299 -0.040027626 0.68900001
-0.071962237 -0.041923277 0.68900007
-0.067587629 -0.040027626 0.68900001
-0.062600575 -0.040290099 0.68900007
-0.057876009 -0.041340005 0.68900007
-0.053130481 -0.041135382 0.68871433
-0.04865969 -0.042114925 0.68733335
-0.11213706 -0.037379161 0.6885556
-0.1074581 -0.03734953 0.68800014
-0.10269382 -0.03691072 0.68900007
-0.097276881 -0.036982454 0.68814296
-0.09296678 -0.037434284 0.68688899
-0.087623253 -0.038319431 0.68660015
-0.082469292 -0.037963573 0.68725008
-0.077308185 -0.03734548 0.68791676
-0.072245724 -0.038738813 0.68650007
-0.067946672 -0.03854667 0.68600005
-0.062492251 -0.038018778 0.68657154
-0.057261232 -0.038018778 0.68657148
-0.051898796 -0.038107444 0.68663651
-0.047493413 -0.037471827 0.68624997
-0.043773334 -0.037240006 0.68600005
-0.037893336 -0.03854667 0.68600005
-0.1122861 -0.032822348 0.68823093
-0.10729267 -0.032710657 0.68693763
-0.10227225 -0.032779168 0.68837512
-0.097845927 -0.032906245 0.68644446
-0.094733343 -0.03462667 0.68600005
-0.11155239 -0.029528573 0.68900001
-0.10780722 -0.028941637 0.68842864
-0.10177157 -0.028556604 0.68814296
-0.098406389 -0.027182763 0.68609995
-0.1005423 -0.022676002 0.6882
-0.097615771 -0.021618098 0.68788892
-0.092949435 -0.021599716 0.68730003
-0.08955016 -0.021569844 0.68633342
-0.091603816 -0.017489208 0.6886667
-0.088425197 -0.016827449 0.68681812
-0.091210485 -0.01312381 0.68900001
-0.088896513 -0.013322541 0.68800008
-0.086502239 -0.04556191 0.69333333
-0.082099378 -0.046443179 0.69333333
-0.077987812 -0.046503242 0.69160002
-0.072942868 -0.045342859 0.69000006
-0.066453718 -0.046372574 0.69360006
-0.062893145 -0.046015814 0.69220006
-0.057199687 -0.045364764 0.69033337
-0.11203674 -0.041367352 0.69257152
-0.10737715 -0.041662864 0.69000006
-0.10277262 -0.041506909 0.69175005
-0.097493663 -0.042085018 0.69260001
-0.092305288 -0.042585135 0.69115394
-0.087275721 -0.042915341 0.6911
-0.082718886 -0.04264633 0.69081819
-0.077712089 -0.042521909 0.6901539
-0.073271438 -0.043700002 0.69000006
-0.067108735 -0.042766988 0.69083333
-0.062627263 -0.042902265 0.69037503
-0.057609528 -0.043152388 0.69000006
-0.052289803 -0.043465313 0.69000012
-0.11583048 -0.037290957 0.69300002
-0.10185716 -0.038442861 0.69000006
-0.097914301 -0.038771432 0.69000006
-0.1159327 -0.033531114 0.69033337
-0.116066 -0.027435515 0.69300002
-0.11266648 -0.02724362 0.69099998
-0.10762182 -0.026521273 0.69044447
-0.10363321 -0.026964085 0.69057149
-0.11566667 -0.023794288 0.69400001
-0.11218718 -0.022595558 0.69373345
-0.10724682 -0.022637693 0.6932857
-0.1033417 -0.021900214 0.69211119
-0.095285721 -0.02037143 0.69000006
-0.1115808 -0.017244849 0.69400007
-0.10729173 -0.017174697 0.69357145
-0.10237165 -0.017109051 0.69092864
-0.097265907 -0.017087203 0.69006264
-0.093533337 -0.016647622 0.69000006
-0.11566667 -0.013219048 0.69400001
-0.11193353 -0.012554668 0.69380009
-0.10716972 -0.012428053 0.69345456
-0.10240144 -0.012650381 0.69190001
-0.097602978 -0.012939683 0.69088888
-0.09331429 -0.013800001 0.69000006
-0.11132327 -0.0087812264 0.69400001
-0.1071201 -0.0084709106 0.69390917
-0.10232746 -0.0081116892 0.69400007
-0.099803813 -0.0085923821 0.69400001
-0.11037906 -0.0019828572 0.69400001
-0.10773525 -0.0013219047 0.69400001
-0.10176207 -0.0033039683 0.69383335
-0.11685552 -0.04679865 0.69771427
-0.11273811 -0.046967942 0.69677782
-0.10569715 -0.045868576 0.69800001
-0.10188191 -0.046289846 0.69766665
-0.097122341 -0.047124449 0.69688892
-0.092865959 -0.046434291 0.69650006
-0.08759167 -0.047446672 0.69675004
-0.083192959 -0.048697334 0.69660008
-0.12032191 -0.040550478 0.69800001
-0.1169143 -0.042515557 0.69749999
-0.11285011 -0.043629151 0.69620007
-0.1077989 -0.043959528 0.69583338
-0.10279334 -0.0444327 0.69633341
-0.099947624 -0.044347622 0.69500005
-0.12094311 -0.037213575 0.69774997
-0.11805373 -0.038027052 0.69560003
-0.11627462 -0.02140159 0.69500005
-0.11450953 -0.02051905 0.69500005
-0.11616667 -0.017037779 0.69700003
-0.11424477 -0.017077146 0.69500011
-0.11467429 -0.012592382 0.69600004
-0.097485408 -0.011273971 0.69633341
-0.093754493 -0.011801335 0.69620007
-0.11616667 -0.0079657147 0.69700003
-0.11351505 -0.0072925929 0.6961112
-0.1070962 -0.0067514288 0.69500011
-0.10391905 -0.0059571434 0.69500005
-0.097894736 -0.0080019785 0.69561541
-0.093976475 -0.0088191843 0.69700009
-0.11211801 -0.003460635 0.69566673
-0.10683143 -0.0034419049 0.69500011
-0.10391905 -0.0026476192 0.69500005
-0.098944582 -0.0041064764 0.69540006
-0.061114766 0.044507146 0.69749999
-0.059163813 0.044539049 0.69800001
-0.061136432 0.04651691 0.69774997
-0.05912143 0.046500482 0.69749999
-0.12066668 -0.050000004 0.70000005
-0.11866668 -0.050666671 0.70000005
-0.11015715 -0.05073905 0.70100003
-0.10745282 -0.051390804 0.70077789
-0.10270311 -0.05135183 0.70025003
-0.0975127 -0.051891755 0.70033336
-0.092530213 -0.050706543 0.70185721
-0.087458104 -0.050071433 0.70100009
-0.084787622 -0.050071433 0.70100003
-0.12672001 -0.047603812 0.70400006
-0.1227551 -0.047366828 0.70050001
-0.11933334 -0.047333337 0.70000005
-0.11010476 -0.047379054 0.70066667
-0.10751942 -0.047508687 0.70012498
-0.10311111 -0.048222225 0.70000005
-0.099333338 -0.048666671 0.70000005
-0.092666671 -0.048666671 0.70000005
-0.090000004 -0.048666671 0.70000005
-0.12285912 -0.04282077 0.7003333
-0.11933334 -0.044000003 0.70000005
-0.12333334 -0.038333338 0.70000005
-0.052967623 0.034194287 0.70400006
-0.077364109 0.037676342 0.70353854
-0.072449155 0.037541337 0.70306671
-0.068612069 0.039111115 0.70400012
-0.062354289 0.039558098 0.70400012
-0.05770741 0.038645614 0.70366669
-0.05268858 0.037299048 0.7025001
-0.076963298 0.042960521 0.7038182
-0.072283573 0.042833809 0.70275003
-0.067526355 0.042970162 0.70316672
-0.062734291 0.042674925 0.70200008
-0.057335187 0.042633083 0.70166683
-0.075763814 0.04626286 0.70400006
-0.072001912 0.047241148 0.70260006
-0.067408577 0.047385715 0.70077783
-0.063333333 0.047666673 0.70000005
-0.05693334 0.046533335 0.70000005
-0.070300005 0.050214291 0.70300001
-0.068291433 0.050214291 0.70300001
-0.091090485 -0.052595239 0.7050001
-0.088481918 -0.052146669 0.70649999
-0.10653715 0.034388572 0.708
-0.10451429 0.034388572 0.708
-0.095748574 0.034388572 0.708
-0.092377149 0.034388572 0.70800006
-0.087595239 0.033690002 0.70750004
-0.082146674 0.034340002 0.70700002
-0.077405959 0.033990718 0.70674998
-0.072483435 0.034021717 0.70600003
-0.067380957 0.033689998 0.70749998
-0.062277064 0.032514982 0.70727271
-0.057926744 0.032766454 0.70661533
-0.052712068 0.033120535 0.7065556
-0.10653715 0.035737146 0.708
-0.10181715 0.037085716 0.70800012
-0.097365834 0.037942331 0.70722228
-0.092920125 0.037705954 0.7069999
-0.087378822 0.037638336 0.70574993
-0.082585722 0.037600003 0.70500004
-0.079452388 0.036928575 0.7050001
-0.070500001 0.036928575 0.70500004
-0.066839933 0.037269529 0.70561534
-0.062501907 0.036962226 0.70566666
-0.057646945 0.036161229 0.70500004
-0.054385718 0.036257148 0.70500004
-0.096600011 0.041462861 0.70600003
-0.092604905 0.042553045 0.70576918
-0.08749678 0.042534877 0.7054615
-0.082743049 0.042580571 0.70520002
-0.079631433 0.04283715 0.70500004
-0.065800004 0.040957145 0.70500004
-0.092246674 0.045113336 0.70700002
-0.086639427 0.045678291 0.70740002
-0.08189103 0.046286676 0.70728576
-0.077547148 0.04794262 0.70650005
-0.073857144 0.049014289 0.70500004
-0.10608001 0.0029466671 0.71400011
-0.10761621 0.006570477 0.71366668
-0.096288584 0.028773017 0.71366668
-0.0923668 0.028524883 0.71312511
-0.087918296 0.028671429 0.71340007
-0.082602181 0.028633744 0.71342868
-0.078561753 0.028299844 0.71316671
-0.066720203 0.02839981 0.71340007
-0.062419809 0.028087238 0.71240008
-0.057023626 0.028103624 0.71280009
-0.052278381 0.027563715 0.7129001
-0.12036001 0.034680001 0.71400005
-0.11725929 0.034327857 0.71375006
-0.11281406 0.03329993 0.71358347
-0.10768244 0.032476302 0.71211123
-0.10258968 0.03259407 0.71192318
-0.097761914 0.032229938 0.71142876
-0.092419438 0.031662863 0.71040004
-0.087667629 0.03121973 0.7104286
-0.082612231 0.031824131 0.71100008
-0.077170312 0.031717494 0.71136373
-0.072045855 0.031900547 0.71271437
-0.067411169 0.031238372 0.71085715
-0.063561909 0.030428573 0.71000004
-0.056880005 0.030471431 0.71100003
-0.052340321 0.030908575 0.71066666
-0.11718164 0.03718327 0.71357161
-0.1126689 0.037330162 0.71266687
-0.1077231 0.037661195 0.7125001
-0.10375714 0.03936553 0.71020001
-0.098949216 0.037190478 0.71000004
-0.11152001 0.040120002 0.71400005
-0.10727411 0.040652767 0.71380001
-0.10266477 0.041907813 0.71200001
-0.098706514 0.043143019 0.71150005
-0.1028383 -0.001229143 0.71700001
-0.10569525 0.00068190478 0.71600002
-0.10293819 0.0025783153 0.71799999
-0.11572477 0.0089019053 0.71900004
-0.11283048 0.0088895243 0.71800005
-0.10714504 0.008092518 0.71657151
-0.10408382 0.0075323819 0.71900004
-0.11572477 0.012325715 0.71900004
-0.11226167 0.011637381 0.71875
-0.10772613 0.012111837 0.71785718
-0.10476858 0.010271429 0.71900004
-0.11709429 0.019173333 0.71900004
-0.11186522 0.018488571 0.71899998
-0.10750763 0.017803812 0.71899998
-0.12120286 0.023281906 0.71900004
-0.1173682 0.023418859 0.71900004
-0.11261829 0.022440577 0.7184
-0.10786764 0.022692382 0.71809089
-0.10339905 0.023624288 0.71900004
-0.087649524 0.023966668 0.71900004
-0.081892394 0.022582332 0.71855557
-0.078111432 0.023666097 0.71820009
-0.072356515 0.023966668 0.71900004
-0.066969723 0.023418857 0.71900004
-0.062604502 0.023341635 0.71785718
-0.057432942 0.022561667 0.71791673
-0.052796312 0.022723453 0.71762502
-0.049987622 0.023281906 0.71900004
-0.12111858 0.027370002 0.71850008
-0.11769833 0.027370717 0.71849996
-0.11267143 0.02731429 0.71700001
-0.10785381 0.02730405 0.71675003
-0.10244645 0.027316788 0.71712494
-0.098012388 0.026797781 0.71744448
-0.092686132 0.026076328 0.71785724
-0.087206095 0.026378667 0.71760005
-0.082568102 0.02593 0.71650004
-0.077183813 0.02663791 0.71719998
-0.07242769 0.027328514 0.71743751
-0.067993343 0.026435239 0.71700007
-0.062749371 0.025690956 0.71616673
-0.057280004 0.025685083 0.71600002
-0.05250667 0.025230478 0.71600002
-0.048438415 0.02615143 0.71633339
-0.12086572 0.032094289 0.71700001
-0.1179653 0.031785399 0.7168889
-0.1125143 0.030685715 0.71600002
-0.10751367 0.030685715 0.71600002
-0.073645718 0.030685715 0.71600002
-0.12086572 0.036874287 0.71700001
-0.11966668 0.038294286 0.71800005
-0.11708298 0.041193217 0.717875
-0.10080001 -0.0006857143 0.72000003
-0.099428579 -0.0006857143 0.72000003
-0.10125715 0.0034285716 0.72000003
-0.099428579 0.002057143 0.72000003
-0.10182858 0.0072000003 0.72000003
-0.11319524 0.013720954 0.72033346
-0.10393894 0.012864643 0.72037506
-0.054397147 0.014460001 0.72300005
-0.11708351 0.017607938 0.72033334
-0.11341715 0.016320003 0.72000003
-0.10337375 0.018064765 0.72157139
-0.098072253 0.01937837 0.72300011
-0.092406295 0.019693146 0.72300005
-0.087448582 0.019968573 0.72300005
-0.082317561 0.019374425 0.72285724
-0.077031329 0.019047411 0.72288895
-0.072759055 0.019050477 0.72300005
-0.067030288 0.019682098 0.7226001
-0.062438238 0.018977009 0.72271436
-0.057649665 0.018068846 0.72185731
-0.052496877 0.01818721 0.72257155
-0.048888575 0.01859143 0.72300005
-0.12050001 0.021345716 0.72300005
-0.11794286 0.02217143 0.72000003
-0.10254977 0.022121668 0.72025013
-0.097483657 0.022653494 0.72083348
-0.092600435 0.022635136 0.72022235
-0.087771431 0.02194286 0.72000003
-0.08434286 0.021942858 0.72000003
-0.077211432 0.021805717 0.72000003
-0.072828569 0.022191115 0.72066677
-0.067720644 0.021733969 0.72066677
-0.062400006 0.021257143 0.72000003
-0.050812386 0.021286666 0.72100008
-0.047474921 0.022704763 0.72244447
-0.04469524 0.022691431 0.72200006
-0.095314294 0.02537143 0.72000003
-0.047314294 0.02537143 0.72000003
-0.097112626 -0.0065664286 0.72574997
-0.10057937 -0.0025317464 0.72500008
-0.09757524 -0.003179048 0.72559994
-0.10025715 0.0048400005 0.72600001
-0.098638415 0.0025428571 0.72766674
-0.10092077 0.0078906668 0.72680008
-0.099282861 0.0076371431 0.72900003
-0.047905717 0.0090257153 0.72900003
-0.10163984 0.012273075 0.72690916
-0.097867243 0.013187431 0.72880006
-0.092318892 0.013882383 0.72883338
-0.087530904 0.013649843 0.72877783
-0.082829721 0.014012572 0.72840005
-0.077627867 0.014555001 0.72775006
-0.072403185 0.014573335 0.72866672
-0.066975951 0.014227859 0.72875005
-0.062110011 0.012677757 0.72807145
-0.057423923 0.013142647 0.72644442
-0.052252896 0.012620806 0.72707707
-0.047319248 0.012626921 0.72853339
-0.043740004 0.014580001 0.72900003
-0.10084406 0.016576907 0.72525001
-0.097274438 0.016886396 0.72585714
-0.092623807 0.017164592 0.72627276
-0.087362863 0.01716892 0.72645456
-0.082658373 0.016886396 0.72585714
-0.077509128 0.016488438 0.72571439
-0.072072707 0.01680889 0.72533339
-0.067914642 0.017150478 0.7256363
-0.062632389 0.016348574 0.72533339
-0.057309527 0.017261906 0.72500002
-0.05109524 0.015880954 0.72500002
-0.047073431 0.017029241 0.72690004
-0.04494286 0.018668573 0.72600001
-0.047642864 0.020023812 0.72500008
-0.044880956 0.020714287 0.72500002
-0.091575243 -0.01188381 0.73400003
-0.053127624 -0.0076895244 0.73400003
-0.096834511 0.0031782012 0.73266673
-0.096828684 0.0076619047 0.73144442
-0.092698261 0.0083630169 0.7318334
-0.087765716 0.008613334 0.73333335
-0.083885714 0.0083885714 0.73400003
-0.072001912 0.0090876194 0.73400003
-0.067263819 0.0080706133 0.73242867
-0.06268917 0.008358215 0.73137504
-0.057175122 0.0080172624 0.73212498
-0.052632794 0.0084567359 0.73128575
-0.047078781 0.0078621767 0.7315715
-0.043295957 0.0083792862 0.73325002
-0.096306354 0.011371112 0.73100007
-0.092614137 0.01114143 0.73116672
-0.087689124 0.011047755 0.7315715
-0.081983246 0.01157143 0.73199999
-0.077883184 0.012320319 0.73233336
-0.071893968 0.012484869 0.73288894
-0.067728102 0.011665002 0.73124999
-0.064745717 0.011139048 0.73100001
-0.057783812 0.010442859 0.73100007
-0.05430286 0.010442858 0.73100001
-0.045252383 0.010442858 0.73100001
-0.042655956 0.011664763 0.73124999
-0.039737146 0.010457143 0.73200005
-0.09252315 -0.011793429 0.73710006
-0.089141913 -0.013336191 0.73700005
-0.075909525 -0.010542858 0.73800004
-0.073166035 -0.01098635 0.73633337
-0.095652863 -0.0073838104 0.7385
-0.093047619 -0.0085607627 0.73680001
-0.075708896 -0.0086720642 0.7383334
-0.073098101 -0.0091371434 0.73800004
-0.056465715 -0.0066633341 0.73650002
-0.052220955 -0.0066590481 0.73600006
-0.049099527 -0.0063128574 0.73650002
-0.09614595 -0.0022866668 0.73825002
-0.056854766 -0.0028071429 0.73700011
-0.052625008 -0.0028059527 0.73675013
-0.047856774 -0.0026659048 0.73680019
-0.042463817 -0.0013048982 0.73785716
-0.096160956 0.00070190482 0.73700005
-0.092860088 0.0031079599 0.73707157
-0.087710962 0.004041905 0.73824996
-0.082582675 0.0043609529 0.73860008
-0.077247724 0.0039823283 0.73811108
-0.072242856 0.0036899999 0.73824996
-0.067473724 0.0037942862 0.73799998
-0.062365312 0.0039155106 0.73814291
-0.057390351 0.0029456511 0.7366668
-0.052607305 0.0028049208 0.73650002
-0.04770489 0.0028054761 0.73662513
-0.042143099 0.0028083331 0.73750013
-0.038280003 0.0038619051 0.73750001
-0.092180006 0.0065940954 0.73660004
-0.087708339 0.0066654766 0.73675001
-0.082067624 0.0073642856 0.73650002
-0.077174127 0.0077173021 0.7366668
-0.072210595 0.0075363098 0.73612505
-0.067992389 0.0063085719 0.73600006
-0.062384766 0.0063085719 0.73600006
-0.058179051 0.0063085719 0.73600006
-0.052571431 0.0063085719 0.73600006
-0.04791905 0.0063114292 0.73633337
-0.041398335 0.0073671434 0.73675001
-0.037602045 0.0077209529 0.73700011
-0.076205723 0.011087238 0.73680001
-0.073600002 0.011215239 0.73600006
-0.08719334 -0.012120318 0.74133337
-0.082791433 -0.010614286 0.74300003
-0.079040959 -0.010585715 0.74100006
-0.096552387 -0.0077523813 0.74000001
-0.091908202 -0.007199619 0.74120009
-0.087655634 -0.0077756355 0.74225008
-0.082742333 -0.0077787307 0.74255562
-0.078212492 -0.00745143 0.74133343
-0.072688572 -0.0070561911 0.74100006
-0.067840002 -0.0063600005 0.74200004
-0.062893339 -0.0063600009 0.74200004
-0.059904765 -0.0063428576 0.74000001
-0.096552387 -0.0028190478 0.74000001
-0.092385247 -0.0028214287 0.74049991
-0.087589234 -0.0028267261 0.74168748
-0.082707226 -0.0028286511 0.74225008
-0.077753395 -0.0028275596 0.74218744
-0.072786681 -0.0028266672 0.74200004
-0.067873687 -0.0028283333 0.74237496
-0.062702276 -0.0027734805 0.74230766
-0.059904765 -0.0030539683 0.74000001
-0.091619059 0.00070476194 0.74000001
-0.08689072 0.0015859526 0.74024999
-0.08238259 0.0017131977 0.74114293
-0.077744223 0.0013099323 0.74114293
-0.073090009 0.0010585715 0.74150002
-0.067749523 0.0011755556 0.74100006
-0.063074291 0.0012693334 0.74080008
-0.059904765 0.00070476194 0.74000001
