# .PCD v0.7 - Point Cloud Data file format
VERSION 0.7
FIELDS x y z
SIZE 4 4 4
TYPE F F F
COUNT 1 1 1
WIDTH 737
HEIGHT 1
VIEWPOINT 0 0 0 1 0 0 0
POINTS 737
DATA ascii
-0.11108573 0.0080228578 0.648
-0.10762973 0.0082697161 0.64799994
-0.11096229 0.011478859 0.648
-0.10732144 0.012335358 0.64762491
-0.10267071 0.01267348 0.64792305
-0.099360004 0.011725715 0.648
-0.10652977 0.016495954 0.64749998
-0.10272747 0.01676159 0.64783329
-0.10136508 0.021178097 0.64766669
-0.099360004 0.021600001 0.648
-0.11380858 -0.00062190479 0.65300006
-0.12064953 0.003109524 0.65300012
-0.11709477 0.0023075514 0.65250003
-0.11262091 0.0027472794 0.65178573
-0.1076993 0.0031059529 0.65241671
-0.102718 0.0029700533 0.65277779
-0.098979823 0.003849905 0.65200001
-0.12002762 0.0074628578 0.65300006
-0.11737612 0.0074521443 0.65208334
-0.11344477 0.0070590484 0.65020007
-0.1071275 0.0059364638 0.65128583
-0.10274716 0.0074484535 0.65187508
-0.098184325 0.0077793417 0.65153849
-0.09486001 0.0086800009 0.65100002
-0.11604743 0.01156743 0.65300006
-0.11306084 0.012717977 0.65137506
-0.10173017 0.010936509 0.65000004
-0.097804837 0.01243797 0.65080005
-0.09486001 0.013020001 0.65100002
-0.11127834 0.016785478 0.65275007
-0.10840532 0.017964492 0.65042865
-0.10183334 0.018880952 0.65000004
-0.097420923 0.017375099 0.65155005
-0.092832386 0.018939048 0.65200001
-0.10665175 0.021745717 0.65233338
-0.10342738 0.022829764 0.65225005
-0.097271338 0.02236647 0.65142113
-0.092521906 0.021871325 0.65200001
-0.10510191 0.025498098 0.65300006
-0.1021473 0.026313972 0.65266675
-0.09766572 0.027145987 0.65200007
-0.093907624 0.025498098 0.65300006
-0.11156168 -0.0009378572 0.65625
-0.10933334 -0.00062476192 0.65600002
-0.1239862 0.0031319053 0.65750003
-0.11112238 0.00062428578 0.65550005
-0.10698334 0.0021833335 0.65500003
-0.12596001 0.0075200005 0.65800005
-0.12283007 0.0075035384 0.65657151
-0.12216286 0.012005801 0.65718192
-0.11804458 0.013116764 0.65580004
-0.12094668 0.015666667 0.65800005
-0.11733429 0.016908659 0.65754551
-0.11337937 0.017983599 0.65611118
-0.11172747 0.021510318 0.65783334
-0.10800712 0.022920692 0.65690917
-0.10693091 0.02748053 0.65744448
-0.1027156 0.028566787 0.65562505
-0.096066669 0.02744762 0.65500003
-0.10653334 0.030706668 0.65800005
-0.10221914 0.031912819 0.65700006
-0.098623954 0.03186449 0.65600002
-0.10214667 0.036973335 0.65800011
-0.099589527 0.036953971 0.65766668
-0.099134289 -0.015785715 0.66300005
-0.10102858 -0.012628572 0.66300005
-0.097482868 -0.012288573 0.66300005
-0.093767151 -0.011681429 0.66300005
-0.10039715 -0.0088400003 0.66300005
-0.096716933 -0.0084862448 0.66277784
-0.09255325 -0.0082071442 0.66290009
-0.13031144 0.0037771431 0.66100001
-0.12755935 0.0035062591 0.66071433
-0.13041002 0.0062995246 0.66150004
-0.12800725 0.0075520002 0.66080004
-0.13070573 0.010734286 0.66300005
-0.12688796 0.0121218 0.66211116
-0.12338763 0.014479049 0.66100001
-0.12201096 0.01722016 0.66150004
-0.11850096 0.01908635 0.6606667
-0.11639789 0.022215029 0.66222227
-0.11304794 0.023700638 0.6606667
-0.11180573 0.027321275 0.66200012
-0.10882524 0.028936669 0.66050005
-0.11050001 0.030940002 0.66300005
-0.10666192 0.033034157 0.6615715
-0.10329525 0.034152385 0.66000003
-0.10655048 0.036567621 0.66200006
-0.10371429 0.036771432 0.66000003
-0.08091715 -0.021025715 0.66900003
-0.078368574 -0.021344287 0.66900003
-0.10664049 -0.015869047 0.66650003
-0.10247947 -0.017504763 0.66657144
-0.097627431 -0.017801566 0.66749996
-0.093170561 -0.017480148 0.66830778
-0.081341915 -0.019326668 0.66900003
-0.078714609 -0.018882222 0.66833347
-0.10698887 -0.012437812 0.6663
-0.10394525 -0.012676192 0.66549999
-0.096477792 -0.014144446 0.66500008
-0.092076048 -0.013003334 0.66600001
-0.088857025 -0.013195596 0.66762507
-0.10616334 -0.0085809529 0.66750008
-0.10303493 -0.0082499478 0.66644448
-0.098246992 -0.0065615885 0.66700006
-0.093053661 -0.0069895247 0.66766679
-0.089300007 -0.0095000006 0.66500002
-0.13138406 0.013029763 0.66725004
-0.12840161 0.014173016 0.66633338
-0.1306143 0.015928572 0.66900003
-0.12689728 0.017332975 0.66787505
-0.12346915 0.018653905 0.66619998
-0.12551714 0.021025715 0.66900003
-0.12224001 0.02294242 0.6676923
-0.1187223 0.023187431 0.6652
-0.12084477 0.026547622 0.66900003
-0.11752018 0.027951907 0.667
-0.11408572 0.029155716 0.66549999
-0.11627858 0.031538572 0.66900003
-0.11257762 0.032226827 0.66783333
-0.10917905 0.033642858 0.66650003
-0.11065049 0.036741909 0.66900009
-0.10830811 0.037796669 0.66700006
-0.080880009 -0.030169526 0.67400002
-0.077242553 -0.030169528 0.67400002
-0.072107308 -0.030597461 0.67400002
-0.096927628 -0.025034288 0.67400002
-0.091471441 -0.02535524 0.67400002
-0.087249696 -0.026811874 0.67399997
-0.082102388 -0.027582383 0.6735
-0.076844692 -0.027392384 0.67369223
-0.072535247 -0.026960004 0.67399997
-0.096000008 -0.02240254 0.67200005
-0.092182234 -0.022407463 0.67216671
-0.087013058 -0.022628281 0.67292303
-0.082371607 -0.023338098 0.67133331
-0.077556282 -0.023413073 0.671
-0.074059054 -0.022611432 0.67285717
-0.091600239 -0.019469287 0.67025
-0.087736472 -0.017637424 0.67129415
-0.083134472 -0.017717663 0.67100006
-0.077142864 -0.017382687 0.67145455
-0.07434953 -0.019869525 0.67300004
-0.085886672 -0.014741906 0.67300004
-0.081890285 -0.014480764 0.6728
-0.077595405 -0.01385508 0.67150009
-0.074768573 -0.014698097 0.671
-0.10228739 -0.0057535721 0.67125005
-0.092800006 -0.0057600006 0.67200005
-0.10186501 -0.0030473811 0.67374992
-0.097433768 -0.0025620838 0.67306244
-0.092434295 -0.0019257145 0.67399997
-0.10222334 0.0014442859 0.67400002
-0.09756954 0.0025676191 0.67399991
-0.092434295 0.0025676191 0.67399991
-0.087543167 0.0028111357 0.67323071
-0.09735477 0.0064045242 0.67250001
-0.092140205 0.0067927623 0.6728
-0.088368893 0.0066330167 0.67400002
-0.13180748 0.018344287 0.6718334
-0.12881112 0.01894889 0.67066669
-0.13090223 0.022423495 0.67266673
-0.12764516 0.022801509 0.67125005
-0.12442858 0.024885716 0.67000002
-0.12699842 0.026251748 0.67233342
-0.12255124 0.028084574 0.67020005
-0.12078001 0.031952381 0.671
-0.1179987 0.033052266 0.67062503
-0.11358096 0.03381905 0.67000002
-0.11678777 0.036068305 0.67114288
-0.11333392 0.037181146 0.67080003
-0.080833338 -0.035566669 0.67900002
-0.098940007 -0.031686667 0.67900002
-0.091611117 -0.030824449 0.67900008
-0.087495908 -0.031360094 0.67750001
-0.082532316 -0.032370992 0.67661554
-0.077374369 -0.032518499 0.67608345
-0.072157629 -0.031732142 0.67650008
-0.068728261 -0.030809527 0.67866677
-0.10023334 -0.029100003 0.67900002
-0.097116724 -0.027472897 0.67807692
-0.092845343 -0.027469335 0.67699999
-0.08891286 -0.02899286 0.67650002
-0.070097387 -0.02700929 0.67524999
-0.068407498 -0.027344083 0.67671436
-0.071244657 -0.022124868 0.67666668
-0.069193341 -0.023280002 0.67900002
-0.075437143 -0.016761906 0.67700005
-0.073059648 -0.018383691 0.67737502
-0.086914532 -0.012414524 0.67725003
-0.082610823 -0.012136191 0.6771819
-0.077855632 -0.011967239 0.67560005
-0.082106836 -0.0090509532 0.67883337
-0.079481438 -0.0090461913 0.67850006
-0.10597572 -0.0025847619 0.67850006
-0.10328572 -0.0019285716 0.67500007
-0.090642862 -0.00064285717 0.67500001
-0.088374607 -0.00064507942 0.67733335
-0.08614286 0.0019285716 0.67500001
-0.095785722 0.008357143 0.67500001
-0.092717789 0.0088212704 0.67766666
-0.088893339 0.0092552379 0.67800009
-0.096340477 -0.035802387 0.68350005
-0.093154296 -0.035828575 0.68400002
-0.086283103 -0.036141194 0.68375003
-0.082151569 -0.036854427 0.68228585
-0.078093149 -0.035994861 0.68220007
-0.073177144 -0.035828575 0.68400002
-0.067748576 -0.035828575 0.68400002
-0.10038096 -0.031085715 0.68000001
-0.09676826 -0.032114923 0.68116677
-0.092895716 -0.033002954 0.6821
-0.087726675 -0.034009844 0.68233341
-0.0848381 -0.034323812 0.68000001
-0.075771436 -0.034323812 0.68000001
-0.07272324 -0.034215432 0.68300009
-0.067222349 -0.032837294 0.68223083
-0.06277319 -0.032213341 0.68384624
-0.10121548 -0.027899764 0.68125004
-0.066477992 -0.027066138 0.68211108
-0.064491436 -0.027360002 0.68400002
-0.067333139 -0.02191939 0.68264288
-0.064491436 -0.024102859 0.68400002
-0.071593031 -0.01708762 0.6813333
-0.068524644 -0.017741786 0.68362504
-0.089115247 -0.011058096 0.68300003
-0.077520005 -0.011074287 0.68400002
-0.072933331 -0.013023097 0.68375003
-0.069702864 -0.013680002 0.68400002
-0.091851428 -0.0058628577 0.68400002
-0.087406822 -0.0076161921 0.68271434
-0.082735136 -0.0069950274 0.68166667
-0.078417152 -0.0079072118 0.68371433
-0.090416193 -0.0045533339 0.68300003
-0.086904772 -0.0028786401 0.68242866
-0.082057334 -0.0026044645 0.6838125
-0.077780575 -0.0023451429 0.68400002
-0.073193885 -0.001209388 0.68357152
-0.069600955 -0.00065047626 0.68300003
-0.085646033 0.0010841271 0.68300003
-0.081413701 0.0017908334 0.68387502
-0.077482224 0.0019526985 0.68366671
-0.073550485 0.0013948302 0.68342865
-0.096200481 0.0097500011 0.6825
-0.093257152 0.0097142868 0.68000001
-0.096565723 0.012804233 0.6835556
-0.092666835 0.0126548 0.68261546
-0.096411437 0.016285716 0.68400002
-0.09445715 0.016285716 0.68400002
-0.087929532 -0.040027622 0.68900001
-0.081367627 -0.040027622 0.68900001
-0.076774292 -0.040027626 0.68900001
-0.07196223 -0.041340001 0.68900007
-0.067587629 -0.040027626 0.68900001
-0.062994294 -0.040683813 0.68900001
-0.059713338 -0.040027622 0.68900001
-0.092086539 -0.037677281 0.68714297
-0.08814989 -0.037778694 0.68687499
-0.082578108 -0.038565397 0.68633342
-0.076941781 -0.038050342 0.68714297
-0.072433554 -0.037997145 0.68655556
-0.067666672 -0.037800003 0.68600005
-0.06274572 -0.03762953 0.68628573
-0.059713341 -0.037402861 0.68900001
-0.090813339 -0.03462667 0.68600005
-0.089506671 -0.03462667 0.68600005
-0.061631113 -0.034191117 0.68600005
-0.059713341 -0.033028256 0.68900001
-0.062399812 -0.027732765 0.6868
-0.06360963 -0.02217344 0.68699998
-0.066802315 -0.016349254 0.68671435
-0.064962864 -0.018373333 0.68900001
-0.076440006 -0.011106667 0.68600005
-0.067913756 -0.012301694 0.68788892
-0.076320484 -0.0077103809 0.68610001
-0.072205305 -0.0076586409 0.68657148
-0.069302671 -0.0087769544 0.68780011
-0.075786673 -0.00392 0.68600005
-0.072370484 -0.0041422229 0.68666673
-0.068900004 -0.0045933337 0.68900001
-0.082973339 0.00065333338 0.68600005
-0.096693337 0.017640002 0.68600005
-0.094733343 0.017640002 0.68600005
-0.086584769 -0.045605719 0.69400001
-0.082619056 -0.045605719 0.69400001
-0.07799238 -0.045605719 0.69400001
-0.072549053 -0.045507144 0.69250005
-0.067783818 -0.045408573 0.6910001
-0.061349846 -0.0455181 0.69266671
-0.057238478 -0.046134483 0.69400001
-0.091718383 -0.040648982 0.69000012
-0.086878583 -0.042562064 0.69283336
-0.082783386 -0.042383727 0.69236368
-0.077799276 -0.042570263 0.69092315
-0.072247729 -0.042735565 0.69033337
-0.067116439 -0.042772628 0.69091672
-0.062025238 -0.04327096 0.69100004
-0.057723686 -0.042189255 0.69214284
-0.05485905 -0.042300954 0.69400001
-0.057335455 -0.037564874 0.69200003
-0.05485905 -0.038335241 0.69400001
-0.058334645 -0.033123456 0.69212508
-0.060821276 -0.026128573 0.69166672
-0.059255879 -0.028310796 0.69133341
-0.061528713 -0.022521092 0.69257146
-0.065057144 -0.01577143 0.69000006
-0.063278452 -0.0171375 0.69212502
-0.065456435 -0.012499287 0.69075006
-0.063528202 -0.012811619 0.69340008
-0.066712759 -0.0077492315 0.69146156
-0.064089291 -0.0079278573 0.69375002
-0.070971429 -0.0026285718 0.69000006
-0.067311361 -0.0026388438 0.69292861
-0.064112388 -0.0033047623 0.69400001
-0.068342485 0.0011897143 0.69400001
-0.082430482 -0.051851429 0.69800001
-0.057793334 -0.051482383 0.69749999
-0.086733483 -0.047112796 0.69671434
-0.082390621 -0.048071031 0.69685721
-0.077356197 -0.048432004 0.69660008
-0.072615653 -0.047622185 0.69585723
-0.065717146 -0.045802861 0.69700003
-0.062088292 -0.047893818 0.69650006
-0.057512503 -0.048895359 0.69612509
-0.053002544 -0.047041278 0.69566679
-0.052401435 -0.042453334 0.69650006
-0.049857147 -0.041215241 0.69800001
-0.055679053 -0.035131432 0.69600004
-0.052626226 -0.037109308 0.6967693
-0.049857147 -0.036561906 0.69800001
-0.056201592 -0.032526985 0.69700003
-0.052848574 -0.03357048 0.69800001
-0.049857147 -0.033902861 0.69800001
-0.057157688 -0.027205581 0.69671434
-0.060233336 -0.02184286 0.69500005
-0.058015812 -0.02283429 0.69700003
-0.060938571 -0.017222859 0.69550008
-0.058456674 -0.017271429 0.69749999
-0.061278511 -0.012407212 0.69614297
-0.058831431 -0.012630478 0.69800001
-0.061666429 -0.0079573812 0.69625014
-0.059163816 -0.0077555566 0.69800007
-0.065528579 -0.00066190481 0.69500005
-0.061868645 -0.0024982418 0.69623083
-0.059163816 -0.0033238097 0.69800007
-0.066852383 0.0031771429 0.69500011
-0.063037865 0.0026548412 0.69675004
-0.067710042 0.0080238832 0.69753855
-0.063295722 0.0071440479 0.69774997
-0.069800004 0.011300953 0.69800001
-0.052967623 -0.055649526 0.70400006
-0.086000003 -0.050666671 0.70000005
-0.082666665 -0.052000009 0.70000005
-0.077135034 -0.051794294 0.70022225
-0.072940961 -0.051083814 0.7026667
-0.067431055 -0.050807815 0.70380008
-0.062646583 -0.05207637 0.70181823
-0.057232004 -0.052696764 0.70040005
-0.052476469 -0.052193616 0.70257157
-0.047762744 -0.051785361 0.70387506
-0.090128578 -0.048736192 0.70100003
-0.08866667 -0.048666671 0.70000005
-0.070050001 -0.048033811 0.70050001
-0.067574769 -0.048171908 0.70250005
-0.064666674 -0.048666671 0.70000005
-0.050000004 -0.047333341 0.70000005
-0.047407832 -0.047409102 0.70111114
-0.044794291 -0.046800956 0.70200002
-0.050000004 -0.044000003 0.70000005
-0.047394525 -0.042723253 0.70091677
-0.044794291 -0.044126667 0.70200002
-0.050000004 -0.038000003 0.70000005
-0.047777783 -0.038444448 0.70000005
-0.055333339 -0.031333335 0.70000005
-0.052263815 -0.031357568 0.7005555
-0.055333339 -0.028000001 0.70000005
-0.052807096 -0.027407939 0.70188898
-0.055777784 -0.022222225 0.70000005
-0.05260938 -0.022782125 0.70200008
-0.05612893 -0.017372023 0.70162505
-0.054308575 -0.018102858 0.70400006
-0.056661129 -0.01196433 0.70145464
-0.057053246 -0.0074818106 0.70150006
-0.054308575 -0.0087161912 0.70400006
-0.057809286 -0.0026747622 0.70175004
-0.060666669 0.0026666666 0.70000005
-0.058247361 0.0028556716 0.70154554
-0.067333341 0.0086666672 0.70000005
-0.061000001 0.007666667 0.70000005
-0.058534842 0.0071620424 0.70185721
-0.070000008 0.013333335 0.70000005
-0.0673654 0.012673335 0.70033342
-0.062727563 0.012012202 0.70068759
-0.05890727 0.012049882 0.70287508
-0.070066676 0.016683176 0.70066667
-0.067299224 0.017174028 0.7009092
-0.062789172 0.017368214 0.70137513
-0.059085529 0.016480191 0.70340008
-0.06570667 0.020784764 0.70400006
-0.062935241 0.020755239 0.70300001
-0.056943055 0.032824192 0.70340008
-0.051939812 0.03306324 0.70280004
-0.047388956 0.032527622 0.7028001
-0.043031707 0.032415785 0.70285726
-0.055412386 0.037386667 0.70100003
-0.052060898 0.037376493 0.70081258
-0.04733881 0.037337542 0.70008337
-0.04336445 0.037359208 0.70050001
-0.051659435 0.041914668 0.70080012
-0.047517143 0.041848812 0.70025003
-0.044222228 0.041111115 0.70000005
-0.051920004 -0.060011432 0.70800006
-0.047178414 -0.060881592 0.70766675
-0.042300001 -0.061100002 0.7050001
-0.039782859 -0.060011432 0.708
-0.07587143 -0.055728573 0.70500004
-0.071785957 -0.056957386 0.70775002
-0.068102859 -0.055965718 0.70800006
-0.056600481 -0.055926196 0.70749998
-0.05216229 -0.057137337 0.7058
-0.047236115 -0.057689596 0.70623076
-0.042608138 -0.057725653 0.70669228
-0.039782859 -0.057988577 0.708
-0.07587143 -0.054385718 0.70500004
-0.072203815 -0.054040961 0.70633334
-0.06747207 -0.05357619 0.70611119
-0.064057149 -0.054617148 0.708
-0.057071432 -0.054385718 0.7050001
-0.050357144 -0.052371431 0.70500004
-0.047335718 -0.053378575 0.70500004
-0.043068815 -0.052491788 0.70662493
-0.039782859 -0.053942859 0.708
-0.043205585 -0.048402861 0.70728576
-0.050500002 -0.030300003 0.70700002
-0.050404765 -0.027555875 0.70566672
-0.049014289 -0.026857145 0.70500004
-0.050357144 -0.022604764 0.7050001
-0.048411433 -0.022862859 0.70599997
-0.052340157 -0.017446671 0.70669234
-0.04922286 -0.018880002 0.708
-0.053279657 -0.012296106 0.70654553
-0.053670287 -0.0071297148 0.70620006
-0.056028761 -0.0022840004 0.70539999
-0.054270674 -0.0030954289 0.70699996
-0.056155242 0.0022912382 0.70700002
-0.05642534 0.0076760012 0.70700002
-0.054591432 0.0074136513 0.70766675
-0.056479059 0.012102858 0.70599997
-0.054017149 0.011843539 0.70771432
-0.057209186 0.017927967 0.70672733
-0.054167625 0.017756192 0.70800006
-0.065907814 0.023317715 0.70760006
-0.062432196 0.023278859 0.70639992
-0.057931848 0.0229028 0.70731241
-0.053020883 0.023062784 0.70746154
-0.04922286 0.024948573 0.708
-0.065926671 0.027907241 0.70780003
-0.062620007 0.027606666 0.70700002
-0.057913255 0.027609764 0.70708323
-0.052508101 0.027599839 0.7068333
-0.047327094 0.028036932 0.7065556
-0.042801671 0.028646907 0.70775002
-0.066465721 0.03208724 0.70780003
-0.062591121 0.032305084 0.70666659
-0.058048062 0.031923383 0.70499998
-0.052819051 0.030661907 0.70500004
-0.048342861 0.030214287 0.70500004
-0.041686669 0.030257145 0.70600003
-0.039232194 0.031412385 0.70780003
-0.065824449 0.036169842 0.70766664
-0.062389214 0.037224341 0.7077778
-0.058353513 0.037455678 0.70572728
-0.056957386 0.041454051 0.70775002
-0.054385718 0.042300005 0.70500004
-0.072163053 -0.060790479 0.71079999
-0.067468584 -0.061198816 0.71200001
-0.062437553 -0.061078642 0.71371436
-0.057100002 -0.061518811 0.71375012
-0.052611843 -0.062107898 0.71214288
-0.049570478 -0.063151434 0.71300006
-0.075614296 -0.058008578 0.71100008
-0.07190159 -0.058377784 0.71000004
-0.067445196 -0.057972807 0.71055561
-0.062384289 -0.057639688 0.71200013
-0.05777511 -0.057967763 0.71128577
-0.054848574 -0.058911432 0.71100003
-0.039029844 -0.05662794 0.71066666
-0.038028315 -0.052205455 0.71190912
-0.041918777 -0.046566401 0.71157151
-0.038364291 -0.049230479 0.713
-0.036040001 -0.044200003 0.71400005
-0.047600001 -0.036493339 0.71400011
-0.050785717 -0.031825718 0.71100003
-0.047498219 -0.032571554 0.71250015
-0.043617148 -0.032931436 0.71400011
-0.046938173 -0.027484365 0.71258342
-0.044200003 -0.029240001 0.71400005
-0.050714288 -0.016904764 0.71000004
-0.048067741 -0.017264167 0.71087503
-0.051013339 -0.01177181 0.71040004
-0.048618309 -0.012437144 0.71233338
-0.051558416 -0.0074612703 0.71233338
-0.049570478 -0.0088276193 0.71300006
-0.05209481 -0.002528745 0.71209103
-0.049640004 -0.00068000006 0.71400005
-0.052838035 0.0027095834 0.71131259
-0.049151909 0.002718572 0.71350002
-0.052335121 0.0072825006 0.711375
-0.051881786 0.012715358 0.71212506
-0.071300007 0.019692382 0.71300006
-0.069941908 0.019692382 0.71300006
-0.052451067 0.017552895 0.71100003
-0.048914291 0.018342225 0.71333337
-0.075480007 0.023800002 0.71400005
-0.072539777 0.02259405 0.71350014
-0.069036514 0.022335557 0.71066678
-0.050738096 0.022324767 0.71033335
-0.047492307 0.022389922 0.71241683
-0.042568006 0.023528002 0.71400005
-0.03738036 0.022597501 0.71362507
-0.032924496 0.023212383 0.71385729
-0.075480007 0.027200002 0.71400005
-0.07263343 0.02715151 0.71275014
-0.06861458 0.026796097 0.7105
-0.046678733 0.025706988 0.71033335
-0.042022385 0.026162952 0.71170002
-0.037670821 0.027307281 0.71178585
-0.032930627 0.026772236 0.71238476
-0.028746352 0.025577463 0.71300006
-0.075898103 0.031039052 0.71366668
-0.072625086 0.03258048 0.71266687
-0.069213174 0.032915719 0.71016669
-0.036539525 0.030450001 0.7105
-0.034534287 0.030471431 0.71100003
-0.067117631 0.037963338 0.71183336
-0.06290786 0.039571192 0.71025002
-0.065960005 0.041480001 0.71400005
-0.061758105 0.042172793 0.71257144
-0.057877339 0.043510102 0.71160001
-0.054848574 0.04401429 0.71100003
-0.04401429 0.04401429 0.71100003
-0.055465717 -0.071900003 0.71900004
-0.06278953 -0.066621915 0.71820009
-0.056625005 -0.067574054 0.71850002
-0.053411432 -0.067106672 0.71900004
-0.049987622 -0.066421911 0.71900004
-0.044509526 -0.065052383 0.71900004
-0.062859789 -0.063921794 0.7165556
-0.057606947 -0.06423524 0.71642864
-0.052580006 -0.06487143 0.71700001
-0.047750719 -0.063780718 0.71625
-0.042424291 -0.063638575 0.71850008
-0.036292382 -0.054096196 0.71900004
-0.034825716 -0.052580003 0.71700001
-0.040232383 -0.04636953 0.71600002
-0.037365291 -0.047217358 0.71622223
-0.04575143 -0.040288575 0.71700001
-0.042314645 -0.04231501 0.71662503
-0.037729956 -0.042204767 0.7179091
-0.04575143 -0.037557144 0.71700001
-0.042317148 -0.03754016 0.7166667
-0.038346671 -0.03766191 0.71900004
-0.041450616 -0.032867216 0.71685719
-0.038467623 -0.034370478 0.71700001
-0.043345243 -0.027305478 0.71675003
-0.046454921 -0.022544447 0.71733332
-0.044053018 -0.022140637 0.71900004
-0.04629175 -0.017787304 0.71833342
-0.044053018 -0.018260319 0.71900004
-0.046390895 -0.012014015 0.71785718
-0.044509526 -0.012325714 0.71900004
-0.047818195 -0.0075145722 0.7173
-0.044509526 -0.0089019053 0.71900004
-0.047701091 -0.0028706032 0.71760005
-0.047571756 0.0027323812 0.71700001
-0.05114286 0.0088647623 0.71600002
-0.048533972 0.0075202123 0.71777779
-0.05114286 0.010228572 0.71600002
-0.048133817 0.012399253 0.7176429
-0.077061914 0.019299239 0.71860009
-0.073800489 0.018790478 0.71750003
-0.04697324 0.017340859 0.71690005
-0.042582382 0.018981431 0.71825004
-0.037761059 0.018309208 0.71799994
-0.033187147 0.018988336 0.71850002
-0.081682317 0.022597145 0.71900004
-0.077570491 0.022520108 0.7165556
-0.074327625 0.02113905 0.71600002
-0.041985855 0.02172354 0.71600002
-0.037504766 0.02113905 0.71600002
-0.032322291 0.021411812 0.71600002
-0.028880572 0.022309905 0.71860009
-0.023966668 0.023966668 0.71900004
-0.081486672 0.027097011 0.71900004
-0.078168571 0.027010668 0.71620005
-0.080117151 0.030814288 0.71900004
-0.077334292 0.033119526 0.71700001
-0.076008573 0.036292382 0.71900004
-0.071764179 0.037247978 0.71762502
-0.068872385 0.038868573 0.71600002
-0.061028574 -0.070628576 0.72000003
-0.059657145 -0.070628576 0.72000003
-0.051428575 -0.072000004 0.72000003
-0.047445722 -0.070824765 0.72200006
-0.061028574 -0.067885719 0.72000003
-0.059657149 -0.067885719 0.72000003
-0.050514292 -0.067885719 0.72000003
-0.047391277 -0.067310646 0.72116679
-0.042960573 -0.066021152 0.72060007
-0.040457144 -0.03154286 0.72000003
-0.037146576 -0.032056481 0.72230011
-0.04107701 -0.027156467 0.72057158
-0.037163608 -0.027234353 0.72264296
-0.033740006 -0.028231433 0.72300005
-0.042083174 -0.022836827 0.72177786
-0.037706353 -0.023021905 0.72277784
-0.041645717 -0.017593909 0.72160006
-0.038532861 -0.017890479 0.72250009
-0.04190556 -0.012364129 0.7213335
-0.038580824 -0.012664083 0.72157156
-0.045942862 -0.0061714291 0.72000003
-0.042860109 -0.0075635975 0.72200006
-0.039248575 -0.0089514293 0.72300005
-0.043121099 -0.0025920148 0.72223091
-0.045974765 0.0027461904 0.72050005
-0.042977694 0.0025570071 0.72285724
-0.045985401 0.007548572 0.72066677
-0.04283455 0.0076911696 0.72227281
-0.045942862 0.011657143 0.72000003
-0.042597923 0.012366965 0.72143757
-0.037839245 0.013071432 0.72240013
-0.091186538 0.018788166 0.72300011
-0.087448582 0.019280002 0.72300005
-0.082528219 0.019256074 0.72212505
-0.07766445 0.017181907 0.72166675
-0.042357862 0.016634051 0.72025013
-0.036799766 0.016164524 0.72225004
-0.032273337 0.016936194 0.72100008
-0.027346669 0.018000511 0.72146672
-0.024055555 0.018097462 0.72166675
-0.091510057 0.022705188 0.72244453
-0.087274708 0.022677038 0.72155559
-0.083832867 0.022332858 0.72150004
-0.026402993 0.022870479 0.72142863
-0.024000002 0.021942858 0.72000003
-0.09086024 0.026156906 0.72275007
-0.087171316 0.026650835 0.72212505
-0.083742186 0.028176466 0.72157156
-0.08184395 0.032324493 0.72214293
-0.08056286 0.035805717 0.72300005
-0.043269843 -0.068817466 0.72500002
-0.037285715 -0.029690478 0.72500002
-0.033833336 -0.02554762 0.72500002
-0.035766672 -0.021128574 0.72500002
-0.033639621 -0.022010287 0.72680008
-0.035920955 -0.017269526 0.72533333
-0.033626191 -0.017331906 0.72800004
-0.036238734 -0.012233651 0.72711116
-0.034020003 -0.01319143 0.72900003
-0.040738098 -0.0069047622 0.72500002
-0.037234202 -0.0074977498 0.72772741
-0.040738098 -0.0034523811 0.72500008
-0.037408397 -0.0027713689 0.72743756
-0.034020003 -0.0013885716 0.72900003
-0.040738098 0.0041428572 0.72500002
-0.037391793 0.002769643 0.72712499
-0.040738098 0.0062142862 0.72500002
-0.037380882 0.0076151593 0.72691673
-0.092161141 0.013264573 0.72539991
-0.086915724 0.014100477 0.7281667
-0.082597725 0.014020572 0.7288
-0.079040483 0.013865715 0.72800004
-0.03617572 0.011290002 0.72583336
-0.032688763 0.012879619 0.72719997
-0.027492912 0.013630055 0.72777778
-0.024300002 0.012497144 0.72900003
-0.096875064 0.017600384 0.7276001
-0.093246907 0.016922383 0.72525001
-0.087346941 0.01648218 0.72542864
-0.082642727 0.016685717 0.72571427
-0.078980953 0.016348572 0.72533339
-0.032452382 0.015880954 0.72500002
-0.029690478 0.015880954 0.72500002
-0.10011905 0.020714287 0.72500002
-0.097234413 0.021242978 0.725375
-0.094595246 0.022095239 0.72500002
-0.096373342 0.027040001 0.72800004
-0.092517965 0.028005308 0.72728574
-0.088066429 0.029355478 0.72525001
-0.087681524 0.032690097 0.72720003
-0.084468268 0.032452386 0.72500008
-0.032024764 -0.016012382 0.73100001
-0.032256827 -0.012299365 0.73100001
-0.032720957 -0.007658096 0.73100001
-0.029936193 -0.0076580956 0.73100001
-0.031895753 -0.0028403662 0.73176932
-0.029936193 -0.0048733335 0.73100001
-0.032205716 0.0028355557 0.73200005
-0.085982859 0.0090876194 0.73400003
-0.032467812 0.0075243809 0.73159999
-0.027904766 0.0083709527 0.73250008
-0.022497525 0.0085234297 0.73360002
-0.018874288 0.0090876194 0.73400003
-0.087903954 0.0120449 0.73171437
-0.082379632 0.012126667 0.73180002
-0.032024764 0.010442858 0.73100001
-0.028145989 0.011039593 0.73100007
-0.022126429 0.011324049 0.73175001
-0.095378101 0.029240001 0.73100001
-0.093985721 0.029240001 0.73100001
-0.027829207 -0.0016365082 0.7366668
-0.022460952 -0.00070190482 0.73700005
-0.018925715 -0.00070095243 0.73600006
-0.082198426 0.0049177781 0.73766673
-0.079530485 0.0049266671 0.73900002
-0.030140955 0.0021028572 0.73600006
-0.027358495 0.0028053175 0.73658341
-0.022455301 0.002806369 0.73681259
-0.017651256 0.0029949788 0.73600006
-0.014379049 0.0038585719 0.73650002
-0.091178738 0.0082028583 0.7383334
-0.087404229 0.0077255787 0.73757148
-0.08259248 0.0078437235 0.73663646
-0.077986136 0.0081287082 0.73771435
-0.027337145 0.0063085719 0.73600006
-0.02233878 0.0071121091 0.73628581
-0.017531749 0.0070126988 0.73633337
-0.014780001 0.007038096 0.73900002
-0.090422861 0.010514286 0.73600006
-0.088320002 0.010514286 0.73600006
-0.082712382 0.010514286 0.73600006
-0.07877557 0.01098635 0.73633337
-0.088027254 0.004662286 0.74180007
-0.076617703 0.0039265309 0.74000007
-0.090914294 0.0063428576 0.74000001
-0.088800006 0.0063428576 0.74000001
-0.07692191 0.0067038098 0.74100006
