# .PCD v0.7 - Point Cloud Data file format
VERSION 0.7
FIELDS x y z
SIZE 4 4 4
TYPE F F F
COUNT 1 1 1
WIDTH 624
HEIGHT 1
VIEWPOINT 0 0 0 1 0 0 0
POINTS 624
DATA ascii
-0.03265667 -0.035890002 0.67900002
-0.032980002 -0.033626668 0.67900002
-0.051462859 -0.041040003 0.68400002
-0.023668572 -0.042777147 0.68400002
-0.08142858 -0.036480002 0.68400002
-0.077845715 -0.036154289 0.68400002
-0.073177144 -0.035828575 0.68400002
-0.066836581 -0.036349718 0.68400002
-0.062406864 -0.036870863 0.68400002
-0.057325721 -0.036480002 0.68400002
-0.052035395 -0.037311431 0.68361545
-0.047538418 -0.037119582 0.68377781
-0.043124575 -0.036349718 0.68400002
-0.037529945 -0.0366618 0.68333334
-0.03255273 -0.038108576 0.68236369
-0.028347757 -0.036899872 0.6831429
-0.081689142 -0.033092573 0.68400002
-0.077401564 -0.032749094 0.68400002
-0.073137663 -0.033222862 0.68400002
-0.067618296 -0.032614861 0.68400007
-0.062537149 -0.032571428 0.68400002
-0.057282288 -0.03270172 0.68400007
-0.052066911 -0.032540835 0.68337494
-0.047501989 -0.032535478 0.68325007
-0.042904828 -0.032407053 0.68326676
-0.037676491 -0.032478992 0.68206257
-0.032030474 -0.031639621 0.68080008
-0.028707486 -0.032795377 0.68285722
-0.076217145 -0.029314287 0.68400002
-0.074914292 -0.029314287 0.68400002
-0.061560005 -0.028988574 0.68400002
-0.059280004 -0.029314287 0.68400002
-0.047182042 -0.028197551 0.68400007
-0.043099687 -0.027473399 0.68360001
-0.037741832 -0.027979761 0.68325007
-0.032493018 -0.027459621 0.6832667
-0.028011432 -0.027419221 0.68400002
-0.030617144 -0.024102859 0.68400002
-0.029314287 -0.024102859 0.68400002
-0.031497143 -0.045277145 0.68900001
-0.028190162 -0.045233335 0.68833339
-0.087710798 -0.040027626 0.68900001
-0.081367627 -0.040027622 0.68900001
-0.077430487 -0.040027622 0.68900001
-0.073165238 -0.040355716 0.68900001
-0.066931427 -0.040027622 0.68900001
-0.062066671 -0.041160002 0.68600005
-0.057876002 -0.041077524 0.68900007
-0.0525635 -0.041220002 0.68700004
-0.047647461 -0.041747462 0.68850005
-0.042340387 -0.041554477 0.6882
-0.037376668 -0.040981907 0.68849999
-0.032707792 -0.042477146 0.68809104
-0.027370775 -0.042394217 0.68807709
-0.021987014 -0.041288834 0.68818188
-0.097116187 -0.03674667 0.68900007
-0.092463598 -0.037379581 0.6885556
-0.087717786 -0.037313499 0.68733346
-0.082215481 -0.037104763 0.68650007
-0.076877557 -0.038018778 0.68657142
-0.072032392 -0.03772508 0.68688893
-0.068097346 -0.037773903 0.68620008
-0.06258934 -0.039330669 0.68600005
-0.057446811 -0.039139323 0.68657154
-0.052510798 -0.039872702 0.68633342
-0.046687812 -0.039626479 0.68660009
-0.042646457 -0.038433336 0.68655556
-0.038385082 -0.03925683 0.68700004
-0.030751431 -0.03991143 0.68700004
-0.027016873 -0.038797282 0.68714297
-0.02086686 -0.037140384 0.68900007
-0.019029524 -0.036090478 0.68900001
-0.10039715 -0.033465717 0.68900001
-0.097509913 -0.033596952 0.68900007
-0.092456035 -0.032784604 0.68850011
-0.087692037 -0.032719646 0.68712509
-0.082973346 -0.031795558 0.68600005
-0.079053335 -0.030706668 0.68600005
-0.072781339 -0.031229336 0.68600005
-0.069906674 -0.032013334 0.68600005
-0.05814667 -0.030706668 0.68600005
-0.043773334 -0.03462667 0.68600005
-0.026516428 -0.032411434 0.68750012
-0.020341907 -0.034121908 0.68900001
-0.01876705 -0.032415811 0.68900007
-0.10039715 -0.029528573 0.68900001
-0.091866672 -0.028872382 0.68900001
-0.087181911 -0.027947102 0.68827283
-0.082639739 -0.028140694 0.68718195
-0.077457428 -0.027220005 0.68757159
-0.0722664 -0.027296331 0.68714297
-0.067764498 -0.027664492 0.68700004
-0.063069768 -0.026904844 0.68625009
-0.057434741 -0.027341906 0.68686664
-0.052362382 -0.027488096 0.68725002
-0.048216004 -0.026264003 0.68600005
-0.041160002 -0.025480002 0.68600005
-0.037893333 -0.025480002 0.68600005
-0.033320002 -0.025480002 0.68600005
-0.026189048 -0.029464288 0.6875
-0.024279049 -0.028872382 0.68900001
-0.017717144 -0.029528573 0.68900001
-0.086617142 -0.024279049 0.68900001
-0.082680002 -0.024279049 0.68900001
-0.078742862 -0.024279049 0.68900001
-0.062600575 -0.024016574 0.68900007
-0.057744764 -0.024279049 0.68900001
-0.051966432 -0.023441669 0.68850005
-0.047100477 -0.022240119 0.6868751
-0.042170476 -0.022066398 0.68728578
-0.037722182 -0.022463541 0.68800014
-0.032991774 -0.022055583 0.68692863
-0.028107621 -0.02113492 0.68633336
-0.0819581 -0.045605719 0.69400001
-0.077935234 -0.045572862 0.69349998
-0.073365718 -0.045605719 0.69400001
-0.068078101 -0.045605719 0.69400001
-0.061468579 -0.045605719 0.69400001
-0.057707623 -0.046498574 0.6925
-0.051554289 -0.045605719 0.69400001
-0.047346354 -0.045583814 0.6936667
-0.041940004 -0.046399053 0.69350004
-0.037771672 -0.046680003 0.6927501
-0.033041585 -0.046963073 0.69233334
-0.027881637 -0.047220413 0.69000012
-0.10178667 -0.040318098 0.69400001
-0.097198024 -0.041626591 0.6919167
-0.092291825 -0.042264383 0.69120008
-0.087035879 -0.042530321 0.69233334
-0.08265572 -0.042187337 0.69209999
-0.077626601 -0.042761676 0.69075006
-0.072069295 -0.042673104 0.69108337
-0.067491755 -0.042212065 0.69250011
-0.062336065 -0.043664221 0.69314295
-0.057857148 -0.043173339 0.69033337
-0.052289803 -0.043277558 0.69000012
-0.046944764 -0.043654289 0.6910001
-0.041801233 -0.04349266 0.69042861
-0.037466511 -0.043382071 0.69016671
-0.033514287 -0.044028573 0.69000006
-0.017357714 -0.04116077 0.69040006
-0.012840953 -0.040501911 0.69150001
-0.10509144 -0.036352381 0.69400001
-0.10197036 -0.037395362 0.69187498
-0.097257152 -0.038771432 0.69000006
-0.084114291 -0.038771432 0.69000006
-0.025628572 -0.03614286 0.69000006
-0.023375513 -0.037644904 0.69000012
-0.016923638 -0.037616801 0.69072729
-0.012680715 -0.037718099 0.69174999
-0.10509144 -0.033708572 0.69400001
-0.10216659 -0.032857664 0.69127274
-0.096600011 -0.03154286 0.69000006
-0.025628572 -0.033514287 0.69000006
-0.022624495 -0.032669391 0.69000018
-0.016433146 -0.033260956 0.69020003
-0.013800001 -0.034828573 0.69000006
-0.10575239 -0.029742859 0.69400001
-0.10190205 -0.02799565 0.69285721
-0.09744329 -0.027650183 0.69131255
-0.092191614 -0.026946237 0.69009095
-0.088714294 -0.026285715 0.69000006
-0.082429908 -0.026161715 0.69020003
-0.021510614 -0.028649392 0.69042861
-0.017757567 -0.027840532 0.69055563
-0.10112572 -0.02445524 0.69400001
-0.097600639 -0.02445524 0.69400001
-0.092059299 -0.022985635 0.69291675
-0.087333582 -0.021858972 0.69208336
-0.083005093 -0.022090372 0.69355565
-0.077692524 -0.022154966 0.69300002
-0.072377622 -0.022369642 0.69087499
-0.067199126 -0.022223489 0.69040012
-0.062626787 -0.021532502 0.69037503
-0.057863265 -0.021698177 0.69041669
-0.053083818 -0.021200242 0.69025004
-0.090550482 -0.019167621 0.69400001
-0.087025404 -0.017992593 0.69400007
-0.083500326 -0.018286351 0.69400001
-0.077661909 -0.018837145 0.69400001
-0.072755605 -0.017540662 0.69400012
-0.067417145 -0.019167621 0.69400001
-0.061715629 -0.018897716 0.69380003
-0.057277415 -0.017331084 0.69272727
-0.052916713 -0.017284829 0.6928001
-0.04774794 -0.018261801 0.69311124
-0.04210465 -0.017103571 0.69075
-0.037479606 -0.01709516 0.69041669
-0.032900542 -0.01710744 0.69093752
-0.028557813 -0.017369051 0.69090003
-0.056621592 -0.013439367 0.69400001
-0.053371906 -0.012723333 0.69400001
-0.047305308 -0.01274694 0.69400001
-0.042196587 -0.012525795 0.69225001
-0.03757133 -0.012522646 0.69211113
-0.032990959 -0.01253619 0.69283336
-0.029060954 -0.013209049 0.69350004
-0.046663243 -0.0085923811 0.69400001
-0.042270955 -0.0085857157 0.69350004
-0.037377339 -0.008452191 0.69339997
-0.033027809 -0.0088514294 0.6936
-0.029081907 -0.0099142864 0.69400001
-0.081100956 -0.05118667 0.69800001
-0.041186191 -0.051150002 0.69749999
-0.10252024 -0.046614528 0.69675004
-0.097650014 -0.046500482 0.69750011
-0.093065344 -0.046068769 0.69700003
-0.087656967 -0.046016198 0.69620007
-0.082284525 -0.048109125 0.69675004
-0.077233255 -0.048369527 0.69745457
-0.072195515 -0.047530483 0.69728577
-0.067621827 -0.047234286 0.69672728
-0.062337946 -0.048082065 0.69633341
-0.058994289 -0.047726668 0.69600004
-0.052290481 -0.047657143 0.69500005
-0.047441911 -0.047252521 0.69600016
-0.042762503 -0.048895836 0.69612509
-0.036934286 -0.049113333 0.69500011
-0.11671321 -0.04112028 0.69800007
-0.1119016 -0.041436829 0.69800007
-0.10691824 -0.041268438 0.69728577
-0.10261382 -0.042439289 0.69625002
-0.098623812 -0.043906353 0.69500005
-0.089357145 -0.044347622 0.69500005
-0.084061913 -0.044347622 0.69500005
-0.066190481 -0.044347622 0.69500005
-0.11744128 -0.038334608 0.69800007
-0.11184619 -0.037559051 0.69800001
-0.10799846 -0.037326086 0.69700009
-0.10391905 -0.039052382 0.69500005
-0.15223049 -0.032573335 0.69800007
-0.14602605 -0.031686988 0.69800007
-0.14201514 -0.03212519 0.69788891
-0.13866985 -0.032513022 0.69666672
-0.11101525 -0.033902861 0.69800001
-0.10720715 -0.032693334 0.69700003
-0.15156573 -0.02792 0.69800001
-0.14742932 -0.027748134 0.6975385
-0.1427028 -0.027685646 0.69592315
-0.13822779 -0.02746905 0.69500011
-0.10524286 -0.027138097 0.69500005
-0.1035881 -0.026807144 0.69500005
-0.15116687 -0.022468954 0.69800001
-0.14795986 -0.022558732 0.69666672
-0.14297144 -0.022504764 0.69499999
-0.13840382 -0.022514923 0.69533342
-0.10554572 -0.024560954 0.69700003
-0.1020797 -0.02319937 0.6960001
-0.097648762 -0.022390477 0.69560009
-0.093659535 -0.020850001 0.69500005
-0.08141429 -0.02051905 0.69500005
-0.14753027 -0.017630039 0.6975385
-0.14210619 -0.017264526 0.69725013
-0.13862954 -0.017677143 0.69779998
-0.095725723 -0.018613335 0.69800001
-0.092372924 -0.017765293 0.69666672
-0.087655105 -0.01616939 0.69500011
-0.081855565 -0.016768258 0.69500011
-0.077589951 -0.016694712 0.69500011
-0.072588891 -0.01566508 0.69500005
-0.067561753 -0.016558893 0.69550008
-0.062432818 -0.016435241 0.69536376
-0.058909528 -0.01522381 0.69500005
-0.050966669 -0.01522381 0.69500005
-0.047373477 -0.015791157 0.69500011
-0.14957143 -0.013960001 0.69800001
-0.14159429 -0.01329524 0.69800007
-0.13760573 -0.012630477 0.69800001
-0.13494667 -0.011965714 0.69800001
-0.091072388 -0.013295239 0.69800001
-0.087572001 -0.012604207 0.69658345
-0.082096353 -0.012578889 0.69516677
-0.077442862 -0.012576191 0.69500011
-0.072809525 -0.012576192 0.69500011
-0.067683101 -0.012607541 0.69675004
-0.062443815 -0.012621431 0.69749999
-0.058055244 -0.012140319 0.69533342
-0.051959526 -0.012245239 0.69500005
-0.048054289 -0.012311429 0.69500011
-0.029785717 -0.011252382 0.69500005
-0.1362762 -0.0099714296 0.69800001
-0.13494667 -0.0099714296 0.69800001
-0.087083817 -0.0099714305 0.69800007
-0.081872858 -0.0091333333 0.69749999
-0.0773222 -0.0084863817 0.69630009
-0.072752215 -0.0087388745 0.69618195
-0.067714691 -0.0086307153 0.69708341
-0.062487628 -0.0086419061 0.69800007
-0.057497218 -0.0078040292 0.69638473
-0.052820005 -0.0080752391 0.69500005
-0.048078358 -0.0076419911 0.69500017
-0.042515241 -0.0059785722 0.69749999
-0.037066668 -0.0059571434 0.69500005
-0.032102384 -0.0062880958 0.69500005
-0.029850002 -0.0066319052 0.69650006
-0.075782865 -0.0046533337 0.69800001
-0.057169527 -0.0039885719 0.69800001
-0.052404292 -0.0039792066 0.69650006
-0.047804289 -0.0042046034 0.69716668
-0.042589184 -0.0034430306 0.69772732
-0.037155561 -0.0033155556 0.69666672
-0.032398183 -0.0028336798 0.69681823
-0.029365335 -0.0030556191 0.69760001
-0.036561906 0.033902861 0.69800001
-0.031908572 0.033902861 0.69800001
-0.029249527 0.033902861 0.69800001
-0.055819765 0.038542621 0.69774997
-0.047198098 0.039220955 0.69800001
-0.042212389 0.037780643 0.69800007
-0.038334608 0.036783494 0.69800007
-0.055840004 0.040550478 0.69800001
-0.043209527 0.041880004 0.69800001
-0.11149239 -0.050071433 0.70100003
-0.10281335 -0.050071433 0.70100003
-0.09740191 -0.050035719 0.70050001
-0.091997907 -0.050338484 0.70100003
-0.087417148 -0.050047629 0.70066667
-0.084666669 -0.050000004 0.70000005
-0.076697424 -0.051545043 0.70028579
-0.071955383 -0.051821228 0.70142865
-0.067752026 -0.051398937 0.70087504
-0.064666674 -0.050000004 0.70000005
-0.043333337 -0.051333338 0.70000005
-0.11623068 -0.047215816 0.7022
-0.1121878 -0.047412701 0.70116675
-0.10738509 -0.047355875 0.70033342
-0.10207334 -0.048368096 0.70050001
-0.096933343 -0.048400003 0.70000005
-0.092426099 -0.048147243 0.70020002
-0.087904774 -0.048095245 0.70000011
-0.050000004 -0.048666671 0.70000005
-0.048666671 -0.048666671 0.70000005
-0.11675 -0.044031911 0.70050001
-0.11210964 -0.043643814 0.70022225
-0.10782921 -0.04379905 0.70033348
-0.10333335 -0.04466667 0.70000005
-0.15042859 -0.036103815 0.70200002
-0.14727724 -0.03715596 0.70291674
-0.14243311 -0.037083898 0.70158339
-0.13973144 -0.036103815 0.70200002
-0.11706667 -0.036666673 0.69999999
-0.11366668 -0.036666669 0.70000005
-0.15066668 -0.032666668 0.70000005
-0.1477778 -0.033111118 0.70000005
-0.14333335 -0.034000002 0.70000005
-0.11710572 -0.032631084 0.70190918
-0.11232353 -0.03192132 0.7016924
-0.10874429 -0.030688096 0.70050001
-0.15160002 -0.028400002 0.70000005
-0.14866668 -0.030000001 0.70000005
-0.11102318 -0.028369844 0.70366669
-0.10813294 -0.027438778 0.70271438
-0.15266667 -0.024000002 0.70000005
-0.10239112 -0.0207454 0.70266676
-0.099333338 -0.020666668 0.70000005
-0.14777778 -0.01577778 0.70000005
-0.13727887 -0.016143238 0.70040005
-0.10102619 -0.018731907 0.70250005
-0.097813189 -0.017155558 0.70183343
-0.093555562 -0.01577778 0.70000005
-0.15033334 -0.011666668 0.70000005
-0.1474389 -0.012007779 0.70050001
-0.14306667 -0.0112 0.69999999
-0.13822225 -0.011777779 0.70000005
-0.095949151 -0.012944192 0.70060003
-0.092946768 -0.011734761 0.70009995
-0.090000004 -0.010000001 0.70000005
-0.1502143 -0.0086790482 0.70100003
-0.14731155 -0.0077319732 0.7017144
-0.14279941 -0.0074691786 0.70154554
-0.13771887 -0.0076051438 0.70060009
-0.092015788 -0.0075311577 0.70085722
-0.087840877 -0.0074561043 0.70018178
-0.083181791 -0.0068344055 0.70012498
-0.077333339 -0.0060000005 0.70000005
-0.072000012 -0.0060000005 0.70000005
-0.067333341 -0.0060000005 0.70000005
-0.062666677 -0.0060000005 0.70000005
-0.13935953 -0.0046900003 0.70350003
-0.090810649 -0.002676032 0.70283341
-0.087468818 -0.0026700795 0.70108342
-0.08271119 -0.0026675004 0.70037502
-0.077563748 -0.0023815648 0.7003572
-0.072038934 -0.0026673812 0.70037496
-0.067333341 -0.0026666669 0.69999999
-0.062672332 -0.0026667265 0.70006245
-0.057363689 -0.0013336907 0.70037508
-0.052037142 -0.0013338097 0.70050001
-0.047508691 -0.0018334526 0.70012498
-0.042533338 -0.00093333342 0.70000005
-0.037333336 -0.00066666672 0.70000005
-0.034000002 -0.00066666672 0.70000005
-0.029333334 -0.00066666672 0.70000005
-0.08723221 0.002618355 0.70309097
-0.082843475 0.0023874152 0.70150012
-0.077554926 0.0020069843 0.70200008
-0.072052896 0.002541143 0.70180011
-0.067437068 0.0026723016 0.70108342
-0.062771849 0.0026720834 0.70118755
-0.057532083 0.0026774409 0.70243758
-0.052149523 0.0026757147 0.70200008
-0.04743477 0.0026738099 0.70150012
-0.042723272 0.0026711309 0.70093757
-0.037373807 0.0026700001 0.70075011
-0.032160569 0.0028032383 0.70060009
-0.028283812 0.0024510054 0.70155561
-0.071880803 0.006920795 0.70316672
-0.067504346 0.0072203181 0.70333338
-0.062672257 0.0066028582 0.70328581
-0.057360191 0.0071034292 0.70360005
-0.052254211 0.0073696049 0.70341671
-0.047756471 0.0069869398 0.70342863
-0.043162454 0.0066038095 0.70342863
-0.037520241 0.0067002382 0.70350003
-0.032155428 0.0071015246 0.70340008
-0.02769286 0.0073706359 0.70350003
-0.068388574 0.010057144 0.70400006
-0.051850162 0.010504128 0.70400012
-0.048944764 0.01072762 0.70400006
-0.038217146 0.010057144 0.70400006
-0.034194287 0.010057144 0.70400006
-0.035535239 0.018102858 0.70400006
-0.034194287 0.016761906 0.70400012
-0.032182857 0.024137143 0.70400006
-0.043133974 0.02883048 0.70400012
-0.037043817 0.027992385 0.70400006
-0.032130796 0.027443968 0.70283335
-0.090514295 0.034194287 0.70400006
-0.087161914 0.034194287 0.70400006
-0.082389846 0.034161907 0.70333338
-0.077027082 0.033393335 0.70328581
-0.072687946 0.03366635 0.70233339
-0.066831186 0.033749763 0.70175004
-0.062532917 0.032937568 0.7026667
-0.058046035 0.033070583 0.70233339
-0.051999744 0.032900695 0.70245457
-0.047396023 0.03230511 0.70272732
-0.042762086 0.032068871 0.70156252
-0.0374908 0.031961273 0.70213342
-0.032655414 0.031558096 0.70236373
-0.030000001 0.032000002 0.70000005
-0.095878102 0.038217146 0.70400006
-0.091855258 0.037642457 0.70400012
-0.087061495 0.037502799 0.70318753
-0.082361035 0.03749802 0.7030834
-0.077638216 0.037481554 0.70275009
-0.072122924 0.037397325 0.70118761
-0.067421354 0.037382148 0.70091677
-0.06270048 0.037352506 0.70037508
-0.057791591 0.036897309 0.7001667
-0.052004825 0.037336491 0.70006239
-0.047333341 0.037151515 0.69999999
-0.043666668 0.035666667 0.70000005
-0.036666673 0.037600007 0.69999999
-0.03231075 0.037171975 0.70057142
-0.030000001 0.038666669 0.70000005
-0.090514295 0.040899049 0.70400006
-0.086828366 0.041740529 0.70311111
-0.082626395 0.041840274 0.70371431
-0.078445718 0.041904762 0.70400006
-0.071949825 0.041859332 0.7021001
-0.067493655 0.042101271 0.70166671
-0.06286975 0.042309303 0.7016924
-0.057456672 0.042759847 0.70150006
-0.052078873 0.04273399 0.7010625
-0.047412388 0.042740639 0.70116675
-0.042661719 0.042753272 0.70066661
-0.037523746 0.042491909 0.7017858
-0.032915954 0.041939523 0.7017501
-0.14704287 -0.03961429 0.70500004
-0.14435716 -0.03961429 0.70500004
-0.12069715 -0.030342858 0.708
-0.11834001 -0.030257145 0.70600003
-0.1148143 -0.030214287 0.70500004
-0.11737482 -0.027490824 0.70718175
-0.11294192 -0.02734735 0.70528579
-0.12744001 -0.020902859 0.708
-0.116943 -0.022714697 0.70742857
-0.11239367 -0.022882542 0.70666665
-0.10790355 -0.022599051 0.70685709
-0.10436668 -0.022220001 0.70700002
-0.13601334 -0.016833335 0.70700002
-0.13058667 -0.018655241 0.70800006
-0.12768763 -0.019203335 0.70749998
-0.11685602 -0.019273907 0.70760006
-0.11312 -0.018853335 0.70700002
-0.10637648 -0.017616192 0.70757145
-0.10364302 -0.017767893 0.70600003
-0.14838573 -0.0060428581 0.7050001
-0.14712334 -0.0043766671 0.70700002
-0.14321715 -0.0040333341 0.70600003
-0.091985717 -0.00067142863 0.70500004
-0.091292389 0.0027854426 0.70557147
-0.089426674 0.0040352382 0.70600003
-0.081242859 0.0047000004 0.70500004
-0.077885725 0.0047000004 0.70500004
-0.074528575 0.0047000004 0.70500004
-0.091028579 0.0067428574 0.708
-0.087513499 0.0074057151 0.7068333
-0.082009695 0.0073950808 0.70583332
-0.077239059 0.0073876199 0.70522219
-0.072961912 0.0078333337 0.70500004
-0.065800004 0.0087285722 0.70500004
-0.062442861 0.0087285731 0.7050001
-0.059085719 0.0087285722 0.70500004
-0.047000006 0.0087285722 0.70500004
-0.042591818 0.0084649529 0.70539999
-0.037600003 0.0087285722 0.70500004
-0.032228574 0.0087285722 0.70500004
-0.027528573 0.0080571435 0.70500004
-0.087307014 0.011936395 0.70750004
-0.082665086 0.012097144 0.70566666
-0.077912621 0.012090477 0.70524997
-0.072603934 0.012102501 0.70587492
-0.067032114 0.012390071 0.70585716
-0.0625531 0.012109129 0.70624995
-0.057825483 0.012104525 0.70599991
-0.052640002 0.013025715 0.70499998
-0.047194727 0.012516623 0.70518184
-0.042885151 0.011966668 0.70579994
-0.037584953 0.012229653 0.70553333
-0.032105971 0.012225335 0.70526665
-0.027836954 0.011835619 0.70599997
-0.086958669 0.016987432 0.70780003
-0.082103223 0.017498214 0.70662493
-0.077423573 0.017506111 0.70691657
-0.072790772 0.017524464 0.70768756
-0.067761764 0.017161321 0.70769244
-0.06203429 0.015958097 0.70800006
-0.057004482 0.017250191 0.7075001
-0.052492976 0.017498216 0.70662487
-0.047506746 0.017628206 0.70561534
-0.042861909 0.017332891 0.70539999
-0.037734289 0.017412383 0.70500004
-0.03225505 0.017470667 0.70559996
-0.027635954 0.015839763 0.70775002
-0.087368168 0.023118369 0.70800012
-0.082233816 0.022918334 0.70775002
-0.077506527 0.022914607 0.70766675
-0.072822869 0.022925718 0.70800012
-0.068102859 0.023354808 0.70800012
-0.062708579 0.024948573 0.708
-0.055965718 0.020902859 0.708
-0.052553158 0.022907682 0.70743746
-0.047784448 0.022882542 0.70666659
-0.04300965 0.022847978 0.70562494
-0.037599999 0.02282857 0.70499998
-0.03357143 0.021485716 0.70500004
-0.090985715 0.027632065 0.70766675
-0.087574624 0.027619053 0.70733333
-0.082243189 0.027638894 0.70783347
-0.077422015 0.02760106 0.70688885
-0.072727866 0.02760913 0.70708334
-0.067365088 0.027619049 0.70733327
-0.062323909 0.027458573 0.70670003
-0.057751603 0.027742598 0.70736367
-0.052538972 0.027616113 0.70725
-0.047747836 0.027571537 0.70611107
-0.04289683 0.027080955 0.70499998
-0.038607147 0.026521429 0.70500004
-0.09192308 0.032332171 0.70566666
-0.087368265 0.031585716 0.70566666
-0.082087785 0.031623654 0.70649993
-0.077661917 0.031109527 0.70500004
-0.072245724 0.031288575 0.70499998
-0.067325979 0.031435069 0.70499998
-0.062487148 0.030907147 0.70550001
-0.057210755 0.031056197 0.70671433
-0.052805144 0.030500004 0.70539999
-0.049014289 0.030214287 0.70500004
-0.092992857 0.037767861 0.70499998
-0.092406511 0.041941755 0.70650005
-0.087957144 0.04364286 0.7050001
-0.081914291 0.04364286 0.70500004
-0.077214293 0.043374289 0.70500004
-0.072648577 0.044448573 0.70500004
-0.068485722 0.044985719 0.70500004
-0.062442861 0.044985719 0.70500004
-0.058414288 0.044985719 0.70500004
-0.036928572 0.044985719 0.70500004
-0.034242861 0.044985719 0.70500004
-0.081511125 0.045584135 0.70733333
-0.077488102 0.045819532 0.70749998
-0.073186293 0.0462301 0.7076
-0.06735643 0.045802623 0.70725
-0.063966669 0.046460003 0.70700002
-0.056771588 0.04734778 0.70683336
-0.12256286 -0.031148575 0.71100003
-0.13602716 -0.026662147 0.71325004
-0.13228537 -0.026926061 0.71163636
-0.12708408 -0.026933845 0.7105335
-0.12247714 -0.027067145 0.7105
-0.11968572 -0.02501905 0.71000004
-0.1368473 -0.022356827 0.71133339
-0.1326739 -0.022338018 0.71075004
-0.12711041 -0.022445804 0.71027279
-0.12244836 -0.022325188 0.71033335
-0.11968572 -0.023666669 0.71000004
-0.13683167 -0.018966429 0.71125001
-0.1337841 -0.01847633 0.71100008
-0.12527144 -0.019637143 0.71100003
-0.12141929 -0.018602144 0.71025002
-0.11794695 -0.017484356 0.7100001
-0.11202287 -0.017491812 0.71200007
-0.10868144 -0.017944288 0.71100003
-0.09331429 0.0074380958 0.71000004
-0.09154287 0.012204763 0.71200001
-0.089933336 0.013523811 0.71000004
-0.092473656 0.018180002 0.71133339
-0.088580959 0.018257145 0.71000004
-0.066041276 0.019158732 0.71000004
-0.062209524 0.018527621 0.71000004
-0.058828574 0.018933335 0.71000004
-0.09291482 0.022381062 0.71211112
-0.089933336 0.021638097 0.71000004
-0.066131435 0.022043813 0.71000004
-0.062216908 0.02231675 0.71008337
-0.057665959 0.022491429 0.71025002
-0.092446357 0.025991112 0.71200007
-0.061533336 0.02501905 0.71000004
-0.057476193 0.02501905 0.71000004
-0.093583815 0.043522224 0.71033335
-0.11115048 -0.015683811 0.71600002
-0.10978667 -0.015683811 0.71600002
