# .PCD v0.7 - Point Cloud Data file format
VERSION 0.7
FIELDS x y z
SIZE 4 4 4
TYPE F F F
COUNT 1 1 1
WIDTH 722
HEIGHT 1
VIEWPOINT 0 0 0 1 0 0 0
POINTS 722
DATA ascii
-0.11769239 -0.0043133334 0.64700001
-0.11046858 0.0086400006 0.648
-0.1092343 0.0086400006 0.648
-0.11071544 0.011972572 0.648
-0.10789715 0.012548572 0.64799994
-0.10824688 0.015922287 0.648
-0.12196667 -0.0013643811 0.65140003
-0.11750425 -0.0014110825 0.6521818
-0.11318667 -0.0012438096 0.65300006
-0.120805 0.0020211907 0.65300006
-0.11719873 0.0026942859 0.65283334
-0.11253783 0.0030128206 0.65284616
-0.12002762 0.0062190481 0.65300006
-0.11728 0.0073142867 0.65261543
-0.11307666 0.007397363 0.65153849
-0.10774906 0.007540477 0.65083337
-0.10396929 0.009000239 0.65174997
-0.098110482 0.0093142865 0.65200001
-0.11672749 0.012161498 0.65242863
-0.11355741 0.012568139 0.65090913
-0.10616668 0.011761906 0.65000004
-0.10275423 0.012438263 0.65111768
-0.098632038 0.012582264 0.65237498
-0.11588159 0.016791429 0.65300006
-0.11260046 0.017041028 0.65153849
-0.10735048 0.017957751 0.65018195
-0.10256892 0.017285818 0.65189475
-0.097639054 0.01803524 0.65300006
-0.11007715 0.020522859 0.65300006
-0.10724077 0.020752383 0.65240008
-0.1034435 0.021352066 0.65300006
-0.096602552 0.021559369 0.65300012
-0.12538572 -0.0018714287 0.65500003
-0.11166191 -0.00062380958 0.65500003
-0.12583241 0.003130794 0.65733337
-0.12345286 0.0029661907 0.65550005
-0.11665239 0.0010396827 0.65500009
-0.11124604 0.0014555557 0.65500009
-0.10916667 0.004366667 0.65500003
-0.12596001 0.0056400006 0.65800005
-0.12236706 0.0072493344 0.65620011
-0.12101314 0.01213962 0.65700006
-0.11908001 0.01287162 0.65600002
-0.098250002 0.013100002 0.65500003
-0.11729468 0.017613525 0.65580004
-0.11415715 0.019338097 0.65500003
-0.10043334 0.019338097 0.65500003
-0.097559765 0.017369606 0.65525007
-0.11205158 0.021910343 0.65728581
-0.10728955 0.023230478 0.65600014
-0.10212397 0.022732897 0.65600008
-0.099046201 0.022937622 0.65683341
-0.10703819 0.027542463 0.65725005
-0.10262685 0.027534228 0.65706247
-0.098631196 0.027041193 0.65650004
-0.10653334 0.031333335 0.65800005
-0.10305544 0.030928954 0.65740007
-0.099488579 0.030660002 0.65700001
-0.13155429 0.0041014291 0.66250002
-0.12825869 0.0033988573 0.66080004
-0.13148192 0.0065215877 0.66266674
-0.12756316 0.0078983894 0.66130775
-0.12382858 0.0088 0.66000003
-0.12601209 0.011149842 0.66266674
-0.12363525 0.012617144 0.66233337
-0.12082763 0.017666668 0.66250002
-0.11898001 0.018257461 0.66100001
-0.116802 0.022191085 0.66227287
-0.11300048 0.02423667 0.66100001
-0.11181555 0.027602637 0.6621539
-0.11092097 0.031781908 0.66300005
-0.10901748 0.032138731 0.66166675
-0.08091715 -0.021025715 0.66900003
-0.077731431 -0.021025715 0.66900003
-0.1059781 -0.016778097 0.66900003
-0.10245034 -0.017440408 0.66757143
-0.097634822 -0.016898096 0.66811115
-0.0949343 -0.017202858 0.66900003
-0.08091715 -0.01975143 0.66900003
-0.077731431 -0.01975143 0.66900003
-0.10640287 -0.013380001 0.66900003
-0.10274579 -0.012683988 0.66593748
-0.097780302 -0.012698632 0.66668749
-0.094169721 -0.011850858 0.66900009
-0.10512858 -0.0082828579 0.66900003
-0.1022383 -0.0080106668 0.66759998
-0.098080479 -0.0079003414 0.66750008
-0.093660004 -0.0082828579 0.66900009
-0.089837149 -0.0095571438 0.66900003
-0.13530572 0.0069876197 0.66700006
-0.13285963 0.0085022859 0.66619998
-0.13110453 0.012730239 0.66825008
-0.1277525 0.013177673 0.66588891
-0.12476668 0.014566667 0.66500002
-0.13125144 0.016565714 0.66900003
-0.12747042 0.017990954 0.6677857
-0.12356562 0.017693017 0.66611105
-0.12551714 0.021025715 0.66900003
-0.12240715 0.022891907 0.66766679
-0.11883953 0.023768097 0.66550004
-0.12085773 0.02712667 0.66860002
-0.11747597 0.027941195 0.66674995
-0.1146908 0.028514922 0.66533339
-0.11682858 0.032152381 0.66850007
-0.11329187 0.032921646 0.66590905
-0.077670485 -0.030169528 0.67400002
-0.073819056 -0.030169526 0.67400002
-0.10270477 -0.025034288 0.67400002
-0.09050858 -0.026318099 0.67400002
-0.087410554 -0.026826419 0.67386663
-0.082041912 -0.026920957 0.67299998
-0.076782793 -0.027370775 0.67315382
-0.0734981 -0.027601907 0.67400002
-0.10628214 -0.021384526 0.67025006
-0.10241151 -0.022403574 0.67208338
-0.098636389 -0.021934288 0.67340004
-0.09050858 -0.022466671 0.67400002
-0.087170802 -0.022433972 0.67299998
-0.082361199 -0.023335163 0.67125005
-0.077815317 -0.02315392 0.671
-0.074532144 -0.022712143 0.67175007
-0.10775933 -0.018129621 0.67030007
-0.10145715 -0.019780954 0.67000002
-0.097176395 -0.019537527 0.67040008
-0.0923324 -0.018059496 0.67233342
-0.087068588 -0.018079622 0.67319995
-0.08238183 -0.017583732 0.6714167
-0.0777549 -0.017155241 0.6717273
-0.10806668 -0.012858505 0.67028582
-0.095076196 -0.013400001 0.67000002
-0.092396192 -0.013144764 0.67000002
-0.086750485 -0.013470953 0.67350006
-0.081959561 -0.013272384 0.67353839
-0.078020744 -0.013037885 0.67333329
-0.10736096 -0.0095857149 0.671
-0.10360334 -0.0057557151 0.67150003
-0.096400321 -0.0057457145 0.67033339
-0.09266191 -0.0061774608 0.671
-0.07831239 -0.0096285725 0.67400002
-0.10155405 -0.004164048 0.67275006
-0.097194709 -0.0036300533 0.67288888
-0.093735248 -0.0034609528 0.67320007
-0.10463049 0.0044933334 0.67400002
-0.13611715 0.0089466674 0.671
-0.1346381 0.0095714293 0.67000002
-0.10255192 0.0064090481 0.67299998
-0.099067315 0.0079168258 0.67400002
-0.13611715 0.01086381 0.671
-0.13388716 0.012346509 0.67050004
-0.13181548 0.018193096 0.67025
-0.12767111 0.022605632 0.67118186
-0.12442858 0.024885716 0.67000002
-0.12312844 0.027838098 0.67085719
-0.12078001 0.031952381 0.671
-0.1189202 0.03282686 0.67060006
-0.11549524 0.035095241 0.67000002
-0.095671192 -0.031675477 0.67875004
-0.092582583 -0.031507142 0.67790002
-0.087611675 -0.031568334 0.67641675
-0.082418501 -0.031552143 0.67608345
-0.077118002 -0.032187339 0.67590016
-0.072064251 -0.031724155 0.6772728
-0.068546668 -0.031686671 0.67900002
-0.10058096 -0.025792383 0.67700005
-0.097424075 -0.026689351 0.67745465
-0.093176559 -0.027195169 0.67615384
-0.085500002 -0.028928574 0.67500001
-0.082285725 -0.028928574 0.67500001
-0.071612149 -0.026841827 0.67641681
-0.068609938 -0.027425174 0.67871433
-0.096908025 -0.022872385 0.67514294
-0.093260325 -0.022511749 0.67533338
-0.075660005 -0.020046668 0.67900002
-0.072579294 -0.022182301 0.67841667
-0.090642862 -0.016071429 0.67500001
-0.089357145 -0.016071429 0.67500001
-0.075437143 -0.01805524 0.67700005
-0.074147627 -0.01805524 0.67700005
-0.090732388 -0.013083493 0.67566675
-0.088243708 -0.012218096 0.67522228
-0.082928583 -0.010928573 0.67500007
-0.076141715 -0.01301486 0.67640001
-0.074311912 -0.014215715 0.67850006
-0.086890638 -0.0086007938 0.67750001
-0.082429528 -0.0083701592 0.67616677
-0.078054935 -0.0081695244 0.67733335
-0.10529024 -0.0025830953 0.67825001
-0.10233937 -0.0016456085 0.67677784
-0.097859375 -0.0012869843 0.67600006
-0.093198106 -0.0015066669 0.67800009
-0.10540667 0.00064666668 0.67900002
-0.10196991 0.0024471118 0.67680013
-0.097491778 0.0028591158 0.67792863
-0.092826866 0.0024522545 0.67780018
-0.088810481 0.0024836739 0.67642868
-0.096990585 0.0072424347 0.67744452
-0.093250573 0.0071012997 0.67781818
-0.089820482 0.0064623812 0.67850006
-0.097353481 -0.036357012 0.68342865
-0.0928661 -0.036078673 0.68380004
-0.087260239 -0.035815481 0.68375003
-0.082935721 -0.036101907 0.68300003
-0.078822859 -0.035828575 0.68400002
-0.07195691 -0.036141194 0.68375003
-0.067698896 -0.037105087 0.68349999
-0.064491436 -0.035828575 0.68400002
-0.10140048 -0.031850003 0.68250006
-0.09794876 -0.032845713 0.68109095
-0.092333093 -0.034462623 0.68274999
-0.087814294 -0.034475245 0.68300003
-0.082895242 -0.034323812 0.68000001
-0.077498421 -0.034323812 0.68000001
-0.072800003 -0.034450002 0.6825
-0.066741057 -0.032851141 0.68170011
-0.063446678 -0.032338731 0.68366671
-0.10185905 -0.028390795 0.68266672
-0.099085718 -0.028495241 0.68000001
-0.066445291 -0.027054183 0.68177783
-0.064444289 -0.028641431 0.68350005
-0.071091436 -0.020527622 0.68066669
-0.068014443 -0.022527305 0.68233341
-0.072504573 -0.018354097 0.68340003
-0.069702864 -0.01889143 0.68400002
-0.074914292 -0.011725715 0.68400002
-0.086948894 -0.0062885722 0.68300003
-0.081808813 -0.0058435719 0.68175006
-0.076989345 -0.0068792389 0.68160003
-0.074914292 -0.0091200005 0.68400002
-0.091000013 -0.0026033334 0.6825
-0.087173425 -0.0026636366 0.68354553
-0.082170367 -0.002647175 0.68366671
-0.077817149 -0.002929762 0.68375003
-0.086597145 0.00065111124 0.68366671
-0.08158683 0.0015182541 0.68350005
-0.07768967 0.0015813608 0.6838572
-0.091403179 0.0090761911 0.68066669
-0.099668577 0.014331429 0.68400002
-0.095663816 -0.041936193 0.68800002
-0.092648096 -0.042068813 0.68750012
-0.089460641 -0.040465083 0.68900001
-0.076118097 -0.040027622 0.68900001
-0.074149527 -0.040027622 0.68900001
-0.097125962 -0.038915955 0.68675005
-0.092693515 -0.038707018 0.68672746
-0.087737381 -0.037977144 0.68750006
-0.08199393 -0.037807025 0.68737501
-0.07711897 -0.0374594 0.68781829
-0.072867051 -0.038068954 0.68680006
-0.062792189 -0.037283812 0.6868
-0.059713338 -0.03674667 0.68900001
-0.061519325 -0.032953881 0.68614298
-0.059189212 -0.032761905 0.68800008
-0.062977336 -0.027757717 0.68740004
-0.059713338 -0.029528573 0.68900001
-0.066808812 -0.02096024 0.68774998
-0.064962864 -0.022529207 0.68900001
-0.072095603 -0.015857263 0.686625
-0.068109848 -0.01724619 0.68766677
-0.072022706 -0.012440637 0.68750012
-0.068900004 -0.012467621 0.68900001
-0.090945721 -0.0065428577 0.68700004
-0.088918574 -0.005884286 0.68650007
-0.075605407 -0.0063184127 0.68633342
-0.072015181 -0.007855894 0.68743759
-0.068900004 -0.0085304771 0.68900001
-0.087677337 -0.0024826669 0.68600005
-0.080360003 -0.00196 0.68600005
-0.076236553 -0.002289881 0.68712503
-0.07278382 -0.0036057145 0.68850011
-0.080360003 0.00065333338 0.68600005
-0.098142862 0.013740001 0.68700004
-0.098688819 0.015685476 0.68625009
-0.085800007 -0.045540001 0.69300002
-0.082619064 -0.045605719 0.69400001
-0.077963576 -0.045589291 0.69375002
-0.061169147 -0.046108194 0.69360006
-0.057316672 -0.046745956 0.69375002
-0.05485905 -0.046266671 0.69400001
-0.090028577 -0.04271429 0.69000006
-0.086821549 -0.042323668 0.69184619
-0.082546674 -0.042011295 0.69169229
-0.07781899 -0.042388514 0.69078583
-0.072507896 -0.042189129 0.6921429
-0.067401119 -0.041630317 0.69383347
-0.062160209 -0.042365529 0.69286662
-0.057519499 -0.042014871 0.69176924
-0.054013096 -0.041790478 0.69375002
-0.061114289 -0.038771432 0.69000006
-0.057447013 -0.03743957 0.69190907
-0.05485905 -0.038335241 0.69400001
-0.057488304 -0.033025172 0.69157153
-0.061446857 -0.026184002 0.69080007
-0.05873834 -0.027884763 0.69300008
-0.065057144 -0.021685716 0.69000006
-0.061941735 -0.022405418 0.69193745
-0.065495245 -0.016647622 0.69000006
-0.062889531 -0.017403431 0.69220001
-0.066403076 -0.012491324 0.69033337
-0.063958421 -0.012526668 0.6923334
-0.066624843 -0.0077402936 0.69053853
-0.063927621 -0.0079085724 0.69200003
-0.071680009 -0.0016438096 0.69050002
-0.067441441 -0.0028204762 0.69135725
-0.064112388 -0.0039657145 0.69400001
-0.075735718 0.0013185715 0.69150007
-0.072558932 0.0013203573 0.69262505
-0.068586864 0.0014539048 0.69380003
-0.06040667 -0.051113337 0.69700003
-0.058415242 -0.051113337 0.69700003
-0.08242134 -0.047382861 0.69680005
-0.077112392 -0.047198098 0.69800001
-0.072948262 -0.046202227 0.69633335
-0.067556202 -0.046852957 0.69679999
-0.062520109 -0.048086673 0.695889
-0.057728812 -0.049104527 0.69675004
-0.052608032 -0.04673266 0.69671434
-0.047198098 -0.045868576 0.69800001
-0.070823811 -0.044347622 0.69500005
-0.067514293 -0.044347622 0.69500005
-0.051831197 -0.042890243 0.69550008
-0.049016576 -0.043173529 0.69740003
-0.055096194 -0.035181906 0.69700003
-0.052767627 -0.037449006 0.69654554
-0.049413972 -0.038334608 0.69800007
-0.055707049 -0.032307427 0.69800001
-0.053845719 -0.033902861 0.69800001
-0.056292806 -0.027668254 0.69722223
-0.057488061 -0.022699928 0.69630772
-0.06074683 -0.016787143 0.69583338
-0.058692388 -0.017718097 0.69766665
-0.062061101 -0.012791703 0.69642866
-0.062351912 -0.0079600001 0.69650006
-0.065528579 -0.0013238096 0.69500005
-0.062923387 -0.0025813759 0.69711113
-0.076004446 0.0042101592 0.69800007
-0.072585724 0.0038806805 0.69557154
-0.067024164 0.0031910825 0.69554561
-0.063782506 0.0026575001 0.69762498
-0.072090857 0.0077009532 0.69700003
-0.067672744 0.0079620238 0.69662511
-0.063770957 0.0079714293 0.69749999
-0.072064631 0.012438232 0.69785714
-0.067786679 0.012361334 0.69780004
-0.064038739 0.011744127 0.69800007
-0.081012383 -0.050883815 0.70300001
-0.077312067 -0.05165302 0.70283335
-0.072387002 -0.052050859 0.70246679
-0.067430004 -0.051201195 0.70275009
-0.063460007 -0.05117048 0.70139998
-0.056094132 -0.051420163 0.70116663
-0.052047417 -0.051953267 0.70321435
-0.047388572 -0.051808573 0.7028001
-0.043555807 -0.051865906 0.70360005
-0.081333339 -0.048666671 0.70000005
-0.077389523 -0.048701432 0.70050001
-0.071866676 -0.048400003 0.70000005
-0.067333341 -0.048666671 0.70000005
-0.050814297 -0.047880571 0.70020002
-0.047333337 -0.047500003 0.70000005
-0.04348233 -0.047498841 0.70244443
-0.050000004 -0.043333337 0.70000005
-0.047500003 -0.0425 0.70000005
-0.044326037 -0.044327941 0.70166671
-0.051000006 -0.035666667 0.70000005
-0.048222225 -0.038444448 0.70000005
-0.051974587 -0.03213165 0.70176935
-0.055333339 -0.028666668 0.70000005
-0.053579599 -0.027792655 0.70200008
-0.055333339 -0.022000004 0.70000005
-0.05276636 -0.022647303 0.70283341
-0.05645591 -0.017083716 0.70069999
-0.053380743 -0.017644024 0.70355558
-0.060666673 -0.011333334 0.70000005
-0.057458751 -0.012026251 0.70156258
-0.054308575 -0.012068572 0.70400006
-0.060666673 -0.0073333336 0.70000005
-0.057522222 -0.0073574614 0.70233339
-0.054308575 -0.0067047626 0.70400006
-0.060950667 -0.0022668575 0.70020002
-0.0580214 -0.0028319417 0.7027694
-0.078000002 0.004666667 0.70000005
-0.061376672 0.0026685717 0.70050007
-0.05902826 0.002226667 0.70166671
-0.076400004 0.0065333336 0.70000005
-0.074000008 0.0086666672 0.70000005
-0.061347783 0.0073347627 0.7001667
-0.058860958 0.0073574609 0.70233339
-0.074000008 0.010000001 0.70000005
-0.068000004 0.014000001 0.70000005
-0.06207931 0.012439828 0.70090914
-0.058917623 0.012051666 0.70300001
-0.070477784 0.016675875 0.70033336
-0.067373261 0.017344527 0.70041674
-0.062794827 0.017371014 0.70143759
-0.058548957 0.017150288 0.70340008
-0.067492388 0.020715876 0.70166671
-0.062965088 0.021212064 0.70333338
-0.059672385 0.020784764 0.70400006
-0.061460324 0.033300322 0.70400012
-0.057422597 0.032442994 0.70342869
-0.052058574 0.03243912 0.70335728
-0.047519289 0.032123573 0.70275009
-0.043204837 0.032492455 0.70292312
-0.061625719 0.038180642 0.70333338
-0.057669785 0.037331495 0.70246673
-0.052010611 0.037238672 0.70073348
-0.04738953 0.037377466 0.70083344
-0.042909149 0.037473593 0.70180011
-0.051406667 0.041726194 0.70100009
-0.047400955 0.042059999 0.70100009
-0.043181907 0.041174766 0.70300001
-0.051920004 -0.060011432 0.70800006
-0.047424763 -0.061360009 0.70800006
-0.043828573 -0.060011432 0.708
-0.070700005 -0.055886671 0.70700002
-0.067428574 -0.055965718 0.708
-0.06203429 -0.055965718 0.708
-0.057012577 -0.056473531 0.70760006
-0.052269351 -0.057038706 0.70609087
-0.047226302 -0.057884622 0.70607686
-0.042869266 -0.057060272 0.70636362
-0.03940405 -0.056916911 0.70725
-0.070500001 -0.054385718 0.70500004
-0.066990614 -0.053920418 0.70642865
-0.061917149 -0.054066673 0.70666665
-0.05794267 -0.053910293 0.70580006
-0.05371429 -0.054385718 0.70500004
-0.048342861 -0.054385718 0.70500004
-0.041852392 -0.053042859 0.70500004
-0.038648766 -0.052519817 0.70699996
-0.041029766 -0.047080718 0.70624995
-0.039745402 -0.047828577 0.70733333
-0.045802623 -0.04176167 0.70725
-0.043204006 -0.043201338 0.70660001
-0.046937253 -0.037207514 0.70744449
-0.050357144 -0.031557146 0.70500004
-0.047122743 -0.032314051 0.70687503
-0.051100008 -0.027567621 0.70600003
-0.048502542 -0.027619367 0.70733333
-0.050728574 -0.023181904 0.70550001
-0.04904905 -0.022846192 0.70550007
-0.05103524 -0.017203948 0.70642859
-0.048911434 -0.01711143 0.70740002
-0.05218735 -0.012109525 0.70642847
-0.04922286 -0.013485715 0.708
-0.052472025 -0.007568453 0.706375
-0.055728577 -0.0020142859 0.7050001
-0.053408671 -0.0029589529 0.70629996
-0.056898482 0.002959619 0.70619994
-0.05430153 0.0022916193 0.70740002
-0.056573182 0.0074080965 0.70716667
-0.054617148 0.0080914292 0.708
-0.056439534 0.012093334 0.70550001
-0.05455929 0.012123572 0.70725
-0.056228898 0.017922541 0.70566672
-0.054578576 0.017519049 0.70749998
-0.066207901 0.023352383 0.70628577
-0.062326945 0.023913881 0.70585716
-0.057705469 0.023002863 0.70619994
-0.05290528 0.023265569 0.70730764
-0.048750162 0.024487302 0.70766675
-0.066018097 0.027619367 0.70733333
-0.062580213 0.027588891 0.70655549
-0.057811595 0.027559839 0.70583332
-0.052420959 0.027553335 0.70566666
-0.047361147 0.027581906 0.70640004
-0.043102067 0.028510638 0.70716667
-0.067000665 0.032385714 0.7073077
-0.062781073 0.031874608 0.7054444
-0.059085719 0.030214287 0.70500004
-0.05371429 0.030214287 0.70500004
-0.041443497 0.03069048 0.70566672
-0.039698575 0.030950002 0.70650005
-0.066876292 0.036687091 0.70611107
-0.0631143 0.036928575 0.70500004
-0.04364286 0.040957145 0.70500004
-0.060520004 -0.065960005 0.71400005
-0.058398098 -0.065867625 0.71300006
-0.052190002 -0.067489997 0.71400011
-0.067116879 -0.06111443 0.7118572
-0.062288716 -0.061976925 0.71269238
-0.057418242 -0.062330183 0.71315402
-0.052570473 -0.062408574 0.71225005
-0.048037335 -0.062109333 0.71040004
-0.042460766 -0.061182674 0.71220005
-0.06765715 -0.057779819 0.71040004
-0.062253341 -0.058193814 0.71050006
-0.057875004 -0.058552619 0.71074998
-0.054771431 -0.058828574 0.71000004
-0.037345715 -0.057379052 0.71300006
-0.034663811 -0.056414288 0.71366668
-0.036302861 -0.051911432 0.71250004
-0.033952385 -0.052286677 0.71300006
-0.037469894 -0.04726902 0.71138465
-0.034631431 -0.047533333 0.71300006
-0.041312389 -0.041893069 0.71114296
-0.037734427 -0.042293746 0.71300018
-0.045755558 -0.038092066 0.71000004
-0.042128004 -0.037794542 0.71120012
-0.037400004 -0.037400004 0.71400011
-0.034680001 -0.038760003 0.71400005
-0.042039286 -0.032548577 0.71200007
-0.038760003 -0.032413337 0.71400011
-0.046299789 -0.026874391 0.7114445
-0.042278007 -0.028139716 0.71370006
-0.038760003 -0.028560001 0.71400005
-0.047588732 -0.022434764 0.71383345
-0.047708955 -0.017806096 0.71360004
-0.047818288 -0.011920572 0.71120006
-0.050714288 -0.0074380962 0.71000004
-0.048320599 -0.0076294052 0.71212506
-0.051272541 -0.0022579369 0.71150005
-0.049622621 -0.0027183336 0.71375
-0.052068837 0.0028960174 0.71172732
-0.048702437 0.0027938627 0.71355563
-0.05244562 0.0073183812 0.71150011
-0.048454423 0.0070887078 0.71371436
-0.052174445 0.01219746 0.71150005
-0.052186992 0.01762159 0.7116667
-0.048960004 0.019040002 0.71400005
-0.071060002 0.022440001 0.71400005
-0.069166675 0.023733335 0.71200001
-0.051188894 0.021422541 0.71033335
-0.04727472 0.022250133 0.71190917
-0.042258538 0.022269612 0.71254557
-0.037612479 0.022540098 0.7129001
-0.034210481 0.023335557 0.71366668
-0.075898103 0.028773017 0.71366668
-0.072633579 0.027150713 0.71275008
-0.069056794 0.027079403 0.71087503
-0.046206351 0.025469845 0.71000004
-0.042423677 0.025995107 0.71028578
-0.037925716 0.027089642 0.71112508
-0.033264507 0.027216192 0.71281832
-0.076777861 0.032613102 0.71341676
-0.072395474 0.032476112 0.71041667
-0.069196835 0.032231748 0.71000004
-0.037002292 0.031040384 0.71160001
-0.033273336 0.030557144 0.71300006
-0.061620004 0.041305717 0.71100003
-0.047866672 -0.070432387 0.71800005
-0.062735245 -0.066144764 0.71600002
-0.055916198 -0.066826671 0.71600002
-0.053870481 -0.066144764 0.71600002
-0.04781675 -0.067627072 0.71725005
-0.043052658 -0.066679053 0.7175715
-0.063417152 -0.064780965 0.71600002
-0.055916198 -0.064780958 0.71600002
-0.05250667 -0.064780958 0.71600002
-0.047351625 -0.06454438 0.71640009
-0.042136908 -0.063291192 0.71650004
-0.038346671 -0.062313341 0.71900004
-0.036595561 -0.058416516 0.71600002
-0.034777146 -0.059325717 0.71600002
-0.034484286 -0.041312858 0.71700001
-0.037084024 -0.032837674 0.7166667
-0.034898575 -0.03284524 0.71850002
-0.042060163 -0.025690956 0.71616668
-0.037262861 -0.027026286 0.71660006
-0.034922861 -0.025336193 0.71900004
-0.045687627 -0.02250286 0.71600002
-0.042364925 -0.022549367 0.71750009
-0.037592068 -0.022553971 0.71766663
-0.03487429 -0.023248572 0.71800005
-0.046163496 -0.017965082 0.71633339
-0.04252718 -0.01782305 0.71793336
-0.039031431 -0.019858096 0.71900004
-0.045783333 -0.012299526 0.71750003
-0.043607622 -0.012824763 0.71824998
-0.046157621 -0.007178572 0.71800005
-0.044509526 -0.0089019053 0.71900004
-0.047126673 -0.0027330162 0.71716666
-0.043824762 -0.00068476197 0.71900004
-0.04634504 0.0026345584 0.71714288
-0.044509526 0.00068476197 0.71900004
-0.04654419 0.0080527617 0.71660006
-0.044509526 0.0075323815 0.71900004
-0.047801856 0.012292442 0.71706247
-0.077104196 0.019310286 0.71900004
-0.073726043 0.019401589 0.71900004
-0.047343016 0.017298734 0.71700001
-0.042394292 0.019830478 0.71800005
-0.036292382 0.019858096 0.71900004
-0.081095375 0.022792792 0.71900004
-0.077223703 0.022550689 0.71755558
-0.073697306 0.022517938 0.71650004
-0.03293905 0.02145943 0.71760005
-0.081682324 0.026705718 0.71900004
-0.078037634 0.02707397 0.7166667
-0.030814288 0.026705716 0.71900004
-0.028760001 0.026705716 0.71900004
-0.080573663 0.032183811 0.71900004
-0.079782866 0.030685715 0.71600002
-0.039085716 -0.065142862 0.72000003
-0.036342859 -0.061028574 0.72000003
-0.034971431 -0.061028574 0.72000003
-0.034285717 -0.021257143 0.72000003
-0.040457144 -0.017142858 0.72000003
-0.037252676 -0.017913043 0.72130775
-0.041385718 -0.011847382 0.72125012
-0.038312383 -0.013535557 0.72266674
-0.043284085 -0.0075586401 0.72142863
-0.042582639 -0.0029098173 0.72207701
-0.039248578 -0.0020657144 0.72300005
-0.042521462 0.0028899687 0.72246671
-0.038789526 0.0032133337 0.72300005
-0.042470217 0.007568052 0.72245467
-0.076431431 0.014460001 0.72300005
-0.042615477 0.012372857 0.72175008
-0.039248575 0.012394287 0.72300005
-0.090202861 0.019968573 0.72300005
-0.087173142 0.019417716 0.72300005
-0.082343154 0.018831525 0.72170007
-0.078040585 0.016928954 0.7226001
-0.042581752 0.017170001 0.72116679
-0.037500661 0.017505789 0.72200012
-0.032866508 0.018437304 0.7215001
-0.028084764 0.01807628 0.72245467
-0.090547152 0.022378571 0.72300005
-0.087382011 0.022705188 0.72244453
-0.083888002 0.022378668 0.7208001
-0.03154286 0.023314288 0.72000003
-0.027669266 0.022674635 0.72145468
-0.087102644 0.026995346 0.72266674
-0.084002867 0.027924761 0.72100008
-0.03154286 0.02537143 0.72000003
-0.027484287 0.025424289 0.7215001
-0.082817271 0.032643694 0.72162503
-0.033833336 -0.020023812 0.72500002
-0.035214286 -0.016571429 0.72500002
-0.033499762 -0.017612619 0.72525001
-0.036610004 -0.011742572 0.72529995
-0.033268332 -0.012475001 0.72775012
-0.041083336 -0.0072500007 0.72500002
-0.037339766 -0.0076062712 0.72608328
-0.033294924 -0.0076301596 0.72833341
-0.040738098 -0.0048333337 0.72500002
-0.03682638 -0.0029233701 0.72538465
-0.033267856 -0.0027733338 0.72775
-0.036323901 0.0024860005 0.72509998
-0.033549368 0.0027769846 0.72883338
-0.037301909 0.0075988891 0.72533333
-0.03331048 0.0076330169 0.72866672
-0.092340015 0.014580002 0.72900003
-0.08711388 0.013973471 0.72842866
-0.08233358 0.013345716 0.72800004
-0.078696474 0.013163675 0.72757155
-0.036603335 0.012431111 0.72516668
-0.032540634 0.012460636 0.727
-0.027682539 0.013146668 0.72666663
-0.022403175 0.013625821 0.72755563
-0.018282859 0.014117144 0.72900003
-0.095117152 0.017357145 0.72900003
-0.091989644 0.017289948 0.72622228
-0.087608583 0.016760478 0.72574997
-0.082764767 0.016442096 0.72539997
-0.079404764 0.015880954 0.72500002
-0.031761907 0.015880954 0.72500002
-0.026583333 0.016916666 0.72500002
-0.022121351 0.017283257 0.72591662
-0.018694287 0.018000953 0.727
-0.096720487 0.021491906 0.72800004
-0.093493171 0.022194633 0.72618181
-0.02554762 0.021404764 0.72500002
-0.022460319 0.02154032 0.7256667
-0.018668573 0.020742858 0.72600001
-0.091924354 0.026362723 0.72571433
-0.088652074 0.029243812 0.72533339
-0.031328574 -0.016708571 0.73100001
-0.029936193 -0.016012382 0.73100001
-0.031328574 -0.01253143 0.73100001
-0.029936193 -0.011835239 0.73100001
-0.031328574 -0.0076580956 0.73100007
-0.029936193 -0.0076580956 0.73100001
-0.031339288 -0.002785 0.73125005
-0.029260002 -0.0027857143 0.73150003
-0.031380713 0.0024400002 0.73225003
-0.01710381 0.0045371433 0.73300004
-0.086448893 0.0086215874 0.73400009
-0.08262749 0.0084718373 0.73257148
-0.078669526 0.0090504764 0.73100001
-0.031021906 0.0073185717 0.73199999
-0.027664868 0.0081361905 0.73233342
-0.022047812 0.0079529528 0.73260003
-0.017426351 0.0076663503 0.73188889
-0.013064643 0.0080125006 0.73162502
-0.10526858 0.011851429 0.73200005
-0.10224055 0.012842723 0.73171437
-0.09749978 0.013231669 0.73125005
-0.092639536 0.012036429 0.73275006
-0.087855116 0.011503692 0.73212498
-0.082591251 0.010724191 0.73119998
-0.078669526 0.010442858 0.73100001
-0.02784762 0.010442858 0.73100001
-0.021984221 0.011041635 0.73114288
-0.01709778 0.01199217 0.73111111
-0.013357663 0.012345197 0.73118186
-0.10164344 0.017707428 0.73200005
-0.098223187 0.017415347 0.73144448
-0.017143812 0.016588002 0.73180002
-0.01421397 0.016544128 0.73400009
-0.10185096 0.020230953 0.73250002
-0.099136516 0.020662859 0.73133337
-0.026636193 -0.0014019047 0.73600006
-0.023598731 -0.0011682541 0.73600006
-0.093606673 0.0049266671 0.73900002
-0.085747622 0.0049200002 0.73800004
-0.083049528 0.0042228573 0.73900002
-0.030140955 0.0042057144 0.73600006
-0.027346432 0.0028050002 0.7362501
-0.022562226 0.00339 0.73650014
-0.018224763 0.0028038097 0.73600006
-0.095014289 0.0063342862 0.73900002
-0.092664093 0.00800143 0.73710001
-0.088206351 0.0072520645 0.73699999
-0.084228575 0.0063171433 0.73700005
-0.028038098 0.0063085719 0.73600006
-0.023832383 0.0063085719 0.73600006
-0.092525721 0.010514286 0.73600006
-0.09157639 0.0038087622 0.74080008
-0.089037716 0.0038087617 0.74080008
-0.090914294 0.0063428576 0.74000001
