# .PCD v0.7 - Point Cloud Data file format
VERSION 0.7
FIELDS x y z
SIZE 4 4 4
TYPE F F F
COUNT 1 1 1
WIDTH 636
HEIGHT 1
VIEWPOINT 0 0 0 1 0 0 0
POINTS 636
DATA ascii
-0.073320001 -0.015666667 0.65800005
-0.076244459 -0.012951112 0.65800005
-0.07311862 -0.012387474 0.65792316
-0.069560006 -0.010653334 0.65800005
-0.087524451 -0.0074503706 0.65800005
-0.084600016 -0.0068933344 0.65800011
-0.076453343 -0.0094000008 0.65800005
-0.07202249 -0.0081413342 0.65760005
-0.069267444 -0.0076403813 0.65760005
-0.086480007 -0.0025066668 0.65800005
-0.084182233 -0.0035511113 0.65800011
-0.091258101 -0.016666804 0.66214299
-0.086910002 -0.017400751 0.66264296
-0.082231976 -0.017834289 0.66200012
-0.0772736 -0.017516246 0.66205561
-0.072197862 -0.017761352 0.66208345
-0.068790488 -0.01577778 0.66266674
-0.090067312 -0.013227303 0.66133338
-0.087199874 -0.012419049 0.66142869
-0.08281859 -0.012769048 0.66092873
-0.078834765 -0.01232162 0.66009998
-0.071100324 -0.013214605 0.6606667
-0.067964457 -0.012736254 0.66200012
-0.064939052 -0.011348572 0.66200006
-0.091142863 -0.0056571434 0.66000003
-0.087648958 -0.0071685719 0.66020006
-0.082315125 -0.0075135888 0.66113341
-0.07778462 -0.0073173628 0.6615386
-0.073861912 -0.0066691437 0.66060007
-0.067493662 -0.0094619058 0.66233343
-0.091740541 -0.002520272 0.66171443
-0.087584876 -0.0027249737 0.66055566
-0.083600007 -0.0031428575 0.66000003
-0.076575249 -0.0039968258 0.66266674
-0.072492816 -0.0031503707 0.66188896
-0.069771431 -0.0044000004 0.66000003
-0.095920958 -0.020962859 0.66700006
-0.092404865 -0.02211724 0.66730005
-0.087614432 -0.022430405 0.667
-0.082509451 -0.022216111 0.66641676
-0.077289686 -0.022412751 0.66646153
-0.072524078 -0.022764448 0.66760004
-0.067804769 -0.022390481 0.66850007
-0.095920958 -0.019692382 0.66700006
-0.092583656 -0.019235399 0.66583335
-0.088666677 -0.019633334 0.66500002
-0.070300005 -0.019000001 0.66500002
-0.067044705 -0.018030275 0.66592866
-0.063777834 -0.018105716 0.66871434
-0.065331429 -0.013955239 0.66600001
-0.064159051 -0.013977144 0.66700006
-0.086014293 -0.00063714292 0.66900003
-0.081953943 -0.0023690045 0.66800004
-0.077613719 -0.0016478095 0.66580003
-0.071673334 -0.0012685715 0.66600001
-0.067961916 -0.0014866668 0.66900009
-0.077167153 0.0014328574 0.66825002
-0.072369158 0.0024189211 0.66773343
-0.067803822 0.0022285716 0.66850007
-0.064351432 0.0019114286 0.66900003
-0.071997158 0.006244001 0.66900009
-0.069448575 0.0057342863 0.66900003
-0.060953341 0.0074333339 0.66900003
-0.057286035 0.0076377783 0.66833347
-0.060953341 0.013167622 0.66900009
-0.057767622 0.012105716 0.66900009
-0.090240009 -0.026240002 0.67200005
-0.086741917 -0.026706986 0.67300004
-0.081979528 -0.026259525 0.67250007
-0.076455109 -0.027379461 0.6730001
-0.072597526 -0.027402097 0.67220002
-0.068023466 -0.027409613 0.67209089
-0.063510105 -0.026302481 0.67360008
-0.090744764 -0.024922859 0.671
-0.08754953 -0.024922859 0.671
-0.083045959 -0.024913576 0.67075002
-0.078564458 -0.02491048 0.67066669
-0.072104767 -0.024885716 0.67000002
-0.066680953 -0.024566669 0.67000002
-0.062887363 -0.022761907 0.67185718
-0.059697147 -0.022466669 0.67400002
-0.06160181 -0.017692171 0.67144448
-0.057997558 -0.017774696 0.67342848
-0.054480955 -0.016665716 0.67300004
-0.062544838 -0.012635989 0.67307144
-0.057757881 -0.013852488 0.67133331
-0.067262754 -0.0067493129 0.67122227
-0.064498678 -0.0073085721 0.67320001
-0.067382865 -0.0031904764 0.67000002
-0.063765503 -0.0024886774 0.67177778
-0.082099132 0.0024557938 0.67258334
-0.077886678 0.0036174606 0.67033339
-0.07465715 0.0044666668 0.67000002
-0.066680953 0.003509524 0.67000002
-0.062421039 0.0028975091 0.67038465
-0.058096197 0.0038301589 0.67033339
-0.080880009 0.0057771434 0.67400002
-0.076606132 0.0070493883 0.67271429
-0.072961062 0.0081875138 0.67266667
-0.067625217 0.007799177 0.67113334
-0.062884331 0.0077073281 0.67007697
-0.059342861 0.0076571433 0.67000002
-0.07125143 0.010912382 0.67400002
-0.067455448 0.012036614 0.67311108
-0.063465156 0.012514286 0.67040002
-0.059342861 0.011485714 0.67000002
-0.066116191 0.016047619 0.67400002
-0.064640008 0.016000001 0.67200005
-0.066237152 -0.036675241 0.67900002
-0.064020008 -0.035566669 0.67900002
-0.091566354 -0.030809527 0.67866677
-0.087676287 -0.031536192 0.67827272
-0.082662784 -0.031645 0.67808336
-0.077472121 -0.03149515 0.67736369
-0.072142228 -0.031564128 0.67633337
-0.067091912 -0.032258336 0.67737514
-0.06218572 -0.032016736 0.67814285
-0.058312006 -0.03141905 0.67880005
-0.090710007 -0.028307144 0.67550004
-0.087922066 -0.028521432 0.67550004
-0.082316674 -0.028296432 0.67525005
-0.078428581 -0.028285716 0.67500001
-0.066312388 -0.02897143 0.67600006
-0.062181439 -0.027938385 0.67590004
-0.057880513 -0.026944764 0.67680013
-0.054623101 -0.026180716 0.67875004
-0.057757668 -0.022530304 0.67590922
-0.05381266 -0.02224531 0.67842859
-0.055928577 -0.019285716 0.67500001
-0.053661715 -0.019431999 0.67560005
-0.062377468 -0.0083598942 0.67522228
-0.086785093 0.0034384129 0.67666668
-0.083758578 0.0045100003 0.67650002
-0.086006671 0.0064666672 0.67900002
-0.082368575 0.007618858 0.6778
-0.0782509 0.0087570082 0.6774286
-0.076360635 0.012691218 0.67755562
-0.07242924 0.01321927 0.67576939
-0.068291813 0.013761525 0.67519999
-0.07560429 0.01680143 0.67850006
-0.072221473 0.017335935 0.67872727
-0.068212114 0.017446397 0.67842859
-0.070486672 0.020046668 0.67900002
-0.068546668 0.020046668 0.67900002
-0.08586286 -0.035776194 0.68300003
-0.081929281 -0.036413811 0.68275005
-0.077520005 -0.035828575 0.68400002
-0.072527625 -0.036068197 0.68360007
-0.069600955 -0.036427625 0.68300003
-0.062151961 -0.037127536 0.68172729
-0.057308577 -0.036964852 0.68309098
-0.051929612 -0.037008233 0.68390912
-0.048857145 -0.035828575 0.68400002
-0.090666674 -0.033028573 0.68000001
-0.087067865 -0.034437384 0.68225002
-0.082489528 -0.034424763 0.68200004
-0.077835619 -0.034175809 0.68220007
-0.072722152 -0.034412146 0.68175006
-0.060876194 -0.034323812 0.68000001
-0.056417149 -0.032837577 0.6809091
-0.052046791 -0.032529049 0.68312502
-0.048278373 -0.032650344 0.68371433
-0.055047624 -0.029142858 0.68000001
-0.051910993 -0.027452955 0.68306679
-0.048205718 -0.027360002 0.68400002
-0.051319264 -0.022738732 0.68211108
-0.047926534 -0.022986123 0.68400007
-0.089115247 0.0045533339 0.68300003
-0.087194085 0.0078751333 0.68266666
-0.083542861 0.0090666674 0.68000001
-0.085926197 0.011066191 0.68350005
-0.082401469 0.013159417 0.68292314
-0.079086997 0.01296635 0.68066669
-0.080125719 0.016937144 0.68400002
-0.077714972 0.017734287 0.6824286
-0.074476197 0.018780954 0.68000001
-0.076812863 0.020179525 0.68350005
-0.07294102 0.022235245 0.68260002
-0.068524651 0.022950836 0.68362504
-0.074262857 0.025405716 0.68400002
-0.081248574 -0.041935239 0.68800002
-0.077329621 -0.042510916 0.68863648
-0.072837144 -0.040683813 0.68900001
-0.066931427 -0.040027622 0.68900001
-0.057817679 -0.04148582 0.68900007
-0.052551009 -0.042201586 0.6887778
-0.048776828 -0.040465083 0.68900001
-0.081428766 -0.039080955 0.68620008
-0.077130482 -0.038565874 0.68633342
-0.073044613 -0.0383754 0.68683338
-0.06925334 -0.03854667 0.68600005
-0.056459051 -0.039456513 0.68666673
-0.052719623 -0.039638478 0.68680006
-0.047589641 -0.03745155 0.68687499
-0.046520766 -0.03341905 0.68800002
-0.045912791 -0.027211841 0.68728584
-0.043837145 -0.028134288 0.68700004
-0.095147625 0.0045933337 0.68900001
-0.092289284 0.0036002384 0.68725002
-0.092154481 0.0064230487 0.68820006
-0.08911334 0.0091723818 0.68800002
-0.086759813 0.012692002 0.6870001
-0.086360388 0.016120382 0.68800002
-0.08282163 0.017794954 0.68690008
-0.081637144 0.020655241 0.68850005
-0.078025818 0.022649622 0.68730003
-0.066275239 0.024279049 0.68900001
-0.076423429 0.026610857 0.6882
-0.071917087 0.027641397 0.68773347
-0.067934021 0.027454019 0.68871433
-0.064962864 0.025591429 0.68900001
-0.071196675 0.031169049 0.68900001
-0.067325145 0.031365905 0.68900007
-0.071973979 -0.04556191 0.69333333
-0.068518743 -0.046046358 0.69400001
-0.056621592 -0.046046358 0.69400001
-0.053241529 -0.045843814 0.69360006
-0.048249528 -0.045605719 0.69400001
-0.071960881 -0.042771265 0.69090915
-0.067187153 -0.042442251 0.69164294
-0.062385984 -0.042133685 0.69218189
-0.057850242 -0.043715477 0.69025004
-0.052500956 -0.044156194 0.69200009
-0.047076341 -0.042517811 0.69169235
-0.04337012 -0.041887976 0.69262505
-0.045342859 -0.037457146 0.69000006
-0.044172145 -0.036917381 0.69225001
-0.045364764 -0.032216191 0.69033337
-0.042940956 -0.031710796 0.6936667
-0.045342859 -0.029571431 0.69000006
-0.043371432 -0.029571431 0.69000006
-0.10112572 0.0046266671 0.69400001
-0.098689906 0.0040956195 0.69360006
-0.096712388 0.007406773 0.69288898
-0.092645362 0.0090510724 0.69112504
-0.0958381 0.011236191 0.69400001
-0.09216401 0.012280191 0.69320005
-0.088714294 0.013142858 0.69000006
-0.090550482 0.016523812 0.69400001
-0.088146411 0.017779324 0.6914286
-0.087073699 0.021934643 0.69262499
-0.08303421 0.022776887 0.6904546
-0.082060963 0.026620954 0.69300002
-0.078280106 0.028286764 0.69070005
-0.067685723 0.02694286 0.69000006
-0.076957159 0.031548381 0.69300002
-0.07289917 0.03274655 0.69112504
-0.068416432 0.033552144 0.69075006
-0.070721909 0.037013337 0.69400001
-0.068833485 0.037296604 0.69400001
-0.071288452 0.042017687 0.69400001
-0.068739057 0.042080637 0.69400001
-0.061302226 0.042800847 0.69377786
-0.057502862 0.043622859 0.69400001
-0.054198097 0.044283811 0.69400001
-0.065434292 0.048249528 0.69400001
-0.062048495 0.047305003 0.69308341
-0.057713076 0.047637422 0.69200003
-0.052803632 0.047523156 0.69306242
-0.048079472 0.0483726 0.69366676
-0.060742147 0.052158818 0.69325
-0.057645962 0.052377224 0.69175005
-0.052760318 0.052103337 0.6925
-0.048722293 0.051627435 0.69320005
-0.072251432 -0.047726672 0.69600004
-0.067232393 -0.047608387 0.69620007
-0.062538698 -0.046980958 0.69654554
-0.057461113 -0.047516987 0.69616675
-0.052365717 -0.047726672 0.6960001
-0.047742859 -0.047412626 0.69625008
-0.042657997 -0.046636831 0.69622231
-0.038134862 -0.046373721 0.69760001
-0.062880956 -0.043685719 0.69500005
-0.041218098 -0.042708814 0.69525009
-0.039220955 -0.042544767 0.69800001
-0.041749369 -0.037110001 0.69583338
-0.039220955 -0.037005082 0.69800007
-0.04171937 -0.033111431 0.69533342
-0.038722225 -0.033411749 0.69700003
-0.10163778 0.0075139683 0.69600004
-0.099065088 0.0083841272 0.69500011
-0.096965723 0.012868191 0.69640011
-0.093990482 0.013900001 0.69500005
-0.096023574 0.017278334 0.69774997
-0.093121044 0.017233573 0.69591677
-0.091472074 0.021040954 0.69766665
-0.088742875 0.02374324 0.69640011
-0.086628102 0.026220953 0.69700003
-0.083098866 0.028760193 0.69580001
-0.081286535 0.032344494 0.6971429
-0.077830479 0.033450477 0.69550002
-0.066064134 0.033362545 0.69600004
-0.063770957 0.033878572 0.69749999
-0.076707304 0.037191115 0.69733334
-0.073076718 0.036870163 0.69544452
-0.066190481 0.037066668 0.69500011
-0.062571637 0.037297893 0.69578576
-0.058692388 0.038759053 0.69766665
-0.075626127 0.042225856 0.69742858
-0.073206671 0.04275905 0.69500011
-0.066720009 0.04249429 0.69500011
-0.063259184 0.041700002 0.69500011
-0.057014175 0.041103929 0.69612509
-0.052504238 0.042930059 0.695889
-0.048127625 0.043951023 0.69771427
-0.072136745 0.046732929 0.69671434
-0.067368753 0.047020875 0.69536376
-0.064297147 0.047728576 0.69600004
-0.047293182 0.046190005 0.69616675
-0.043918673 0.046837147 0.69660008
-0.065811433 0.05118667 0.69800001
-0.063177943 0.052572861 0.69583344
-0.056261908 0.0549381 0.69500005
-0.052952383 0.0549381 0.69500005
-0.055175241 0.056504767 0.69800001
-0.066125721 -0.051433019 0.7013334
-0.0629173 -0.051704541 0.70223087
-0.057504848 -0.051487546 0.70208335
-0.052201431 -0.05126505 0.70270008
-0.047491431 -0.050836831 0.70233339
-0.043039337 -0.051192291 0.70170009
-0.038321335 -0.050605532 0.70100003
-0.060666669 -0.048666671 0.70000005
-0.059333336 -0.048666671 0.70000005
-0.046000004 -0.048666671 0.70000005
-0.042000007 -0.048666671 0.70000005
-0.036666673 -0.047904767 0.70000011
-0.032666668 -0.046666667 0.70000005
-0.036666669 -0.04266667 0.69999999
-0.032805193 -0.042869959 0.7003637
-0.037338573 -0.037605047 0.70009995
-0.034048572 -0.039389525 0.70100003
-0.10414858 0.0080114286 0.70100003
-0.10264858 0.010840192 0.70260006
-0.09966445 0.012711431 0.70233339
-0.098374605 0.017399048 0.7026667
-0.096409149 0.021529146 0.70200002
-0.09315566 0.023234818 0.70144451
-0.091361649 0.02726531 0.70314294
-0.087650672 0.028149335 0.70040005
-0.090817392 0.031166431 0.70375001
-0.087646052 0.032115716 0.70250005
-0.084282711 0.032467782 0.70050013
-0.06150667 0.034097143 0.70200002
-0.057660956 0.034194287 0.70400006
-0.053638101 0.034194287 0.70400006
-0.086199053 0.036061525 0.70380002
-0.082216196 0.037433021 0.70183343
-0.079333335 0.038000003 0.70000005
-0.060796671 0.036075719 0.70150006
-0.057117883 0.037065279 0.70176929
-0.052297082 0.037582293 0.70220011
-0.047513653 0.03814286 0.70266664
-0.043128382 0.038440764 0.70320004
-0.082084768 0.041376956 0.70300001
-0.078459889 0.042736787 0.70112503
-0.051600005 0.040933337 0.70000005
-0.047152247 0.041627347 0.70014298
-0.042855114 0.04258921 0.70093334
-0.039501909 0.040840954 0.70300001
-0.076961279 0.046175241 0.70266676
-0.064759053 0.052741908 0.70100003
-0.061360005 -0.060011432 0.708
-0.057988577 -0.060011432 0.708
-0.062184364 -0.057188708 0.70642859
-0.058370002 -0.057026435 0.70649999
-0.051751431 -0.057145715 0.70800006
-0.047343694 -0.05677893 0.70762503
-0.043828573 -0.055965718 0.708
-0.06177143 -0.054385718 0.70500004
-0.058414292 -0.054385718 0.7050001
-0.052056577 -0.053941149 0.70620006
-0.04771715 -0.053765722 0.70566666
-0.042861145 -0.053879429 0.70539999
-0.1065616 0.012564129 0.70666665
-0.10292413 0.01345397 0.70633334
-0.10234872 0.017506124 0.70700008
-0.10069929 0.021892143 0.70725
-0.097979747 0.023749797 0.70671439
-0.096935056 0.027368573 0.70779997
-0.094241731 0.027829144 0.7058
-0.096422873 0.031691432 0.70800006
-0.093306199 0.032594766 0.70566666
-0.065405719 0.032365717 0.708
-0.06203429 0.033040002 0.708
-0.057401434 0.032823335 0.70699996
-0.052414697 0.033177689 0.70685726
-0.04713238 0.033328809 0.70700002
-0.043077145 0.033316907 0.70675004
-0.037921429 0.033658575 0.70683336
-0.034388572 0.034388572 0.708
-0.095074289 0.037085716 0.708
-0.092474513 0.037560519 0.70715386
-0.087759055 0.038291518 0.70536363
-0.050357144 0.035585716 0.70500004
-0.047671434 0.035585716 0.7050001
-0.04254318 0.036050163 0.70533341
-0.038022716 0.037297588 0.70615381
-0.034388572 0.035737146 0.708
-0.091435246 0.041561596 0.70766664
-0.087296098 0.041965507 0.70688885
-0.082633339 0.043667626 0.70540005
-0.079900004 0.044985719 0.70500004
-0.081924498 0.046497833 0.70757145
-0.077489048 0.048513815 0.70749998
-0.074066669 0.049153335 0.70700002
-0.060180955 -0.060180955 0.71000004
-0.055681907 -0.061114293 0.71300006
-0.052440953 -0.060842104 0.71140003
-0.047431909 -0.060308099 0.71150005
-0.042485479 -0.060838338 0.71375
-0.032858893 -0.06186524 0.71383345
-0.029240001 -0.060520004 0.71400005
-0.060180955 -0.058828574 0.71000004
-0.055942383 -0.057978574 0.71200001
-0.054372065 -0.057529531 0.71066666
-0.046995241 -0.058490481 0.71000004
-0.041844331 -0.057747539 0.71181822
-0.037373334 -0.057080477 0.71350014
-0.034000006 -0.057119999 0.71400011
-0.056123812 -0.054771431 0.71000004
-0.054771431 -0.054771431 0.71000004
-0.041247621 -0.054771431 0.71000004
-0.037360687 -0.053082593 0.7132858
-0.034680001 -0.051000003 0.71400005
-0.10819048 0.014200001 0.71000004
-0.11084001 0.016320001 0.71400005
-0.10762676 0.017435757 0.71154547
-0.10480953 0.019609526 0.71000004
-0.10630935 0.02213105 0.71280003
-0.10335287 0.022340795 0.71083331
-0.10243009 0.02713405 0.71225011
-0.099166915 0.028091192 0.71074998
-0.061636467 0.028245445 0.71342868
-0.057039373 0.027839683 0.71300018
-0.052311115 0.027853334 0.71333343
-0.047550716 0.028529288 0.7132501
-0.043624766 0.028704762 0.71200007
-0.038760003 0.029240001 0.71400005
-0.031960003 0.029240001 0.71400005
-0.028560001 0.029240001 0.71400005
-0.1020763 0.032015134 0.71188891
-0.098575979 0.032708257 0.71055555
-0.061591431 0.031133652 0.71066666
-0.057503812 0.03044286 0.71033335
-0.05248531 0.031026535 0.7104286
-0.047633067 0.03101429 0.71014291
-0.041775238 0.031162223 0.71133339
-0.037583496 0.031858627 0.71177781
-0.033717941 0.031906828 0.7128334
-0.028520001 0.030557144 0.71300006
-0.097118698 0.037392739 0.71062499
-0.092630804 0.043378737 0.71166676
-0.087967142 0.043983337 0.7105
-0.041160323 -0.061627623 0.71633339
-0.037510797 -0.062063184 0.71611118
-0.03386794 -0.061144136 0.71600002
-0.031389527 -0.057320002 0.71650004
-0.029342383 -0.058684289 0.71650004
-0.032573424 -0.052677505 0.71663642
-0.029444763 -0.052726671 0.71900004
-0.11214572 0.019146668 0.71800005
-0.10978667 0.01977524 0.71600002
-0.06140032 0.016206034 0.71900004
-0.11277746 0.022555239 0.71766669
-0.10897905 0.022979049 0.7166667
-0.061286192 0.022939526 0.71900004
-0.057648581 0.022697404 0.71827275
-0.052859463 0.022959867 0.71814287
-0.047606099 0.022844385 0.71819997
-0.042619832 0.022709528 0.71863633
-0.038004287 0.023624288 0.71900004
-0.026020955 0.023966668 0.71900004
-0.023217145 0.023900002 0.71700001
-0.11168794 0.026669845 0.71800005
-0.10753526 0.02710286 0.71657151
-0.065737143 0.025336193 0.71900004
-0.062793657 0.025936192 0.7166667
-0.057280004 0.025230478 0.71600002
-0.05250667 0.025230478 0.71600002
-0.047766432 0.025930241 0.71650004
-0.041951727 0.026934288 0.71669239
-0.037441999 0.027133595 0.71718186
-0.032868575 0.027213588 0.71799999
-0.02739048 0.02670572 0.71899998
-0.023900002 0.025265716 0.71700001
-0.033413336 0.030685715 0.71600002
-0.05852858 0.013358287 0.72300005
-0.11766493 0.019266512 0.72250009
-0.11467334 0.019225717 0.72100008
-0.065874673 0.018841907 0.72200006
-0.062615722 0.01869905 0.72050011
-0.057842676 0.017997844 0.7213335
-0.053004958 0.018586097 0.72280008
-0.047511436 0.019968573 0.72300005
-0.042691432 0.019968573 0.72300005
-0.036494289 0.019968573 0.72300005
-0.11742191 0.021286666 0.72100008
-0.066307485 0.022888165 0.72200006
-0.06325829 0.022366857 0.72040004
-0.05554286 0.021257143 0.72000003
-0.051428579 0.021257143 0.72000003
-0.048685718 0.021257143 0.72000003
-0.040457144 0.021257143 0.72000003
-0.036792926 0.021879185 0.72114295
-0.032565337 0.022808192 0.72140008
-0.027774004 0.022412289 0.72190011
-0.02339524 0.022018574 0.72250009
-0.11866795 0.014573335 0.72866672
-0.11386286 0.01319143 0.72900003
-0.056671113 0.012669525 0.7256667
-0.052643336 0.01316032 0.72733343
-0.047427833 0.013650055 0.72877783
-0.042351436 0.014580002 0.72900003
-0.03749143 0.014580001 0.72900003
-0.032471959 0.013034923 0.72888893
-0.028888892 0.013635557 0.7280001
-0.12157969 0.017269209 0.72533339
-0.11758167 0.01659905 0.72624999
-0.11432143 0.016627144 0.72750002
-0.068357147 0.018642858 0.72500002
-0.055928577 0.015880954 0.72500002
-0.051348895 0.01680889 0.72533339
-0.047250744 0.01717576 0.72672731
-0.042483147 0.017434193 0.72650003
-0.037367858 0.01729786 0.72658342
-0.032511432 0.017292596 0.72633338
-0.027690239 0.017306749 0.72691667
-0.024266668 0.018026669 0.72800004
-0.12514858 0.020051429 0.72600001
-0.12263322 0.020816874 0.7251429
-0.069063649 0.021409683 0.72516668
-0.037515875 0.020023812 0.72500008
-0.032467306 0.020033017 0.72533339
-0.027628336 0.020030715 0.72525001
-0.024200002 0.020051429 0.72600001
-0.11703953 0.0090566669 0.73150003
-0.11487143 0.0090504764 0.73100001
-0.05238159 0.0083803181 0.73333335
-0.047453579 0.0083735716 0.73275012
-0.042540245 0.0087164287 0.73225003
-0.038362227 0.0090669841 0.73233336
-0.12044096 0.01322762 0.73100001
-0.11747113 0.012311959 0.73177785
-0.11452334 0.012879524 0.73100001
-0.056391433 0.010442858 0.73100001
-0.052910477 0.010442858 0.73100001
-0.047051977 0.011041633 0.73114288
-0.042480536 0.011838414 0.73122221
-0.037607227 0.011838811 0.73125005
-0.034113336 0.011139048 0.73100001
-0.026672382 -0.075103812 0.73700005
-0.023225715 -0.075307623 0.73900002
-0.027432488 -0.072447941 0.73855555
-0.022702426 -0.072457403 0.73863637
-0.02729498 -0.067691177 0.73827279
-0.022460956 -0.067382865 0.73700017
-0.018110715 -0.066993579 0.7385
-0.026040955 -0.062639058 0.73900002
-0.022487462 -0.06253922 0.73783338
-0.01754762 -0.062469535 0.73700005
-0.013828255 -0.062113971 0.7383334
-0.020879684 -0.059354611 0.73900002
-0.017390002 -0.058491908 0.73774999
-0.013676297 -0.058224235 0.73855555
-0.010528572 -0.044220004 0.73700005
-0.056832619 0.0036950002 0.73899996
-0.052797146 0.0029997407 0.73736364
-0.047898412 0.0039720633 0.73600006
-0.043752067 0.0044453973 0.73700011
-0.05664048 0.0078904759 0.73650002
-0.05259588 0.0063114292 0.73633337
-0.04768024 0.0063107149 0.73625004
-0.041997422 0.006915783 0.7367143
-0.03785143 0.0077104769 0.73600006
-0.036796194 -0.072177157 0.74300003
-0.032198858 -0.072446287 0.74139994
-0.020438097 -0.072590478 0.74000001
-0.017665399 -0.072080322 0.7420001
-0.014860001 -0.070761912 0.74300003
-0.031758528 -0.068197489 0.741
-0.02889524 -0.065542862 0.74000001
-0.016572857 -0.068761431 0.74050003
-0.014273906 -0.066851057 0.74200004
-0.03038667 -0.064306669 0.74200004
-0.02752286 -0.062101912 0.74100006
-0.011531113 -0.063308582 0.74133337
-0.008625905 -0.061230864 0.74240011
-0.027187757 -0.057508033 0.74285722
-0.022965129 -0.057492901 0.74107689
-0.017984286 -0.056066193 0.74050003
-0.011391702 -0.057161503 0.74100006
-0.0080622872 -0.058134671 0.74260008
-0.027117355 -0.052269734 0.74277782
-0.02264151 -0.053065322 0.7429167
-0.017676907 -0.052321985 0.74241674
-0.013078254 -0.052905243 0.74233335
-0.013444763 -0.0481181 0.74300003
-0.012029525 -0.043872382 0.74300003
-0.057240006 -0.0063600005 0.74200004
-0.061026879 -0.0027504764 0.74222225
-0.0569201 -0.0025425719 0.74150008
-0.06178413 0.0011746034 0.74000001
-0.058311753 0.0011752383 0.74066675
-0.058495242 0.0063428576 0.74000001
-0.012413017 -0.072192281 0.74722224
-0.03633143 -0.069100954 0.74800003
-0.034080479 -0.067450009 0.74550009
-0.012061905 -0.067050003 0.74500006
-0.0092361914 -0.066785723 0.74600005
-0.0092238104 -0.064566672 0.74500006
-0.0074500004 -0.056407146 0.74500006
-0.022704763 -0.050376195 0.74500006
-0.011707144 -0.050730959 0.74500006
-0.0081201075 -0.052741278 0.745
-0.027155051 -0.047910482 0.74640006
-0.02222307 -0.048002541 0.74733341
-0.017754817 -0.047579791 0.74566674
-0.012629524 -0.047396194 0.745
-0.0092485724 -0.049088575 0.74700004
-0.017395921 -0.043641638 0.74771434
-0.014225557 -0.043385562 0.74683332
-0.058890481 -0.0063857147 0.74500006
-0.058890481 -0.004257143 0.74500006
-0.012142858 -0.070714287 0.75000006
-0.011190477 -0.068809532 0.75000012
-0.025612572 -0.046214864 0.75120008
-0.023602858 -0.045774288 0.75100005
-0.022054113 -0.042738449 0.75136358
-0.018428573 -0.041571435 0.75000006
-0.025100002 -0.03944286 0.75300002
-0.022918098 -0.038674287 0.75200003
-0.028042858 -0.045300003 0.75500005
-0.026434049 -0.042617381 0.7552501
-0.021226192 -0.037774291 0.75550008
-0.018695241 -0.038109526 0.75500005
