# .PCD v0.7 - Point Cloud Data file format
VERSION 0.7
FIELDS x y z
SIZE 4 4 4
TYPE F F F
COUNT 1 1 1
WIDTH 623
HEIGHT 1
VIEWPOINT 0 0 0 1 0 0 0
POINTS 623
DATA ascii
-0.095880009 -0.010653334 0.65800005
-0.092746675 -0.011071111 0.65800005
-0.076662235 -0.012602963 0.65800005
-0.074573338 -0.011906667 0.65800005
-0.095843576 -0.0075173811 0.65775001
-0.092574552 -0.0076415879 0.65766668
-0.089195564 -0.0073111122 0.65800011
-0.096074678 -0.017296381 0.66280001
-0.092329256 -0.017402587 0.66271436
-0.086951435 -0.01733253 0.66269237
-0.082389534 -0.017798025 0.66192311
-0.077613227 -0.017673276 0.66129416
-0.072769672 -0.017451704 0.66114295
-0.069982864 -0.015761906 0.66200006
-0.096002385 -0.013535716 0.66100001
-0.092411615 -0.01344814 0.66090918
-0.087325722 -0.012465608 0.66177779
-0.082478821 -0.012590876 0.6610834
-0.079324357 -0.012486531 0.66028577
-0.07267604 -0.013339367 0.66166675
-0.087278366 -0.0085384417 0.66190922
-0.081835687 -0.0083153248 0.66236377
-0.07721477 -0.0080604767 0.66130012
-0.074283816 -0.0088133337 0.66100001
-0.095569529 -0.0026510477 0.66280001
-0.094035566 -0.0031555556 0.66266674
-0.096536838 -0.022916194 0.66833347
-0.092941172 -0.021807199 0.66688895
-0.087794289 -0.021631431 0.6680001
-0.08239793 -0.022116367 0.66690916
-0.07744962 -0.022220239 0.6665833
-0.072717912 -0.021267241 0.66860002
-0.067537151 -0.021450479 0.66900009
-0.096477792 -0.019211113 0.66500008
-0.091200009 -0.019633334 0.66500002
-0.088033341 -0.019211113 0.66500008
-0.070476197 -0.018413335 0.66666669
-0.06738428 -0.017799998 0.66749996
-0.064351432 -0.018477144 0.66900003
-0.071816199 -0.011439684 0.66733336
-0.067770198 -0.013063372 0.66792309
-0.086051434 -0.0061307941 0.66600007
-0.082763627 -0.0059567625 0.66539997
-0.077266671 -0.0057000006 0.66500002
-0.072515488 -0.007632779 0.66791672
-0.069448575 -0.0082828579 0.66900003
-0.09704572 -0.0019028572 0.66600001
-0.08584287 -0.0031780954 0.66766679
-0.082558759 -0.0025383933 0.66681248
-0.077361487 -0.0025360123 0.66581249
-0.073548056 -0.0027567199 0.66766667
-0.081782147 0.00095500005 0.66824996
-0.077610925 0.0021068864 0.66838473
-0.074046671 0.0010612699 0.66833341
-0.096761793 -0.026984645 0.67062503
-0.092053033 -0.027125401 0.67277783
-0.087096609 -0.026834836 0.67314297
-0.082082547 -0.027575873 0.67333335
-0.077344581 -0.027578479 0.67339993
-0.072640471 -0.027100956 0.67349994
-0.068217903 -0.027313909 0.67319995
-0.063181773 -0.025951298 0.67400008
-0.10062953 -0.02435524 0.67300004
-0.098013505 -0.023649685 0.67116678
-0.092238098 -0.024359729 0.67057151
-0.087914154 -0.024193065 0.67100006
-0.083410107 -0.024652764 0.67060006
-0.077847622 -0.024885716 0.67000002
-0.072793692 -0.023761993 0.67100006
-0.067688279 -0.023883333 0.67050004
-0.062908866 -0.022612754 0.67246151
-0.059697147 -0.021824764 0.67400002
-0.063029617 -0.018025002 0.67191672
-0.066149205 -0.011273017 0.67000002
-0.064292863 -0.013241112 0.67283338
-0.070828579 -0.0063809529 0.67000002
-0.067617022 -0.0076256515 0.6710667
-0.064736195 -0.0076895244 0.67299998
-0.071527086 -0.0022835375 0.67142862
-0.067990005 -0.0025657143 0.67349988
-0.064095244 -0.002564762 0.67299998
-0.085120007 0.0025600002 0.67200005
-0.082567148 0.0033538095 0.67075002
-0.078060322 0.0044666668 0.67000002
-0.072654881 0.0029063008 0.67238468
-0.068028927 0.0025675001 0.67387491
-0.063114427 0.0027495241 0.67328566
-0.059697147 0.0044933334 0.67400002
-0.085373342 0.007060953 0.67400002
-0.082246676 0.0066795927 0.67242867
-0.077739872 0.0074930619 0.67142856
-0.072925657 0.0076770838 0.67168754
-0.067977741 0.007696548 0.67337495
-0.063255087 0.0076922229 0.67316663
-0.076129913 0.011425906 0.67400002
-0.07246349 0.012185398 0.67333335
-0.067635022 0.012481321 0.67338455
-0.063565724 0.012168096 0.67250001
-0.090911433 -0.031595241 0.67700005
-0.087807231 -0.031637222 0.67791671
-0.082448259 -0.031564128 0.67633343
-0.077332392 -0.031579681 0.67666674
-0.072075248 -0.031984489 0.6774286
-0.067225449 -0.03195715 0.67685723
-0.062130567 -0.031741817 0.67763644
-0.057906985 -0.031359259 0.67811108
-0.087609723 -0.028688574 0.67540002
-0.075214289 -0.028928574 0.67500001
-0.073285721 -0.028928574 0.67500001
-0.066857144 -0.028928574 0.67500001
-0.062529169 -0.02813036 0.67512506
-0.058004048 -0.027070716 0.67675
-0.05496667 -0.026513336 0.67900008
-0.1010781 -0.022533335 0.67600006
-0.057481825 -0.022240555 0.67691672
-0.05496667 -0.022202224 0.67900008
-0.061071433 -0.018000001 0.67500001
-0.058326762 -0.018452669 0.67750007
-0.05496667 -0.018753335 0.67900002
-0.063642859 -0.008357143 0.67500001
-0.082596615 0.0090959193 0.67528576
-0.061714288 0.007714286 0.67500001
-0.059874289 0.008369524 0.67600006
-0.081623338 0.011292382 0.67750001
-0.077536203 0.013246033 0.67655557
-0.071678482 0.014541715 0.67560005
-0.06878572 0.014785715 0.67500001
-0.063000001 0.012214286 0.67500001
-0.076053977 0.016589843 0.67866677
-0.072125338 0.017191811 0.67860001
-0.06783691 0.017242143 0.67675006
-0.071133338 0.020046668 0.67900002
-0.069091432 0.020017143 0.67800003
-0.086549051 -0.036535714 0.6820001
-0.08227405 -0.037508018 0.68291664
-0.079357147 -0.035776194 0.68300003
-0.066525243 -0.036347143 0.68150008
-0.062399767 -0.036400955 0.68250006
-0.057284053 -0.036453813 0.68350005
-0.052114289 -0.035828575 0.68400002
-0.090416193 -0.034475241 0.68300003
-0.087515563 -0.034357466 0.68066669
-0.082895242 -0.034323812 0.68000001
-0.077940479 -0.034424763 0.68200004
-0.074914292 -0.034525715 0.68400002
-0.066057146 -0.034323812 0.68000001
-0.062171429 -0.034323812 0.68000001
-0.056304526 -0.033264287 0.68150002
-0.052084882 -0.032553811 0.68362498
-0.04829878 -0.032292247 0.68400007
-0.055047624 -0.029142858 0.68000001
-0.05200256 -0.027304107 0.68256247
-0.048205718 -0.02736 0.68400002
-0.055047624 -0.02137143 0.68000001
-0.052494198 -0.022554763 0.68049997
-0.049866669 -0.022666669 0.68000001
-0.085337147 0.013028572 0.68400002
-0.082697503 0.013811071 0.68237507
-0.079009533 0.014895239 0.68000001
-0.082214728 0.017697664 0.68363643
-0.077938512 0.017700683 0.68114293
-0.074045718 0.018836191 0.68200004
-0.080718577 0.020179525 0.68350005
-0.077137865 0.021482382 0.68350005
-0.073785149 0.020952381 0.68320006
-0.080711432 -0.045933336 0.68900001
-0.076877557 -0.045677558 0.68657154
-0.074149527 -0.045277145 0.68900001
-0.081094287 -0.042315621 0.68780005
-0.077226751 -0.042421028 0.68853855
-0.073493339 -0.041340005 0.68900007
-0.066275239 -0.040027622 0.68900001
-0.063650481 -0.040027622 0.68900001
-0.057526037 -0.040027626 0.68900001
-0.051839054 -0.040465083 0.68900001
-0.047901906 -0.04068381 0.68900001
-0.080360003 -0.0392 0.68600005
-0.077220693 -0.037956741 0.68714297
-0.07230226 -0.037493594 0.68845463
-0.067523502 -0.038677782 0.68833339
-0.063404769 -0.038565401 0.68633336
-0.057744768 -0.03871524 0.68900001
-0.052172299 -0.037776109 0.68709105
-0.047906481 -0.037567433 0.68720007
-0.073934294 -0.034677144 0.68700004
-0.046083812 -0.032980319 0.68800002
-0.043702293 -0.032415815 0.68900007
-0.046010483 -0.028445145 0.6882
-0.043308575 -0.029528573 0.68900001
-0.048346668 -0.024173334 0.68600005
-0.092085406 0.0041558733 0.68900001
-0.091210485 0.0065619051 0.68900001
-0.088474974 0.0075851702 0.68814296
-0.086893342 0.012413334 0.68600005
-0.086477831 0.017296873 0.68714297
-0.085960954 0.020998098 0.68900001
-0.082574211 0.02252176 0.6876924
-0.077311121 0.02352 0.68600005
-0.07252001 0.02352 0.68600005
-0.076845832 0.02658741 0.68833339
-0.072934017 0.026497012 0.68814296
-0.070721909 -0.045605719 0.69400001
-0.067417145 -0.045605719 0.69400001
-0.062129531 -0.045605719 0.69400001
-0.057205718 -0.046108197 0.69360006
-0.052838098 -0.046233814 0.69350004
-0.047553334 -0.045572862 0.69350004
-0.044220004 -0.045540001 0.69300002
-0.071568869 -0.042495336 0.69070005
-0.067279629 -0.042322159 0.69213337
-0.062213052 -0.042611286 0.69323081
-0.057651095 -0.042447452 0.69145459
-0.0529516 -0.042646989 0.69066679
-0.046945114 -0.042760354 0.69072735
-0.042196013 -0.042200062 0.69231242
-0.061114289 -0.038771432 0.69000006
-0.045342859 -0.037457149 0.69000006
-0.042161193 -0.037552148 0.69174999
-0.038555559 -0.036572702 0.69400001
-0.041409355 -0.033140264 0.69218177
-0.038325876 -0.03237921 0.69383335
-0.045780957 -0.026066668 0.69000006
-0.042315561 -0.027993653 0.69066674
-0.037444606 -0.028854448 0.69383335
-0.096952386 0.0034628573 0.6925
-0.093971431 0.0039428575 0.69000006
-0.096760005 0.0072657149 0.69350004
-0.092584215 0.0083381757 0.69108337
-0.088714294 0.0098571433 0.69000006
-0.09189982 0.012393143 0.69220001
-0.088714294 0.012485716 0.69000006
-0.090922676 0.016232003 0.69279999
-0.088842861 0.017112859 0.69100004
-0.090550482 0.020489525 0.69400001
-0.087526672 0.021388097 0.69100004
-0.084771432 0.023000002 0.69000006
-0.08179763 0.02715905 0.69125003
-0.078216471 0.028826535 0.69014293
-0.07294286 0.028914288 0.69000006
-0.077620007 0.032187622 0.69227272
-0.07342355 0.032436058 0.69100004
-0.07380636 0.03591175 0.69400001
-0.05485905 0.044283811 0.69400001
-0.072043814 0.046927623 0.69400001
-0.06697651 0.04802921 0.69400001
-0.061742652 0.047646359 0.69377786
-0.0577779 0.047692318 0.6927858
-0.05325786 0.047976591 0.69325006
-0.049130797 0.048690163 0.69400001
-0.066756196 0.051223814 0.69400001
-0.06167376 0.052727938 0.69300008
-0.057844773 0.052237939 0.6928333
-0.053951435 0.051970165 0.6936667
-0.070823811 -0.046995241 0.69500005
-0.067306861 -0.048096769 0.69560015
-0.06228533 -0.048372306 0.69575012
-0.057544053 -0.048756193 0.69650006
-0.052440956 -0.048458099 0.69700003
-0.047640957 -0.047642045 0.69614291
-0.042248055 -0.047191091 0.696091
-0.037369419 -0.046658736 0.69655561
-0.032692622 -0.04713048 0.69700003
-0.037128273 -0.042433392 0.69618762
-0.032958839 -0.042249631 0.69677782
-0.02987143 -0.041820005 0.69700003
-0.036201339 -0.037396189 0.69620007
-0.032519206 -0.037162706 0.69683337
-0.029914288 -0.036561906 0.69800001
-0.035776511 -0.032465085 0.69566673
-0.033332575 -0.032802671 0.6972
-0.03574286 -0.029785717 0.69500005
-0.033757146 -0.029785717 0.69500005
-0.10569715 0.0046533337 0.69800001
-0.10269451 0.0033135449 0.69566673
-0.099947624 0.0033095242 0.69500005
-0.10554572 0.0059742862 0.69700003
-0.10223195 0.0080065932 0.69600004
-0.098694764 0.0083912704 0.69550008
-0.1030381 0.011300953 0.69800001
-0.096783817 0.012348001 0.69700003
-0.094788581 0.013258096 0.69600004
-0.095060959 0.015289525 0.69800001
-0.093731433 0.015289525 0.69800001
-0.087676518 0.024072703 0.69566673
-0.086751431 0.026258098 0.69800001
-0.083882153 0.028845478 0.69625008
-0.082299165 0.032520834 0.69687504
-0.070823811 0.033757146 0.69500005
-0.069500007 0.033757146 0.69500005
-0.081418626 0.036686778 0.69755554
-0.077526599 0.037108496 0.69575012
-0.072147623 0.037728574 0.69500011
-0.068311818 0.037804764 0.69640011
-0.077065855 0.042803269 0.69757152
-0.072351277 0.042209163 0.69500011
-0.067597508 0.042415123 0.69587505
-0.062376913 0.042467028 0.69675004
-0.057535626 0.042818483 0.6960001
-0.05322019 0.043931808 0.69680005
-0.075497717 0.047102671 0.69660008
-0.072368249 0.047877781 0.69500011
-0.067779057 0.047392383 0.69500011
-0.063712195 0.047021527 0.69540006
-0.051665243 0.046366192 0.69550002
-0.048447147 0.046896987 0.69683337
-0.071867615 0.051335238 0.69550002
-0.067894772 0.052825481 0.69550008
-0.063542858 0.053283341 0.69500005
-0.057585716 0.0549381 0.69500005
-0.052290481 0.052290477 0.69500005
-0.066058479 0.056754865 0.69779998
-0.062503889 0.057503592 0.69646162
-0.057527341 0.057527911 0.69749999
-0.055570479 -0.056909528 0.70300001
-0.052478209 -0.056498732 0.70344448
-0.04859215 -0.056635477 0.70375001
-0.060666669 -0.051333338 0.70000005
-0.057026155 -0.052292306 0.70145452
-0.052175477 -0.052178215 0.70237511
-0.047480009 -0.052163817 0.70216674
-0.04293853 -0.051442605 0.70145464
-0.038198419 -0.050261911 0.70366669
-0.048666671 -0.048666671 0.70000005
-0.036666669 -0.048666671 0.70000005
-0.10177414 0.013141112 0.70150006
-0.099070482 0.013010001 0.70050001
-0.10124191 0.015420954 0.70400006
-0.097322345 0.017081128 0.70209098
-0.093155883 0.018453335 0.70033336
-0.095741913 0.020755239 0.70300001
-0.092734881 0.02291392 0.70284629
-0.090000004 0.024666669 0.70000005
-0.091712177 0.027446352 0.70288897
-0.08762534 0.028141527 0.70020002
-0.090918422 0.031721272 0.70366669
-0.087500647 0.032062382 0.70133346
-0.084666669 0.033333335 0.70000005
-0.0870279 0.036780007 0.70214295
-0.083939329 0.038015783 0.70028579
-0.066984132 0.036273018 0.70100009
-0.062997147 0.037701365 0.70157152
-0.057739049 0.038268227 0.70272732
-0.05226627 0.038193896 0.70358342
-0.047592223 0.038878258 0.70383346
-0.044474926 0.039111115 0.70400012
-0.081999995 0.042000003 0.70000005
-0.079333335 0.04066667 0.70000005
-0.057059288 0.041043572 0.70075005
-0.051741593 0.042169847 0.70100009
-0.047466993 0.042788416 0.70200008
-0.043204255 0.042483672 0.70292324
-0.078000002 0.046000004 0.70000005
-0.0466654 0.046666037 0.70333338
-0.04443302 0.046666037 0.70333338
-0.071435243 0.054077145 0.70100003
-0.037085716 -0.060011432 0.708
-0.033714287 -0.062034294 0.708
-0.056677781 -0.056230165 0.70566672
-0.046776198 -0.056623813 0.7050001
-0.043038219 -0.056490593 0.70612502
-0.039108574 -0.055965718 0.708
-0.042568572 -0.053848576 0.70500004
-0.038561668 -0.053044051 0.70725
-0.10227715 0.017668486 0.70609093
-0.098700009 0.018800002 0.70500004
-0.10107191 0.020888098 0.70749998
-0.097393133 0.022797145 0.7063334
-0.096725479 0.027299287 0.70774996
-0.094760954 0.027555874 0.70566672
-0.10046858 0.034388572 0.708
-0.097771436 0.034388572 0.70800006
-0.093731061 0.032543428 0.70599997
-0.066809848 0.033141274 0.70700008
-0.062350482 0.032856766 0.70700008
-0.05768555 0.033092648 0.70654541
-0.052800953 0.033461194 0.70625007
-0.046984002 0.03379124 0.70679998
-0.042956766 0.034070287 0.70700002
-0.038434289 0.034388572 0.70800006
-0.095074289 0.035737146 0.708
-0.091669805 0.037034422 0.70700008
-0.088936836 0.037860002 0.70566672
-0.06177143 0.035585716 0.70500004
-0.057340004 0.035854291 0.70500004
-0.052371435 0.035585716 0.70500004
-0.047693338 0.036273975 0.70533335
-0.042637587 0.037261765 0.7054615
-0.038536005 0.037457909 0.70740002
-0.056360956 -0.060435243 0.71300006
-0.03591381 -0.060984291 0.71150005
-0.032170795 -0.060945086 0.7136668
-0.027829841 -0.06040699 0.71266669
-0.057040006 -0.059077147 0.71300006
-0.037385821 -0.057698838 0.71088886
-0.032429527 -0.057498399 0.71284628
-0.027349459 -0.057313953 0.71278584
-0.036138862 -0.053193718 0.71060002
-0.03267359 -0.052740131 0.71180022
-0.027087403 -0.052762128 0.71238482
-0.030557144 -0.049570478 0.71300006
-0.029199049 -0.049570478 0.71300006
-0.10627095 0.018334286 0.71300006
-0.10495715 0.019637143 0.71100003
-0.1060062 0.021065239 0.71350002
-0.10254613 0.022756737 0.71171439
-0.099400006 0.023666669 0.71000004
-0.10153525 0.026777525 0.71360004
-0.099182546 0.02756286 0.71166676
-0.070040002 0.027880002 0.71400005
-0.067311794 0.028313931 0.71212512
-0.062717237 0.028099338 0.71270007
-0.057069644 0.028534643 0.71337509
-0.052102868 0.02823429 0.71314299
-0.047500003 0.028499527 0.7125001
-0.042795479 0.028869286 0.71325004
-0.037364446 0.029212698 0.71333337
-0.033320002 0.029240003 0.71400011
-0.097371429 0.031780958 0.71000004
-0.068085246 0.031562701 0.71016669
-0.062231198 0.030439287 0.71025002
-0.057476193 0.030428573 0.71000004
-0.052441906 0.03129524 0.7105
-0.047630478 0.031527624 0.71040004
-0.04263024 0.031633575 0.7105
-0.037758686 0.032029457 0.71092314
-0.033357408 0.032370396 0.71218199
-0.027840953 0.030557144 0.71300006
-0.097371437 0.036176194 0.71000004
-0.09331429 0.037866667 0.71000004
-0.035838097 0.035838097 0.71000004
-0.034534287 0.035888575 0.71100003
-0.11024667 0.018488573 0.71900004
-0.10836172 0.017355621 0.71740001
-0.10698072 0.022556907 0.71775001
-0.071215242 0.023966668 0.71900004
-0.067106672 0.023966668 0.71900004
-0.062313341 0.023966668 0.71900004
-0.057011437 0.023487939 0.71833342
-0.052468169 0.022959867 0.71814287
-0.047878262 0.022569686 0.71816659
-0.04266974 0.023046248 0.71877778
-0.037935812 0.023418859 0.71900004
-0.032575108 0.023379732 0.71900004
-0.1061381 0.027390478 0.71900004
-0.10380939 0.027585171 0.71642864
-0.070967622 0.02593 0.71650004
-0.067837916 0.025797144 0.71660006
-0.062323973 0.025702698 0.71650004
-0.057320002 0.025929999 0.71650004
-0.052809145 0.025790099 0.71640009
-0.047767144 0.025930241 0.71650004
-0.042090163 0.026732063 0.7166667
-0.037539683 0.026618415 0.7166667
-0.032616269 0.026837219 0.71692306
-0.028029144 0.027479813 0.71780002
-0.1061381 0.030814288 0.71900004
-0.10246089 0.032297224 0.71684611
-0.11688725 0.018861337 0.72280008
-0.11284564 0.018127695 0.72146171
-0.066783205 0.018088141 0.72290915
-0.063119054 0.019050477 0.72300005
-0.057840005 0.019968573 0.72300005
-0.052313577 0.019273097 0.72275007
-0.047669806 0.018969119 0.72242862
-0.042969119 0.01937048 0.72271436
-0.036769718 0.019693146 0.72300005
-0.032707144 0.019624287 0.72300005
-0.11740144 0.021690004 0.72300005
-0.11249819 0.022550479 0.72145462
-0.10867238 0.023565082 0.72066677
-0.071725719 0.022080002 0.72000003
-0.067270719 0.021965001 0.72075009
-0.062515557 0.02198286 0.72133344
-0.058084767 0.021724131 0.72033346
-0.053485718 0.021257143 0.72000003
-0.041866034 0.021276828 0.72066677
-0.037371431 0.021600001 0.72000003
-0.033325717 0.021531431 0.72000003
-0.027490636 0.022679526 0.72166675
-0.023755718 0.023067143 0.72300005
-0.11131905 0.025936192 0.72300005
-0.1087006 0.027519407 0.72237509
-0.026074763 0.026074763 0.72050005
-0.024066668 0.025441907 0.72200006
-0.10810572 0.030985717 0.72300005
-0.12011144 0.01319143 0.72900003
-0.11752763 0.013467303 0.72733337
-0.11262605 0.013615556 0.727
-0.061673339 0.014090477 0.72766674
-0.057442505 0.013362501 0.72887504
-0.052710719 0.013870716 0.72825003
-0.047211431 0.014580001 0.72900003
-0.042004291 0.014232858 0.72900003
-0.037186943 0.013982045 0.72885722
-0.033020321 0.013621907 0.72733343
-0.029080953 0.014540001 0.727
-0.11807144 0.016670071 0.72500002
-0.061624449 0.016959896 0.72522217
-0.05733588 0.017269207 0.72533327
-0.052565955 0.016598811 0.72624993
-0.046819728 0.01653075 0.72757155
-0.042038783 0.016912248 0.72700012
-0.037497662 0.017146498 0.72545451
-0.032296076 0.01709774 0.72537494
-0.027849266 0.017413422 0.72609091
-0.024216667 0.017990954 0.72650003
-0.11786874 0.023021113 0.72516668
-0.068357147 0.020023812 0.72500002
-0.027619049 0.020023812 0.72500002
-0.023179526 0.021100953 0.72650003
-0.11676915 0.026179431 0.72720003
-0.11279858 0.027983811 0.72549999
-0.017476192 -0.065011434 0.73400009
-0.020272382 -0.06291429 0.73400003
-0.017440002 -0.06208339 0.73244447
-0.012577461 -0.062186994 0.73366678
-0.0076857153 -0.062177997 0.73355561
-0.0048933337 -0.060817149 0.73400003
-0.016619811 -0.058236577 0.73320001
-0.012660529 -0.058486987 0.73400009
-0.0076895244 -0.058720004 0.73400009
-0.0048933337 -0.059419051 0.73400003
-0.0020971431 -0.053826671 0.73400003
-0.030059051 -0.046836194 0.73400009
-0.027262859 -0.045438103 0.73400009
-0.027847622 -0.043860003 0.73100001
-0.024366667 -0.043860003 0.73100001
-0.0454381 0.0048933337 0.73400003
-0.12107049 0.0081333341 0.73200005
-0.11705942 0.0083613107 0.73162502
-0.11316954 0.0085980957 0.73200005
-0.060651433 0.0090628574 0.73200005
-0.057132792 0.0084742857 0.73285717
-0.052310165 0.0083692074 0.73233336
-0.047180004 0.0081338631 0.7321111
-0.042517304 0.0083633345 0.7318334
-0.039682861 0.0083542857 0.73100001
-0.12044096 0.011139048 0.73100001
-0.1168522 0.010724191 0.73119998
-0.1128343 0.011375874 0.73133337
-0.062045958 0.012547381 0.73199999
-0.058131907 0.010790953 0.73100001
-0.052910477 0.011139048 0.73100001
-0.047356911 0.011838811 0.73124999
-0.042649172 0.011662977 0.731125
-0.037826352 0.011371112 0.73100001
-0.12303239 0.023068573 0.73400003
-0.02740032 -0.070956513 0.73766673
-0.022330342 -0.071397007 0.73600012
-0.017804191 -0.071356952 0.73600006
-0.013699287 -0.071315482 0.73775005
-0.027406512 -0.067459218 0.73783338
-0.022444231 -0.067331851 0.73643768
-0.01752381 -0.067992389 0.73600006
-0.012629824 -0.067366734 0.73681265
-0.0081877783 -0.066199534 0.73683333
-0.02704286 -0.063565716 0.73750001
-0.022857144 -0.062261146 0.73620003
-0.0042119049 -0.062470958 0.73700005
-0.021587502 -0.058442738 0.73712504
-0.018131703 -0.056798644 0.73628581
-0.012517009 -0.055976063 0.73600012
-0.0077104764 -0.056076195 0.73600006
-0.0031545237 -0.057134371 0.73608339
-0.027374288 -0.051239055 0.73700011
-0.023225715 -0.051378097 0.73900002
-0.017570056 -0.052705929 0.73788893
-0.012626905 -0.052612461 0.73658341
-0.007716509 -0.052610476 0.73655558
-0.003087048 -0.052333333 0.73660004
-0.027373651 -0.048432276 0.73699999
-0.023921192 -0.047843572 0.73874998
-0.017595239 -0.049970478 0.73900002
-0.011964764 -0.049166128 0.73900002
-0.0075931437 -0.048227619 0.73820001
-0.0033884849 -0.048374459 0.73809099
-0.0063342862 -0.042932387 0.73900002
-0.0049266671 -0.043636195 0.73900002
-0.061148576 0.0042161909 0.73800004
-0.05764778 0.0035138093 0.73816669
-0.052611317 0.003507619 0.73655558
-0.048855558 0.0039733341 0.73633337
-0.061725717 0.0070138099 0.73650002
-0.057650294 0.0065923813 0.73640007
-0.052571431 0.0063085719 0.73600006
-0.04836572 0.0063085719 0.73600006
-0.030325238 -0.06770429 0.74050003
-0.022706669 -0.055988193 0.74040002
-0.026146669 -0.053000003 0.74200004
-0.022305205 -0.052587107 0.74076927
-0.017619047 -0.050038099 0.74000001
-0.021184921 -0.047313817 0.74150008
-0.017678574 -0.04808525 0.74250001
-0.013255027 -0.046975452 0.7411111
-0.0084571429 -0.045809526 0.74000001
-0.011483572 -0.042928338 0.74200004
-0.0084773814 -0.042383812 0.74175
-0.060147624 -0.00070761907 0.74300003
-0.057763182 -0.0011790477 0.74266672
-0.062487029 0.0015875001 0.74137497
-0.057085719 0.00070476194 0.74000001
-0.054266669 0.00070476194 0.74000001
-0.01775397 -0.046160322 0.74566674
-0.020659048 -0.044880003 0.74800003
-0.017272502 -0.043269645 0.74787509
-0.014041906 -0.042122625 0.74650002
-0.012721089 -0.038570344 0.74800009
-0.066207148 -0.0014242858 0.74750006
-0.062426753 -0.0026541129 0.74718183
-0.058751673 -0.0035611906 0.74775004
-0.022294894 -0.042702518 0.75072736
-0.018928573 -0.041785717 0.75000006
-0.021809254 -0.038191296 0.75257152
-0.017880399 -0.037187543 0.75091672
-0.014047621 -0.036904767 0.75000012
-0.018645715 -0.033705715 0.75300002
-0.065476201 -0.0054761912 0.75000012
-0.065714292 -0.0035714288 0.75000006
-0.062857144 -0.0035714288 0.75000006
-0.025526192 -0.042783335 0.75500005
-0.025183335 -0.037413813 0.75550008
-0.022872001 -0.036105528 0.75520009
-0.022310797 -0.033825081 0.75566673
