# .PCD v0.7 - Point Cloud Data file format
VERSION 0.7
FIELDS x y z
SIZE 4 4 4
TYPE F F F
COUNT 1 1 1
WIDTH 479
HEIGHT 1
VIEWPOINT 0 0 0 1 0 0 0
POINTS 479
DATA ascii
-0.076680005 0.013997144 0.63900006
-0.072999284 0.013991668 0.63875008
-0.068768576 0.013997144 0.63900006
-0.081345722 0.018460002 0.63900006
-0.077323295 0.017409872 0.63836366
-0.072900712 0.017009165 0.63787508
-0.067614555 0.016850952 0.63705552
-0.063120417 0.017772246 0.63728583
-0.076534487 0.021050287 0.63880008
-0.071202859 0.020082859 0.63900006
-0.067551434 0.020430615 0.63900006
-0.062419809 0.021780193 0.63880008
-0.075205721 0.00856 0.64200002
-0.072827213 0.0084791845 0.64257145
-0.068373337 0.0091571435 0.64100003
-0.061378103 0.0083603179 0.64233339
-0.085253343 0.012880001 0.64400005
-0.08250165 0.012515326 0.64254552
-0.077687077 0.011956736 0.6415714
-0.072236858 0.011686374 0.64069229
-0.066895589 0.011932859 0.64021432
-0.062267262 0.01220869 0.64100003
-0.057602059 0.01255546 0.64184624
-0.086412862 0.017158572 0.64350003
-0.083314657 0.016756412 0.64069235
-0.079116195 0.016213333 0.64000005
-0.060827784 0.016681429 0.64083338
-0.058000077 0.01729165 0.64315397
-0.087026201 0.02206381 0.64350009
-0.082876146 0.022094062 0.64123529
-0.077875912 0.022327034 0.6415385
-0.072624229 0.022173746 0.64157146
-0.067213871 0.022663206 0.64000005
-0.061843432 0.022688383 0.64040011
-0.057423517 0.021991488 0.64143753
-0.053249527 0.022645082 0.6426667
-0.085866675 0.025146669 0.64400005
-0.082186669 0.025146669 0.64400005
-0.077484451 0.025146669 0.64400005
-0.072373338 0.025453337 0.64400005
-0.067129016 0.026196711 0.64236367
-0.062279053 0.026605561 0.64216673
-0.057633411 0.026798986 0.64240015
-0.053058412 0.026019687 0.64200002
-0.087726265 0.013260137 0.6454286
-0.080471434 0.010442858 0.64500004
-0.054756194 0.014150477 0.64600003
-0.090486676 0.017849844 0.6463334
-0.088542983 0.017215833 0.645625
-0.055900004 0.016585715 0.6450001
-0.05344921 0.017544605 0.6463334
-0.090300009 0.020885715 0.64500004
-0.089071438 0.022114288 0.64500004
-0.053580321 0.020323811 0.64666671
-0.087231964 0.027028142 0.64627278
-0.082485415 0.027701272 0.64633334
-0.077389978 0.027467472 0.64530772
-0.072531998 0.027558651 0.64541668
-0.068003431 0.028652573 0.64560002
-0.062861912 0.02887143 0.6450001
-0.055900004 0.02887143 0.64500004
-0.053497463 0.028901272 0.64566672
-0.082044095 0.030931976 0.64771438
-0.077660322 0.031434767 0.64716661
-0.072978869 0.031189719 0.64720005
-0.067610793 0.031031536 0.64733332
-0.062631086 0.031288572 0.64645451
-0.057877377 0.032019403 0.64649999
-0.053826775 0.031667199 0.64633334
-0.05651366 0.035963178 0.64733338
-0.054141432 0.035683814 0.64600003
-0.089280009 0.029140001 0.65100002
-0.090383098 0.031681191 0.65225005
-0.087199531 0.032274291 0.6516667
-0.083326191 0.032990243 0.6505
-0.078000002 0.034047622 0.65000004
-0.072282724 0.033708848 0.65028584
-0.067347623 0.03344167 0.65025008
-0.062523812 0.034047626 0.65000004
-0.090176195 0.038558096 0.65300006
-0.08603017 0.03586318 0.65300006
-0.081806809 0.036329255 0.65285724
-0.077097565 0.037036255 0.65218753
-0.072078399 0.037283517 0.65243751
-0.066943526 0.036841545 0.6522308
-0.062060121 0.03723786 0.65162504
-0.058113694 0.037349407 0.65087503
-0.075250484 0.04042381 0.65300006
-0.072140962 0.04042381 0.65300006
-0.060946673 0.04042381 0.65300006
-0.058459051 0.04042381 0.65300006
-0.076140009 -0.011593334 0.65800005
-0.073320001 -0.010653335 0.65800011
-0.081466675 -0.006266667 0.65800005
-0.077417471 -0.0073803817 0.65660006
-0.072466254 -0.0074982741 0.65593749
-0.06906262 -0.0068759527 0.65625
-0.082093336 -0.0033422224 0.65800005
-0.077489972 -0.0029367041 0.65738469
-0.072501205 -0.0024988099 0.65625006
-0.068171337 -0.0018755241 0.65670007
-0.072652742 0.0012529762 0.65762502
-0.068306677 0.0006266667 0.65800011
-0.089204766 0.034309525 0.65500003
-0.087686159 0.03781363 0.65584624
-0.082873814 0.038550001 0.65550005
-0.079223812 0.039300002 0.65500003
-0.067995243 0.039300002 0.65500009
-0.09086667 0.040733337 0.65800005
-0.087442957 0.041717436 0.6577
-0.082664825 0.042585894 0.65756249
-0.077589542 0.042604513 0.65593338
-0.072361916 0.043042865 0.65500009
-0.067396909 0.04243584 0.65525001
-0.062607422 0.042719796 0.65550011
-0.058638096 0.042419054 0.65500003
-0.085853338 0.045746669 0.65800005
-0.08334668 0.045746669 0.65800011
-0.071114287 0.045538098 0.65500003
-0.067447864 0.045590244 0.65575004
-0.063229844 0.045700319 0.65733337
-0.076586291 -0.016024001 0.66240007
-0.072158784 -0.016305987 0.66214299
-0.081269056 -0.011340952 0.6615001
-0.078105293 -0.012796932 0.66077787
-0.072869457 -0.013025057 0.66092312
-0.069982871 -0.011979049 0.66200006
-0.081504762 -0.0085904766 0.66000003
-0.079828575 -0.0094285719 0.66000003
-0.082091436 -0.0011314286 0.66000003
-0.078571439 -0.00062857149 0.66000003
-0.081290171 0.0023120637 0.66166675
-0.077393599 0.0023954925 0.66140008
-0.072504774 0.0031523812 0.66200006
-0.069195718 0.0018871429 0.66050005
-0.090021908 0.044696193 0.66100001
-0.08815258 0.044139244 0.66020006
-0.088201433 0.045990001 0.66150004
-0.077325583 -0.021535924 0.66785723
-0.074120961 -0.021875238 0.66900003
-0.066565916 -0.021510288 0.66820014
-0.062658653 -0.021553881 0.66842866
-0.059077147 -0.020962859 0.66700006
-0.081699483 -0.017613968 0.66844451
-0.077535763 -0.018504936 0.66581815
-0.072833344 -0.018619999 0.66500002
-0.066923186 -0.017604921 0.66816676
-0.062377781 -0.018457459 0.66833329
-0.058551192 -0.017818334 0.66825008
-0.08216504 -0.013708164 0.6672858
-0.070300005 -0.014566667 0.66500002
-0.067324772 -0.014654288 0.66900003
-0.080433339 0.0044333334 0.66500002
-0.079166673 0.0044333334 0.66500002
-0.071948387 0.0041876193 0.66620004
-0.067697629 0.0031833339 0.66850013
-0.063077144 0.0044600004 0.66900003
-0.080895878 0.0061257146 0.66533339
-0.077506401 0.0062560546 0.66628575
-0.072565131 0.0063660718 0.66837507
-0.069448575 0.0057342863 0.66900003
-0.063077144 0.0057342863 0.66900003
-0.08184287 -0.02535524 0.67400002
-0.076913342 -0.026706986 0.67300004
-0.072535239 -0.026318099 0.67400002
-0.067726672 -0.02670699 0.67300004
-0.063753478 -0.027350478 0.6722858
-0.08640039 -0.022209907 0.67400002
-0.082452074 -0.022371642 0.67111111
-0.077920362 -0.023951547 0.67062503
-0.072516195 -0.023255829 0.67107695
-0.06809032 -0.023626236 0.67045462
-0.063187465 -0.024253812 0.67016667
-0.09050858 -0.016689524 0.67400002
-0.087425523 -0.01766324 0.67199999
-0.084374025 -0.01815143 0.67042863
-0.071466669 -0.019142859 0.67000002
-0.069259293 -0.018511668 0.67025006
-0.062533334 -0.015952382 0.67000002
-0.091022111 -0.01322324 0.67400002
-0.087521434 -0.013600001 0.67199999
-0.084951118 -0.013413334 0.67066669
-0.06780301 -0.012339562 0.6711539
-0.062755845 -0.012804526 0.67237502
-0.059490483 -0.013430795 0.67166674
-0.068187937 -0.0086205294 0.67333329
-0.067000002 0.0044666668 0.67000002
-0.064447626 0.0044666668 0.67000002
-0.072104774 0.0082952399 0.67000002
-0.067490853 0.0075098909 0.67000002
-0.064447626 0.0063809529 0.67000002
-0.087946668 -0.030393336 0.67900002
-0.082727976 -0.031023214 0.67862499
-0.07799302 -0.030809525 0.67866671
-0.072144605 -0.031523809 0.67800003
-0.067303814 -0.031745888 0.67772734
-0.063811056 -0.03132838 0.67679995
-0.087357417 -0.02724953 0.67657155
-0.082494453 -0.027571116 0.6758334
-0.077239215 -0.028535716 0.6758334
-0.072053336 -0.028307145 0.67550009
-0.067575008 -0.028639287 0.67575002
-0.086785719 -0.022928573 0.67500007
-0.09128572 -0.010928572 0.67500001
-0.08892858 -0.011357144 0.67500007
-0.05978572 -0.010928572 0.67500001
-0.066000551 -0.0069020414 0.67657149
-0.062481575 -0.007726463 0.67635721
-0.059530243 -0.0086878575 0.67575008
-0.065960005 -0.0032333336 0.67900002
-0.070901908 -0.035776194 0.68300003
-0.067673579 -0.035789292 0.68325007
-0.063840002 -0.035828575 0.68400002
-0.08697065 -0.032670956 0.68150008
-0.082472734 -0.033770837 0.68187505
-0.077566817 -0.03290014 0.68114293
-0.073114477 -0.034155622 0.68180007
-0.06755048 -0.034424763 0.68200004
-0.062616669 -0.033584606 0.6825
-0.065409526 -0.00064761908 0.68000001
-0.062603183 -0.002914286 0.67999995
-0.071688816 -0.04117595 0.68900007
-0.068900004 -0.040683813 0.68900001
-0.063650481 -0.040027622 0.68900001
-0.087148033 -0.036787488 0.68800008
-0.082662083 -0.0371968 0.68736368
-0.077573657 -0.036493018 0.68833339
-0.072516412 -0.037604447 0.68733341
-0.067708716 -0.037824087 0.68642867
-0.062687837 -0.037409741 0.68644446
-0.088753581 -0.034387857 0.6877501
-0.077150002 -0.034651905 0.68650007
-0.060760003 -0.03462667 0.68600005
-0.077908814 -0.045556433 0.69325006
-0.072418332 -0.045425002 0.69125003
-0.067317627 -0.045540005 0.69300002
-0.064112388 -0.045605719 0.69400001
-0.087402873 -0.041204222 0.69300002
-0.082731232 -0.041981027 0.69178587
-0.077620663 -0.042100299 0.69068754
-0.072792023 -0.042886551 0.69012505
-0.066836134 -0.042303201 0.69092864
-0.062068291 -0.042074587 0.69276929
-0.058824766 -0.042300954 0.69400001
-0.090093814 -0.038142383 0.69050002
-0.0882762 -0.038333338 0.69000006
-0.080828577 -0.038771432 0.69000006
-0.077323817 -0.038333338 0.69000006
-0.061114289 -0.038771432 0.69000006
-0.057006992 -0.0063828579 0.69333339
-0.056821194 -0.0039640479 0.69375002
-0.087083817 -0.045868576 0.69800007
-0.082563676 -0.046543274 0.69671434
-0.077028811 -0.047147386 0.69725001
-0.072459057 -0.047198098 0.69800007
-0.067673452 -0.047769167 0.69662499
-0.062207971 -0.04724589 0.69690913
-0.058145478 -0.046184529 0.69774997
-0.087455243 -0.043728258 0.69566679
-0.060895242 -0.044347622 0.69500005
-0.057219245 -0.044210479 0.69700003
-0.055679053 -0.0072914287 0.69600004
-0.054184131 -0.0064146034 0.69666672
-0.056402147 -0.0016588096 0.69675004
-0.053563103 -0.0034814284 0.6965
-0.056504767 0.00066476193 0.69800001
-0.05118667 0.00066476193 0.69800001
-0.048206862 0.0041169524 0.6972
-0.08515048 -0.050285719 0.70400006
-0.082410485 -0.050585244 0.70350003
-0.07750278 -0.051446151 0.70318192
-0.072434977 -0.051478796 0.70363647
-0.067366667 -0.051586568 0.70344448
-0.062784009 -0.051272005 0.70280004
-0.059630007 -0.052260481 0.70350003
-0.08719068 -0.048202861 0.70100003
-0.082696915 -0.048684053 0.70025003
-0.077333339 -0.048666671 0.70000005
-0.072666675 -0.048666671 0.70000005
-0.059418101 -0.048736192 0.70100003
-0.051851749 -0.0064536515 0.70100009
-0.055333339 -0.00066666672 0.70000005
-0.052018814 -0.0013335715 0.70025003
-0.056007218 0.0029593201 0.70128572
-0.052710712 0.0027872226 0.70208347
-0.056138098 0.0071015242 0.70340008
-0.052249886 0.0066989288 0.70337504
-0.048274286 0.0060342862 0.70400006
-0.086308576 -0.055965718 0.708
-0.082262859 -0.055965718 0.708
-0.078891434 -0.055965718 0.708
-0.066979051 -0.056415241 0.70800006
-0.062438857 -0.056235433 0.708
-0.087186597 -0.052628022 0.70691669
-0.082430281 -0.053435136 0.70622224
-0.077995241 -0.054127149 0.70600003
-0.072460763 -0.054178864 0.7058
-0.067429535 -0.054240573 0.70660001
-0.06257572 -0.054165721 0.70649999
-0.05992667 -0.054540005 0.70700002
-0.052407146 0.0087347627 0.70550001
-0.047536191 0.0076763816 0.70699996
-0.055833973 0.011437143 0.70633334
-0.052668959 0.011990095 0.70720005
-0.049199685 0.011458097 0.70766664
-0.081600003 -0.060520004 0.71400005
-0.079560004 -0.060520004 0.71400005
-0.070720002 -0.060520004 0.71400005
-0.066953719 -0.060979243 0.713
-0.062537387 -0.060498811 0.71375006
-0.059160005 -0.060520004 0.71400005
-0.090271115 -0.057693973 0.71266669
-0.08761511 -0.057992253 0.71157146
-0.082668334 -0.058276191 0.71150005
-0.077101171 -0.05750709 0.7122224
-0.072556831 -0.057640426 0.71200007
-0.068085879 -0.058391586 0.71016669
-0.061968714 -0.05829633 0.71057147
-0.059077147 -0.059077147 0.71300006
-0.089933336 -0.054095238 0.71000004
-0.046742864 0.0088069849 0.71133339
-0.050714288 0.014200001 0.71000004
-0.046944179 0.012348427 0.71123087
-0.056123812 0.015552382 0.71000004
-0.052430388 0.016802192 0.71130002
-0.048059128 0.017416432 0.71241683
-0.051000003 0.021080002 0.71400005
-0.047408398 0.022313682 0.71390921
-0.042345461 0.022563638 0.71400017
-0.037853338 0.022893336 0.71400011
-0.032640003 0.023800002 0.71400005
-0.027200002 0.023800002 0.71400005
-0.051680002 0.025160002 0.71400005
-0.046920002 0.026690001 0.71400011
-0.04128572 0.026131431 0.71400011
-0.037523642 0.02701455 0.71400017
-0.032640006 0.027200006 0.71400005
-0.027867306 0.027186669 0.7136668
-0.038080003 0.030600002 0.71400005
-0.032640003 0.030600002 0.71400005
-0.027880004 0.030600002 0.71400011
-0.085595243 -0.065052383 0.71900004
-0.082660548 -0.066030622 0.71900004
-0.066421911 -0.065052383 0.71900004
-0.062613338 -0.066717625 0.71850002
-0.059408575 -0.066237144 0.71700001
-0.087252475 -0.062041044 0.71727276
-0.082738571 -0.062779769 0.71650004
-0.077669099 -0.062273595 0.71709096
-0.072716199 -0.06246705 0.71760005
-0.067873575 -0.063098334 0.71625006
-0.062526986 -0.062982433 0.71622223
-0.058845717 -0.063761525 0.71680003
-0.077737153 -0.059325717 0.71600002
-0.044509526 0.0089019053 0.71900004
-0.044509526 0.012325715 0.71900004
-0.053225718 0.019107144 0.71650004
-0.046060957 0.018424287 0.71650004
-0.043067049 0.018457334 0.71780002
-0.03766191 0.019858096 0.71900004
-0.052788816 0.022720955 0.71750003
-0.04977905 0.023866668 0.71600002
-0.040232383 0.02113905 0.71600002
-0.036595561 0.021593653 0.71600002
-0.032748215 0.021832023 0.71637505
-0.028426353 0.022285715 0.71633339
-0.051824771 0.027958099 0.71600002
-0.04841524 0.027787622 0.71600002
-0.042980004 0.028123284 0.71633339
-0.036140956 0.029321907 0.71600002
-0.051897146 0.030728573 0.71700001
-0.047585201 0.032160439 0.71845454
-0.041322455 0.031944763 0.71800005
-0.03720893 0.032772742 0.71687502
-0.032814767 0.033500798 0.71783328
-0.029042384 0.033143811 0.71750003
-0.085714288 -0.066514291 0.72000003
-0.081655718 -0.068160474 0.72049999
-0.077434927 -0.065752387 0.72166675
-0.072233975 -0.065353975 0.72233343
-0.066919625 -0.066781908 0.72140008
-0.043278735 0.0084736515 0.72133338
-0.041948494 0.0123777 0.72208345
-0.037871432 0.014460001 0.72300005
-0.041428261 0.016708257 0.72100008
-0.037303813 0.017057577 0.72172737
-0.033519767 0.018736906 0.72200012
-0.028575718 0.018935716 0.72300005
-0.024100002 0.019968573 0.72300005
-0.026057145 0.021257143 0.72000003
-0.024100002 0.021345716 0.72300005
-0.052032381 0.033692382 0.72200006
-0.047771435 0.034514289 0.72000003
-0.043714285 0.033428572 0.72000003
-0.038400002 0.034971431 0.72000003
-0.052331433 0.035461433 0.72300005
-0.040569525 0.035068575 0.72200006
-0.085045718 -0.073982865 0.72600001
-0.081588574 -0.071908578 0.72600001
-0.076994613 -0.070983812 0.72833341
-0.071779534 -0.071362965 0.72890007
-0.067623578 -0.071785003 0.72825003
-0.080897145 -0.069834292 0.72600001
-0.077310488 -0.068227492 0.72571433
-0.072649375 -0.067807779 0.72650003
-0.068427861 -0.06911929 0.72575003
-0.049294289 -0.0076371431 0.72900003
-0.040738098 0.0089761913 0.72500002
-0.03739363 0.012285936 0.72607696
-0.032698452 0.013319644 0.72662497
-0.027997829 0.013948031 0.72714293
-0.0319 0.016709525 0.72500002
-0.027208669 0.017126003 0.72509998
-0.03107143 0.020023812 0.72500002
-0.027638573 0.020037621 0.72549999
-0.076196194 -0.076196194 0.73400003
-0.073796198 -0.075884767 0.73100001
-0.080171436 -0.073200002 0.73200005
-0.077502333 -0.07254868 0.73166668
-0.073100016 -0.073796198 0.73100007
-0.048588894 -0.0086022224 0.73233336
-0.046053343 -0.0020920634 0.73266673
-0.046243813 0.0044152383 0.73200005
-0.044040002 0.0048933337 0.73400003
-0.04531429 0.0062742862 0.73200005
-0.042840194 0.0071156197 0.73260003
-0.037958916 0.0084677553 0.73228574
-0.032145005 0.0083854757 0.7337501
-0.028194923 0.0086215874 0.73400009
-0.035505716 0.010442858 0.73100001
-0.03239524 0.010798096 0.73150003
-0.02816776 0.011047756 0.7315715
-0.082122862 -0.075103812 0.73700011
-0.078883186 -0.076074928 0.73733342
-0.047027621 -0.011230476 0.73700005
-0.046599459 -0.007515647 0.73657149
-0.044340003 -0.0084457146 0.73900002
-0.04626286 -0.0049066669 0.73600006
-0.043546196 -0.0021071432 0.73750007
-0.046294764 0.001402381 0.73650002
-0.042523991 0.0028683983 0.73636371
-0.038073525 0.0046358099 0.73760003
-0.032023542 0.0043157823 0.73785716
-0.028076192 0.003509524 0.73700011
-0.046963811 0.0063085719 0.73600006
-0.041356195 0.0063085719 0.73600006
-0.037440576 0.0065906676 0.73620003
-0.032243814 0.0063085719 0.73600006
-0.027816828 0.006778731 0.73633337
-0.082791433 -0.077130482 0.74300003
-0.043782383 -0.010592857 0.74150002
-0.042850479 -0.0072990484 0.74166673
-0.041641697 -0.0030582014 0.7411111
-0.038429845 -0.0011790477 0.74266672
-0.028304763 -0.00070761907 0.74300003
-0.040641274 0.0011746034 0.74000001
-0.037244882 0.0019403573 0.74137497
-0.03270619 0.0017673811 0.74250001
-0.028266668 0.00070666673 0.74200004
-0.085852385 -0.077338099 0.74500006
-0.040952068 -0.0078117466 0.74566674
-0.038442384 -0.0064071435 0.74750006
-0.040442862 -0.0049666669 0.74500006
-0.037366673 -0.0033984133 0.74655563
-0.032886889 -0.0023544324 0.74692321
-0.027727146 -0.0028452384 0.74650013
-0.033347622 0.00070952385 0.74500006
-0.03944286 -0.010757144 0.75300002
-0.026534287 -0.010757144 0.75300002
-0.037082996 -0.0076625855 0.75085717
-0.032214291 -0.006444762 0.75166672
-0.027777404 -0.0069633764 0.75136369
-0.036095239 -0.015160001 0.75800002
-0.036708787 -0.012236615 0.75577784
-0.032400001 -0.012240001 0.75600004
-0.028781112 -0.01223254 0.75550008
-0.03667143 -0.0093476195 0.75500005
-0.032357149 -0.0093476195 0.75500005
-0.029480955 -0.0093476195 0.75500005
