# .PCD v0.7 - Point Cloud Data file format
VERSION 0.7
FIELDS x y z
SIZE 4 4 4
TYPE F F F
COUNT 1 1 1
WIDTH 700
HEIGHT 1
VIEWPOINT 0 0 0 1 0 0 0
POINTS 700
DATA ascii
-0.046086669 -0.026547622 0.66900003
-0.043962859 -0.026122859 0.66900003
-0.05033429 -0.022937145 0.66900003
-0.047043342 -0.022886431 0.66750002
-0.042364176 -0.022578685 0.66853851
-0.028650001 -0.021328572 0.66850007
-0.046815921 -0.01918 0.66814291
-0.042891622 -0.019218097 0.66820014
-0.031220002 -0.019114286 0.66900003
-0.028098287 -0.017755304 0.66746676
-0.024774287 -0.015880954 0.66700006
-0.027397146 -0.014017144 0.66900003
-0.02399905 -0.014229525 0.66900003
-0.046518862 -0.030629335 0.67280006
-0.042302858 -0.03076667 0.67299998
-0.039098099 -0.030766668 0.67300004
-0.055845719 -0.026318099 0.67400002
-0.05254072 -0.027230874 0.67275
-0.047605924 -0.027740531 0.67044449
-0.041979656 -0.02758104 0.67063642
-0.037137464 -0.027534764 0.67233324
-0.032086827 -0.026632546 0.67383331
-0.028885717 -0.025034288 0.67400002
-0.055845719 -0.022466671 0.67400002
-0.052991688 -0.022858704 0.67181826
-0.040625401 -0.024460319 0.67000002
-0.037061609 -0.023003874 0.67093742
-0.032461129 -0.022706842 0.67072731
-0.029990477 -0.022333335 0.67000002
-0.051856108 -0.018331777 0.67218184
-0.047431752 -0.016803175 0.67000002
-0.041773681 -0.017256625 0.6710909
-0.037152208 -0.017932681 0.67256242
-0.032818098 -0.017621525 0.67040008
-0.050660323 -0.013465399 0.67333335
-0.047294825 -0.012780298 0.67106253
-0.042214051 -0.012792145 0.67162502
-0.036716957 -0.01322324 0.67399997
-0.032276601 -0.012616875 0.67200005
-0.028089527 -0.013406033 0.67033339
-0.023609525 -0.014676192 0.67000002
-0.046939898 -0.0086177783 0.67311108
-0.042275637 -0.0083267475 0.67258328
-0.036909528 -0.0086657144 0.67400002
-0.032650001 -0.0089623826 0.67216671
-0.029990477 -0.0089333337 0.67000002
-0.056260005 -0.035566669 0.67900002
-0.054320004 -0.035566669 0.67900002
-0.035566669 -0.035566669 0.67900002
-0.034273334 -0.035566669 0.67900002
-0.061811667 -0.032090556 0.67841667
-0.057594948 -0.032099269 0.67715389
-0.052875541 -0.032244224 0.67706245
-0.048725035 -0.032332655 0.67700011
-0.042491432 -0.032834288 0.67600006
-0.036873251 -0.031951688 0.67709094
-0.032392576 -0.032136068 0.67753351
-0.02778036 -0.031334408 0.67837501
-0.023926668 -0.030393336 0.67900002
-0.062165372 -0.02717888 0.67800003
-0.058222383 -0.027341589 0.67550009
-0.05464286 -0.028928574 0.67500001
-0.031500004 -0.028928574 0.67500007
-0.027267795 -0.027622771 0.67736369
-0.061267108 -0.022145022 0.67845458
-0.058023274 -0.022159595 0.67585725
-0.060571115 -0.018322226 0.67900008
-0.05732156 -0.017892122 0.67763644
-0.054160576 -0.017109526 0.67540002
-0.056777336 -0.013838666 0.67900002
-0.053247146 -0.012907462 0.67766666
-0.03814286 -0.012214287 0.67500007
-0.051750485 -0.0083931983 0.67800003
-0.048266396 -0.0065268036 0.67571431
-0.042473573 -0.0057921433 0.67575002
-0.03787905 -0.007598476 0.67640013
-0.051086672 -0.0045266668 0.67900002
-0.047784172 -0.0025814285 0.67799997
-0.043104507 -0.0029888314 0.67736369
-0.038800001 -0.0045266668 0.67900002
-0.047160953 0.00064603181 0.6783334
-0.071440011 -0.036262862 0.68400002
-0.067281909 -0.036245402 0.68366671
-0.0624201 -0.036802195 0.68270004
-0.057712264 -0.036962979 0.680875
-0.051847029 -0.036732502 0.68262506
-0.047682624 -0.036942147 0.68350005
-0.04488286 -0.035776194 0.68300003
-0.036914289 -0.036050797 0.68000001
-0.07237374 -0.032877065 0.68358338
-0.067545898 -0.032474585 0.68193746
-0.063745402 -0.03392572 0.68066669
-0.047380477 -0.034075715 0.68150002
-0.044165716 -0.034424763 0.68200004
-0.038267624 -0.034374289 0.68099999
-0.071657151 -0.028662857 0.68400002
-0.067475311 -0.02743048 0.68253338
-0.064114287 -0.025904763 0.68000001
-0.025257144 -0.029142858 0.68000001
-0.023961907 -0.029142858 0.68000001
-0.066917151 -0.022305023 0.68336374
-0.063949525 -0.021660764 0.68100005
-0.06265834 -0.017368335 0.68175
-0.061026543 -0.013095648 0.68271434
-0.057875365 -0.012157501 0.680875
-0.060582861 -0.0084685721 0.68400002
-0.057201549 -0.0077983346 0.68250012
-0.053265907 -0.0068681911 0.68040001
-0.056213021 -0.0028212699 0.68366671
-0.052709531 -0.0024187881 0.68172735
-0.055697147 0.0019542859 0.68400002
-0.052189406 0.0027339056 0.68326676
-0.047653053 0.0029884765 0.68170005
-0.043952249 0.0026967351 0.68300003
-0.051462855 0.0070209536 0.68400002
-0.047672734 0.0076394817 0.68400002
-0.050160002 0.011074287 0.68400002
-0.048857145 0.011074287 0.68400002
-0.072837144 -0.040465083 0.68900001
-0.068243816 -0.040027622 0.68900001
-0.062994286 -0.040683813 0.68900001
-0.057252705 -0.041737463 0.68833339
-0.052419052 -0.041280001 0.68800008
-0.048453815 -0.041250002 0.6875
-0.075461909 -0.03674667 0.68900001
-0.072409049 -0.038248572 0.68650001
-0.068082049 -0.038384359 0.68642867
-0.062787861 -0.039243098 0.68675005
-0.057127148 -0.039465878 0.68683338
-0.052217145 -0.039326262 0.68657154
-0.048346668 -0.039853334 0.68600005
-0.075315878 -0.032089844 0.68766677
-0.073826671 -0.030706668 0.68600005
-0.075461909 -0.029528573 0.68900001
-0.072555557 -0.027017465 0.68633342
-0.069906674 -0.025480002 0.68600005
-0.071520641 -0.02218963 0.68755561
-0.069471121 -0.022431111 0.68600005
-0.070212387 -0.019029524 0.68900001
-0.067362696 -0.017211344 0.68790913
-0.064275876 -0.015469524 0.68633342
-0.068243816 -0.011155238 0.68900001
-0.063907489 -0.012444356 0.68771434
-0.067587622 -0.0098428577 0.68900001
-0.063209131 -0.0078592869 0.6877501
-0.036090478 -0.0059057148 0.68900001
-0.034778096 -0.0065619051 0.68900001
-0.061444383 -0.0035377145 0.68780011
-0.058905721 -0.0023334695 0.68614286
-0.06102572 0.001312381 0.68900001
-0.058073729 0.0028329368 0.68641675
-0.043182857 0.0045800004 0.68700004
-0.057270337 0.0075068139 0.68753862
-0.053117968 0.0088687083 0.68614286
-0.045423098 0.0078430958 0.68625003
-0.043442227 0.0063304766 0.68766677
-0.055776194 0.011155238 0.68900001
-0.052382387 0.012441239 0.6875
-0.047761228 0.012805852 0.6870001
-0.050526671 0.015092382 0.68900001
-0.04790191 0.015748572 0.68900007
-0.062666193 0.047573812 0.68900001
-0.059713338 0.047901906 0.68900001
-0.085262865 -0.045605719 0.69400001
-0.083280012 -0.045605719 0.69400001
-0.077331431 -0.045605719 0.69400001
-0.072653338 -0.045572862 0.69350004
-0.068078101 -0.045605719 0.69400001
-0.056760006 -0.045540001 0.69300002
-0.052848041 -0.04639937 0.69266671
-0.048699051 -0.045408573 0.69100004
-0.086557463 -0.042801697 0.69377786
-0.082482718 -0.042078029 0.69115394
-0.077761017 -0.042177681 0.69193751
-0.072441742 -0.042891432 0.69090909
-0.067117229 -0.042772781 0.69091672
-0.062114287 -0.043334525 0.69200003
-0.058076389 -0.043592196 0.69140005
-0.052571431 -0.043371435 0.69000006
-0.049285717 -0.043371432 0.69000006
-0.085262865 -0.038335241 0.69400001
-0.082369529 -0.037133515 0.69290906
-0.078074865 -0.037653718 0.69120002
-0.081297152 -0.032386668 0.69400001
-0.07841 -0.032945082 0.69183338
-0.081297152 -0.029742859 0.69400001
-0.077834569 -0.027702723 0.6925714
-0.07425715 -0.026285715 0.69000006
-0.075863495 -0.023086986 0.69266671
-0.074144952 -0.02199105 0.69140005
-0.07215929 -0.017132463 0.6919167
-0.069000006 -0.015114287 0.69000006
-0.071161121 -0.012519207 0.69183338
-0.067512251 -0.012863811 0.69014293
-0.071280718 -0.0079180961 0.69300008
-0.06752485 -0.0075626201 0.69058341
-0.033 -0.0066000009 0.69300002
-0.070721909 -0.0046266671 0.69400001
-0.066915527 -0.0028229936 0.69171435
-0.063017964 -0.0019717007 0.6902858
-0.036416195 -0.0022344764 0.69020003
-0.033622462 -0.0026369046 0.69224995
-0.06619969 0.00242 0.69277775
-0.06279248 0.002896667 0.69110006
-0.040752545 0.003286826 0.69016671
-0.037184767 0.0022740741 0.69311112
-0.03304762 0.00066095241 0.69400001
-0.066095248 0.0066095246 0.69400001
-0.062515773 0.0077330736 0.69227272
-0.059390798 0.0094238101 0.69033337
-0.045342859 0.0098571433 0.69000006
-0.042139225 0.0080928151 0.69236368
-0.061281431 0.012553809 0.69375002
-0.057387982 0.012662501 0.69062507
-0.054621909 0.013820001 0.69100004
-0.045342859 0.012485716 0.69000006
-0.043248437 0.012343674 0.69257146
-0.057189148 0.016906478 0.69340003
-0.05276585 0.017237591 0.69080013
-0.046926573 0.017876668 0.69010007
-0.044267859 0.017179286 0.69375002
-0.056180958 0.022472383 0.69400001
-0.052810833 0.02244476 0.69312501
-0.04794037 0.022273408 0.69246161
-0.052760001 0.026521908 0.69371432
-0.049571432 0.025777144 0.69400001
-0.057172388 0.03205619 0.69400001
-0.061468575 0.038665719 0.69400001
-0.057238486 0.037277717 0.69400007
-0.05485905 0.038996194 0.69400001
-0.071162552 0.043843176 0.69400001
-0.067201093 0.042566258 0.69371438
-0.062027872 0.042230237 0.69287503
-0.057943497 0.042080641 0.69400007
-0.071280479 0.047520243 0.69300002
-0.06711489 0.047373578 0.69087505
-0.062428579 0.046844903 0.69000012
-0.058916576 0.046001147 0.69200009
-0.071382865 0.050893337 0.69400001
-0.06715215 0.050691672 0.69125003
-0.062428575 0.050600003 0.69000006
-0.091472074 -0.046289846 0.69766665
-0.087813735 -0.047446594 0.69675004
-0.081976578 -0.047356196 0.69640011
-0.077306673 -0.047612384 0.69675004
-0.072554976 -0.047582455 0.69528586
-0.067439049 -0.047913861 0.696091
-0.062376283 -0.047114849 0.69675004
-0.057585198 -0.048301905 0.69645458
-0.053614289 -0.048319049 0.69500005
-0.0912861 -0.042918481 0.69760001
-0.08880239 -0.041749053 0.69583344
-0.087395921 -0.03732219 0.69730002
-0.084061913 -0.035080954 0.69500005
-0.08575429 -0.033238098 0.69800001
-0.083480649 -0.032463811 0.69566673
-0.082456194 -0.027927091 0.69633341
-0.080090478 -0.024490478 0.69500005
-0.077900365 -0.022540122 0.69612503
-0.077236623 -0.017482542 0.69711113
-0.074795246 -0.01654762 0.69500005
-0.076523498 -0.012606351 0.69666672
-0.074000955 -0.012576192 0.69500011
-0.076227151 -0.0088014286 0.69749999
-0.073541909 -0.0086117461 0.69566673
-0.031109527 -0.0059571434 0.69500005
-0.029306859 -0.0075567625 0.69620007
-0.071947619 -0.0029389118 0.69671434
-0.069500007 -0.0013238096 0.69500005
-0.031109527 -0.0026476192 0.69500005
-0.029083336 -0.0031576192 0.69800001
-0.071027622 0.0013276192 0.69700003
-0.069074973 0.0029389118 0.69642866
-0.035905529 0.0038430479 0.69560015
-0.032945562 0.0026544444 0.69650006
-0.06734179 0.0086244056 0.69662505
-0.064204767 0.009928572 0.69500005
-0.040376194 0.0092666671 0.69500005
-0.03753363 0.0076104039 0.69707698
-0.066429056 0.012622382 0.69749999
-0.063966192 0.01259524 0.69600004
-0.040976193 0.01286419 0.69620007
-0.039220955 0.011300953 0.69800001
-0.065811433 0.015954286 0.69800001
-0.062045246 0.017050818 0.69621438
-0.058909528 0.018533334 0.69500005
-0.042397011 0.016599458 0.6971429
-0.061370064 0.02237704 0.69788891
-0.058342978 0.022542264 0.69612509
-0.045737147 0.022538096 0.69600004
-0.044032067 0.021021273 0.69700003
-0.061136436 0.027909527 0.69774997
-0.057649292 0.027829763 0.69575012
-0.053042226 0.028765613 0.69522232
-0.049027942 0.027827939 0.69566679
-0.066476196 0.033902861 0.69800001
-0.061843283 0.032800533 0.69655561
-0.05785048 0.032698099 0.69500011
-0.053058185 0.032500081 0.6964168
-0.049857147 0.031243812 0.69800001
-0.072101191 0.038874529 0.69775003
-0.06754414 0.037286602 0.6966666
-0.06245508 0.036523499 0.69516677
-0.058909528 0.03574286 0.69500005
-0.053448658 0.037301648 0.6960001
-0.07560686 0.043450292 0.69760001
-0.072580852 0.0419254 0.69633341
-0.068838105 0.040376194 0.69500005
-0.055970483 0.043386668 0.69550002
-0.053455673 0.04212736 0.696091
-0.075585335 0.046891626 0.69740003
-0.073471442 0.046995245 0.69500005
-0.05670318 0.046553969 0.69500005
-0.053614289 0.045671433 0.69500005
-0.09038572 -0.055570479 0.70300001
-0.088439524 -0.055610001 0.70350003
-0.096233666 -0.050685085 0.70333338
-0.09234231 -0.052020084 0.70175004
-0.087543339 -0.052166466 0.70092857
-0.082658298 -0.051947944 0.70106673
-0.077464588 -0.052090418 0.70118749
-0.072264202 -0.051962867 0.70126677
-0.067382388 -0.050703339 0.70050001
-0.062666669 -0.050000004 0.70000005
-0.096114449 -0.047389999 0.70083332
-0.093111113 -0.047777783 0.70000005
-0.096809976 -0.042598881 0.70190918
-0.093466952 -0.042397823 0.70028579
-0.095810011 -0.038859528 0.70350003
-0.09289977 -0.037425004 0.70175004
-0.089666672 -0.036333337 0.70000005
-0.091607034 -0.032990836 0.70337504
-0.087917894 -0.031975236 0.7011112
-0.087000445 -0.027699308 0.70318192
-0.083333336 -0.026000002 0.70000005
-0.086139686 -0.022707304 0.70355558
-0.082185641 -0.022501994 0.70054561
-0.079333335 -0.020666668 0.70000005
-0.08567334 -0.017708709 0.7035715
-0.08207874 -0.017349843 0.70066679
-0.079333335 -0.016666669 0.70000005
-0.08515048 -0.013409525 0.70400006
-0.082082689 -0.012211516 0.70172739
-0.079066671 -0.012133335 0.70000005
-0.081536196 -0.0082650799 0.70366669
-0.078144364 -0.0067731985 0.70128578
-0.074000008 -0.0060000005 0.70000005
-0.031378098 -0.0073438101 0.70100003
-0.077578045 -0.0026745836 0.7021876
-0.073693097 -0.0016669049 0.70025003
-0.026885357 -0.0021696431 0.70137501
-0.024046034 -0.0033390482 0.7013334
-0.076597787 0.002457672 0.70344448
-0.073163629 0.0029432382 0.70220011
-0.031051973 0.0035357829 0.70228583
-0.028756907 0.0010040477 0.70225
-0.071979485 0.0072281384 0.70154554
-0.035333335 0.0086666672 0.70000005
-0.032913335 0.0071852389 0.70175004
-0.071151756 0.011498624 0.70111114
-0.068666682 0.012666668 0.70000005
-0.037029747 0.012378903 0.70107704
-0.033887241 0.011654477 0.70320004
-0.070860416 0.017117824 0.7028572
-0.06762924 0.017608097 0.70030004
-0.064666674 0.018666668 0.70000005
-0.04125848 0.018293906 0.70100003
-0.038031593 0.017065559 0.7026667
-0.070931844 0.023069527 0.70357156
-0.067445874 0.022704922 0.70116681
-0.064095244 0.022952385 0.70000011
-0.046197146 0.024772383 0.70300001
-0.042830385 0.022755146 0.70270008
-0.03888762 0.020784764 0.70400006
-0.070936382 0.027221335 0.70400006
-0.06746266 0.027384765 0.70133334
-0.06400001 0.027333334 0.70000005
-0.046776515 0.027398733 0.70166671
-0.044570718 0.027145002 0.70375007
-0.082468584 0.034194287 0.70400012
-0.07777524 0.034194287 0.70400006
-0.071768261 0.032478254 0.70316672
-0.06754382 0.031635623 0.70080006
-0.064133346 0.031066669 0.70000005
-0.050000004 0.033333335 0.70000005
-0.04746699 0.032091908 0.70200008
-0.043436192 0.032714117 0.70363641
-0.08619906 0.037803814 0.70380002
-0.082175717 0.037411906 0.70150012
-0.077486075 0.037404649 0.70137507
-0.072622962 0.036421273 0.70100003
-0.050842267 0.036839645 0.7001251
-0.047771532 0.036924768 0.70211118
-0.044453658 0.035964765 0.70366669
-0.090514295 0.040899049 0.70400006
-0.087116309 0.0415475 0.70362502
-0.082017414 0.042556796 0.70118195
-0.078071781 0.042280093 0.70063645
-0.050888896 0.041111115 0.70000005
-0.048666671 0.04066667 0.70000005
-0.080781907 0.046733335 0.70100003
-0.078315407 0.047389999 0.70083332
-0.091985717 -0.055728573 0.70500004
-0.085942864 -0.055728573 0.70500004
-0.081618741 -0.056732699 0.70633334
-0.078151427 -0.056362864 0.70620006
-0.074171431 -0.057314288 0.708
-0.095074289 -0.054617148 0.708
-0.09332858 -0.054385718 0.70500004
-0.097645506 -0.037427943 0.70600003
-0.097029053 -0.034364287 0.70749998
-0.093259856 -0.031609051 0.70616674
-0.091807351 -0.027396739 0.70657146
-0.089300007 -0.026185716 0.70500004
-0.091590121 -0.022898454 0.70712495
-0.088532656 -0.022924492 0.70500004
-0.09163858 -0.018866668 0.70749998
-0.088545091 -0.017259154 0.70611119
-0.087605141 -0.012057144 0.70630771
-0.083928578 -0.010071429 0.70500004
-0.086922072 -0.0080855563 0.70749998
-0.083230801 -0.0069542862 0.70666671
-0.08252915 -0.0029622857 0.70680004
-0.024171431 -0.00067142863 0.70500004
-0.081346802 0.0027922452 0.70757145
-0.079138868 0.0025540954 0.70539999
-0.027294394 0.0032165081 0.70666665
-0.023460161 0.0023577779 0.70716667
-0.080914289 0.0060685719 0.708
-0.077170834 0.0072296429 0.70612502
-0.074528575 0.0087285722 0.70500004
-0.030571431 0.0077276202 0.70550001
-0.027863652 0.0069661913 0.70783329
-0.077361219 0.012312035 0.70745462
-0.073761225 0.012757144 0.70500004
-0.031925958 0.012098335 0.70574999
-0.080689535 0.019104764 0.70800006
-0.077461198 0.017512619 0.70725
-0.073656835 0.017687092 0.70522225
-0.035946671 0.018478096 0.70550001
-0.033281166 0.016978309 0.70677781
-0.080183342 0.022908574 0.70749998
-0.077433333 0.022893336 0.70699996
-0.073656835 0.022611324 0.70522219
-0.041482225 0.024440955 0.70633334
-0.038362861 0.02259524 0.70671433
-0.091702864 0.028994288 0.708
-0.087657154 0.028994288 0.708
-0.081550799 0.028306987 0.70766664
-0.077409424 0.027597567 0.70677781
-0.073569395 0.02772041 0.70500004
-0.042205714 0.027744763 0.70624995
-0.039431669 0.02797262 0.70775002
-0.095074289 0.033040002 0.708
-0.09239199 0.032554843 0.70725006
-0.087478995 0.032298394 0.7065624
-0.082351781 0.031654462 0.70718175
-0.077527054 0.03157429 0.70539993
-0.074192859 0.031221431 0.70500004
-0.041786101 0.031037146 0.70539999
-0.039403573 0.031320717 0.70725
-0.096422866 0.035737146 0.708
-0.092507705 0.037338816 0.70641661
-0.088852391 0.037152387 0.70500004
-0.086614296 0.04364286 0.7050001
-0.083928578 0.044985719 0.70500004
-0.082585722 0.046328574 0.70500004
-0.092590913 -0.061350267 0.71311122
-0.08793667 -0.060774766 0.71300006
-0.082306199 -0.061263576 0.71275008
-0.078397155 -0.06122699 0.7116667
-0.096913911 -0.056136765 0.71360004
-0.092432715 -0.058082435 0.71188897
-0.087352388 -0.058234926 0.71100008
-0.083653912 -0.058436006 0.71180004
-0.077264391 -0.058591243 0.71040004
-0.073704764 -0.058828574 0.71000004
-0.098762676 -0.053115815 0.71320003
-0.096606039 -0.031824768 0.71099997
-0.09399049 -0.02727302 0.71000004
-0.093990482 -0.023666669 0.71000004
-0.09574572 -0.016297143 0.71300006
-0.092906408 -0.01653143 0.71057147
-0.092289001 -0.012409842 0.71077782
-0.089933336 -0.010142858 0.71000004
-0.091729887 -0.0072903577 0.712125
-0.087935954 -0.0067640482 0.71025002
-0.091247946 -0.0029427514 0.71322227
-0.087403737 -0.0027094446 0.71141672
-0.084523812 -0.0013523811 0.71000004
-0.090610676 0.0028529526 0.71320003
-0.087536357 0.0027153972 0.7125001
-0.084062733 0.0030001362 0.71100008
-0.090440005 0.0068000006 0.71400005
-0.087455787 0.0070862588 0.71342868
-0.082919143 0.0077231438 0.71130008
-0.079114288 0.0087904772 0.71000004
-0.026151907 0.0078909546 0.71016669
-0.023177525 0.0071851434 0.71160001
-0.090440005 0.0102 0.71400005
-0.08719489 0.011727739 0.71387511
-0.082686551 0.012199167 0.7116251
-0.079114288 0.010142858 0.71000004
-0.030457145 0.012860319 0.71066666
-0.027139351 0.012215896 0.71243751
-0.023783335 0.010872858 0.71350002
-0.086632006 0.018088004 0.71400005
-0.083067924 0.017259857 0.71176934
-0.031312384 0.018322451 0.7125715
-0.029240001 0.017680002 0.71400005
-0.096913919 0.023242667 0.7136001
-0.092317529 0.023249334 0.71380007
-0.087019846 0.02243508 0.71383333
-0.083420001 0.022380214 0.71211118
-0.03651429 0.022990478 0.71000004
-0.032549769 0.022379925 0.71208346
-0.10180724 0.028136 0.7136001
-0.097655892 0.027124465 0.7120626
-0.092326231 0.026637588 0.71161544
-0.08754275 0.02646466 0.71255571
-0.083302014 0.026412064 0.71111113
-0.037100177 0.026887188 0.71063638
-0.033773199 0.026418643 0.71128577
-0.10209991 0.032824766 0.71311116
-0.097809874 0.032312181 0.71107155
-0.093990482 0.031780954 0.71000004
-0.036565717 0.030471431 0.71100003
-0.095477149 0.03724286 0.71100003
-0.10179389 -0.061897833 0.71871436
-0.097619377 -0.06212138 0.7167778
-0.10726981 -0.056421913 0.71871436
-0.10249233 -0.05739674 0.71743745
-0.098013029 -0.058443815 0.71633339
-0.10729513 -0.053012658 0.71757144
-0.10304017 -0.053225875 0.71650004
-0.096282862 -0.0068285717 0.71700001
-0.094917148 -0.0068285717 0.71700001
-0.096583389 -0.002657884 0.71811116
-0.094045527 -0.0028664765 0.71660006
-0.096689008 0.0029225973 0.71818185
-0.093178108 0.0027297623 0.71675003
-0.095181912 0.0068476195 0.71900004
-0.092436358 0.0075125406 0.71716678
-0.088647626 0.0088647623 0.71600002
-0.091637701 0.012590068 0.71728581
-0.08898858 0.013297143 0.71600002
-0.023067622 0.013240573 0.71660006
-0.11024667 0.019173335 0.71900004
-0.10887715 0.018488571 0.71900004
-0.096121773 0.018089389 0.71871436
-0.092376344 0.017908061 0.71684623
-0.088745043 0.017437283 0.71600002
-0.026630476 0.017755557 0.71700001
-0.023966668 0.017803811 0.71900004
-0.11133556 0.022586033 0.71866673
-0.10750763 0.022597145 0.71899998
-0.10220505 0.022711147 0.71829998
-0.097887866 0.021487381 0.71625006
-0.092836469 0.021918369 0.71600002
-0.089329533 0.02250286 0.71600002
-0.028024528 0.022216193 0.71775001
-0.022254763 0.021570001 0.71900004
-0.11106838 0.027527431 0.71900004
-0.10735907 0.02735143 0.71799994
-0.10363457 0.026614698 0.71657151
-0.030750003 0.025968097 0.71750003
-0.029444763 0.026020955 0.71900004
-0.10663239 0.031811815 0.71680003
-0.10433143 0.032049529 0.71600002
-0.10688954 -0.062720828 0.72142869
-0.10388573 -0.062742859 0.72000003
-0.10720001 -0.059200004 0.72000003
-0.099338412 -0.0011473018 0.72266674
-0.099154294 0.00068857148 0.72300005
-0.10115001 0.00825762 0.72250009
-0.097947054 0.007693334 0.72120011
-0.093942866 0.0089142863 0.72000003
-0.10535143 0.01377143 0.72300005
-0.10259715 0.014460001 0.72300005
-0.097710721 0.012385121 0.72250003
-0.094008103 0.012350953 0.72050005
-0.021316191 0.014440001 0.72200006
-0.10613786 0.018061193 0.72250009
-0.10249136 0.0178831 0.7222501
-0.09872631 0.017340358 0.72112501
-0.021976074 0.017855359 0.72112507
-0.019200001 0.019885715 0.72000003
-0.11040001 0.024000002 0.72000003
-0.10491429 0.021942858 0.72000003
-0.026119765 0.023371669 0.72175008
-0.022940574 0.023491431 0.72120005
-0.11142857 0.027428573 0.72000003
-0.026828257 0.026141908 0.72233343
-0.023640957 0.025936192 0.72300005
-0.11040001 0.030857146 0.72000003
-0.10902858 0.030857146 0.72000003
-0.1029127 0.011741271 0.72522217
-0.020042224 0.013130478 0.7256667
-0.017724764 0.01336939 0.72785723
-0.10794445 0.018182542 0.72500008
-0.020060636 0.017295558 0.72633332
-0.0173345 0.017335769 0.72811115
-0.014580001 0.018745715 0.72900003
-0.11674096 -0.069205716 0.73400003
-0.13072191 -0.061516196 0.73400003
-0.12777038 -0.061904557 0.73400009
-0.13743277 -0.055784006 0.73400003
-0.13239543 -0.056701716 0.73320001
-0.1269352 -0.057394601 0.73313349
-0.12373143 -0.05732191 0.73400003
-0.14050858 -0.051030479 0.73400003
-0.13746352 -0.052333336 0.73266673
-0.13221364 -0.052466817 0.73153853
-0.12755908 -0.052710913 0.73263645
-0.13718447 -0.048677783 0.73366678
-0.13257037 -0.047444291 0.73262507
-0.1286941 -0.048486859 0.73360002
-0.10965081 -0.046794921 0.73333335
-0.13212001 -0.044040002 0.73400003
-0.11184762 -0.044040002 0.73400003
-0.10888764 -0.042951748 0.73133337
-0.016012382 0.01253143 0.73100001
-0.013406668 0.013231905 0.73124999
-0.013506097 0.016569335 0.73100001
-0.13653906 -0.066158101 0.73900002
-0.1322224 -0.06622842 0.73716676
-0.12754616 -0.067083418 0.73700017
-0.12275051 -0.067337632 0.73650002
-0.11819862 -0.066948369 0.73638469
-0.11320984 -0.065395243 0.7383334
-0.13692906 -0.062399529 0.73825002
-0.13295826 -0.062621638 0.73642862
-0.12593779 -0.06331937 0.73600006
-0.12218651 -0.062272567 0.73618191
-0.11751401 -0.062617823 0.73710006
-0.11425176 -0.063577466 0.73900002
-0.13677859 -0.058920484 0.73650002
-0.13341461 -0.059113652 0.73600006
-0.12137398 -0.057530172 0.7366668
-0.11820024 -0.057692144 0.73874998
-0.12547049 -0.05187048 0.73600006
-0.12222566 -0.052684844 0.7375834
-0.11743143 -0.051331751 0.7383334
-0.11363191 -0.051204287 0.73650002
-0.14174029 -0.04744558 0.73728579
-0.13858652 -0.04650683 0.73616672
-0.12698106 -0.047259137 0.73663646
-0.12266207 -0.04816667 0.73792315
-0.11720309 -0.048146188 0.73800004
-0.11290491 -0.047686826 0.73633337
-0.14141104 -0.042311981 0.73871434
-0.13724656 -0.042305723 0.7368573
-0.13228215 -0.041751873 0.73730779
-0.12830018 -0.04378143 0.73750007
-0.12387048 -0.044340003 0.73900002
-0.11581429 -0.043518096 0.73700005
-0.11425524 -0.044160005 0.73600006
-0.13724287 -0.038357619 0.73900002
-0.13302001 -0.038709529 0.73900002
-0.017758811 0.023033096 0.7385
-0.014780001 0.021818096 0.73900002
-0.14116159 -0.066220641 0.74233341
-0.13902572 -0.0663381 0.74100006
-0.13460954 -0.066952385 0.74000001
-0.14043716 -0.063515246 0.74100006
-0.1388381 -0.064133339 0.74000001
-0.1152643 -0.060814768 0.74250007
-0.11321905 -0.062270481 0.74300003
-0.11585961 -0.057576064 0.74114287
-0.11392667 -0.057317149 0.74300003
-0.11744036 -0.053255361 0.74062496
-0.11408985 -0.053400319 0.74100006
-0.12098414 -0.046279367 0.74000001
-0.11816509 -0.046279367 0.74000001
-0.14236191 -0.04017143 0.74000001
-0.12705326 -0.04157931 0.74227273
-0.1222704 -0.042403717 0.74210006
-0.11870191 -0.043329339 0.74100006
-0.1411432 -0.037401594 0.74100006
-0.13757792 -0.036545526 0.74080008
-0.13241778 -0.036926564 0.74088889
-0.12805727 -0.037851077 0.74287504
-0.13751736 -0.034061335 0.74200004
-0.13277361 -0.033370137 0.74263644
-0.12949429 -0.033965718 0.74300003
-0.11423334 -0.060309529 0.74500006
-0.12132858 -0.040442862 0.74500006
-0.11990953 -0.040442862 0.74500006
-0.12637953 -0.036919527 0.74550009
-0.12289969 -0.037857145 0.74688894
-0.11990953 -0.039023813 0.74500006
-0.13090286 -0.03059143 0.74700004
-0.12752381 -0.032659929 0.74676925
-0.12438174 -0.033196956 0.74800009
-0.12894095 -0.029207621 0.74800003
-0.12466668 -0.029207621 0.74800003
-0.12159048 -0.035760954 0.75100005
-0.11960382 -0.036525715 0.75200003
-0.12299287 -0.032179527 0.75083339
-0.12714286 -0.029285716 0.75000006
