# .PCD v0.7 - Point Cloud Data file format
VERSION 0.7
FIELDS x y z
SIZE 4 4 4
TYPE F F F
COUNT 1 1 1
WIDTH 629
HEIGHT 1
VIEWPOINT 0 0 0 1 0 0 0
POINTS 629
DATA ascii
-0.13146344 0.0066931434 0.66300005
-0.12727799 0.0064044907 0.66300005
-0.11807715 0.0094714295 0.66300005
-0.12934001 -0.01083143 0.66900003
-0.13674572 -0.0066420413 0.66871434
-0.13248903 -0.0071958243 0.66807699
-0.12767364 -0.0073026381 0.66900009
-0.12317921 -0.0065738102 0.66783345
-0.13603936 -0.0027517462 0.66644448
-0.13211697 -0.0025408932 0.66693747
-0.127226 -0.002669778 0.66726667
-0.12264103 -0.0023920881 0.66615379
-0.11988001 -0.00063428574 0.66600001
-0.13556935 0.0016489525 0.66580003
-0.132232 0.002356055 0.66614288
-0.12774396 0.0027151026 0.66542858
-0.12268788 0.0026777249 0.66594452
-0.11854594 0.0024729103 0.66722226
-0.13173334 0.0076000006 0.66500002
-0.12786353 0.0086176191 0.66530001
-0.12241665 0.0075213057 0.66673678
-0.11816479 0.007356056 0.66757149
-0.13076749 0.012797688 0.66700006
-0.12686801 0.011823811 0.6674
-0.12271372 0.011086287 0.66900009
-0.11784405 0.011404525 0.66525006
-0.13169144 0.017811429 0.66800004
-0.14090477 -0.012810953 0.67250001
-0.13726328 -0.012988166 0.6721428
-0.13263446 -0.012253493 0.67116666
-0.128628 -0.011880192 0.67060006
-0.1408404 -0.0085866675 0.6728
-0.13756934 -0.0090691438 0.67060006
-0.13208573 -0.0095714293 0.67000002
-0.12655556 -0.0091460329 0.67000002
-0.12804446 0.014250795 0.67000002
-0.12250599 0.013535412 0.67090911
-0.11941287 0.014049049 0.67050004
-0.13070898 0.018273143 0.67080003
-0.12741129 0.017929683 0.67227775
-0.12252953 0.016038096 0.67360002
-0.11575334 -0.030393336 0.67900002
-0.11252001 -0.03104 0.67899996
-0.10784964 -0.031399261 0.67899996
-0.10411334 -0.030393336 0.67900002
-0.095060006 -0.031040002 0.67900002
-0.092619471 -0.031304356 0.67871433
-0.087481521 -0.031355239 0.67740005
-0.082641043 -0.031636588 0.67791671
-0.077988014 -0.031557333 0.67899996
-0.11646298 -0.027052594 0.67811114
-0.11235429 -0.027120002 0.67800015
-0.10722811 -0.027130716 0.67825007
-0.10310742 -0.026657039 0.67899996
-0.096640743 -0.026369633 0.67899996
-0.092315406 -0.027114291 0.67783344
-0.087550066 -0.027037323 0.67593747
-0.082558818 -0.02708881 0.67725009
-0.078021348 -0.027587544 0.67891663
-0.11604208 -0.022390638 0.67816675
-0.11216176 -0.022561749 0.67683339
-0.10696558 -0.022386519 0.67753851
-0.10307868 -0.022245333 0.67899996
-0.095060006 -0.023280002 0.67900002
-0.09225022 -0.022993064 0.67871433
-0.087759234 -0.021939108 0.67756259
-0.082734823 -0.021975895 0.67868751
-0.079540007 -0.023926668 0.67900002
-0.13778573 -0.016071429 0.67500007
-0.13266839 -0.016406288 0.67820001
-0.11228497 -0.018003559 0.67680007
-0.10755798 -0.018232247 0.67685717
-0.10368223 -0.018322226 0.67900008
-0.087848812 -0.01873262 0.67825001
-0.084066674 -0.018753335 0.67900002
-0.13371429 -0.014785715 0.67500001
-0.11146811 -0.014539048 0.67850006
-0.10869461 -0.014420318 0.67800009
-0.12239984 0.0185387 0.67545462
-0.11928096 0.018054288 0.67700005
-0.13069335 0.021245716 0.67600006
-0.12738001 0.021230001 0.67550004
-0.12236991 0.02106286 0.67840004
-0.11889953 0.020031907 0.67850006
-0.095760003 -0.035828575 0.68400002
-0.092502862 -0.035828575 0.68400002
-0.086723939 -0.03660965 0.68337506
-0.081901364 -0.036349531 0.68328583
-0.077788576 -0.0361281 0.68350005
-0.072933577 -0.036466904 0.68375003
-0.068620197 -0.036328766 0.68360007
-0.10599366 -0.032596827 0.68000001
-0.10239228 -0.031679053 0.68188888
-0.097525015 -0.032366749 0.68191671
-0.091974571 -0.033876877 0.68214291
-0.087399818 -0.034155622 0.68180007
-0.08224763 -0.034323812 0.68000001
-0.077180013 -0.03372667 0.68099999
-0.072812617 -0.032506309 0.682625
-0.068341032 -0.032543413 0.68341672
-0.1011211 -0.027847622 0.68000001
-0.097605452 -0.02821769 0.68000001
-0.076474771 -0.025923336 0.68050003
-0.073045932 -0.027601022 0.68307149
-0.069268577 -0.02888 0.68400002
-0.11721905 -0.02137143 0.68000001
-0.10098557 -0.021622382 0.68116665
-0.097584359 -0.021868574 0.68114299
-0.092978291 -0.020617908 0.68080008
-0.080008574 -0.020164764 0.68300003
-0.077852979 -0.022249453 0.68253851
-0.074914292 -0.022800002 0.68400002
-0.10620953 -0.016190477 0.68000001
-0.10257238 -0.017313335 0.68166673
-0.096897624 -0.018208733 0.68283337
-0.092459224 -0.017427361 0.68236369
-0.087049656 -0.016890122 0.68212497
-0.081899524 -0.018524287 0.6825
-0.11155525 -0.012357144 0.68300003
-0.10725059 -0.013127714 0.68250006
-0.10391811 -0.013649796 0.68257153
-0.091638699 -0.013834882 0.68362504
-0.088151626 -0.013280763 0.68360007
-0.11660573 -0.0071657151 0.68400002
-0.11400001 -0.0084685721 0.68400002
-0.10610525 -0.0078104767 0.68350005
-0.10382762 -0.0094385715 0.68350005
-0.1205143 -0.0019542859 0.68400002
-0.11738745 -0.0027360003 0.68400007
-0.11400001 -0.0026057144 0.68400002
-0.11916191 0.02137143 0.68000001
-0.088585719 -0.040027622 0.68900001
-0.076774299 -0.040027626 0.68900001
-0.072180957 -0.040683813 0.68900001
-0.067184523 -0.040638812 0.68825001
-0.062666193 -0.040355716 0.68900001
-0.05694275 -0.041340001 0.68900007
-0.054201342 -0.042389911 0.68900007
-0.10236572 -0.036090478 0.68900001
-0.097594053 -0.03668119 0.68774998
-0.092472702 -0.037731111 0.68700004
-0.088559285 -0.038234048 0.68625009
-0.082618102 -0.038364004 0.68740004
-0.077318102 -0.038223498 0.68800008
-0.072279051 -0.039080955 0.68620008
-0.06755358 -0.038112383 0.68700004
-0.062963188 -0.0373854 0.68866676
-0.058236908 -0.037730955 0.68900007
-0.053807624 -0.03871524 0.68900001
-0.10564668 -0.034778096 0.68900001
-0.1024546 -0.034224764 0.68666673
-0.098653339 -0.03462667 0.68600005
-0.065986671 -0.032666668 0.68600005
-0.062958933 -0.032791309 0.6886251
-0.059713338 -0.034121908 0.68900001
-0.071247309 -0.025492383 0.68633342
-0.06753239 -0.027273335 0.68733346
-0.064175434 -0.028741146 0.68900007
-0.075642541 -0.021144129 0.68666673
-0.072192006 -0.022403559 0.68786681
-0.068462551 -0.02384159 0.68900001
-0.10105334 -0.017060954 0.68900001
-0.099084765 -0.017717144 0.68900001
-0.085586675 -0.015026668 0.68600005
-0.082207628 -0.016227186 0.68654555
-0.077239811 -0.017018633 0.6873126
-0.073844001 -0.01744362 0.68860006
-0.11172001 -0.011106667 0.68600005
-0.10853286 -0.011114763 0.68650007
-0.10327581 -0.012173334 0.68720001
-0.091466673 -0.011106667 0.68600005
-0.086159252 -0.012158859 0.68640006
-0.082500488 -0.012440162 0.68750018
-0.077279054 -0.012443176 0.68766677
-0.074149527 -0.01312381 0.68900001
-0.11633548 -0.0065359529 0.68625009
-0.1121166 -0.0076552383 0.6861428
-0.10781591 -0.0075800954 0.68610001
-0.10353792 -0.0074628578 0.68720007
-0.091427311 -0.0093828589 0.68733335
-0.087910488 -0.0086287446 0.68745458
-0.083077148 -0.009400635 0.6886667
-0.078742862 -0.0098428577 0.68900001
-0.12086667 -0.0045733335 0.68600005
-0.11564001 -0.00065333338 0.68600005
-0.11220898 -0.0026152385 0.68671435
-0.10723471 -0.002614941 0.6865626
-0.10398096 -0.0032692067 0.68666673
-0.087273337 -0.0045933337 0.68900001
-0.11352096 0.0006561905 0.68900001
-0.10819381 0.00098380959 0.68850005
-0.084648579 0.0019685715 0.68900001
-0.10112572 -0.045605719 0.69400001
-0.097317241 -0.046548098 0.69230002
-0.093342751 -0.047084648 0.69387496
-0.066707149 -0.045572862 0.69350004
-0.061743952 -0.046097148 0.69285721
-0.057325244 -0.04612302 0.69183344
-0.052702148 -0.046117388 0.69175005
-0.047579646 -0.046258461 0.69387507
-0.044283811 -0.046266671 0.69400001
-0.10112744 -0.04179677 0.69220006
-0.097583763 -0.042199466 0.69231248
-0.092233106 -0.042166553 0.69174999
-0.087006584 -0.041791718 0.69209999
-0.082509682 -0.04186254 0.69216669
-0.077936366 -0.042355418 0.69190907
-0.072282024 -0.042908933 0.69312495
-0.066888668 -0.042817667 0.69163638
-0.062298216 -0.042902507 0.69037503
-0.058885723 -0.04292028 0.6902858
-0.051808149 -0.041889012 0.69018191
-0.047513872 -0.042235665 0.69293749
-0.044283811 -0.042300954 0.69400001
-0.10248599 -0.038116194 0.69171435
-0.097794101 -0.038564768 0.69100004
-0.093971431 -0.038771432 0.69000006
-0.056842864 -0.036800005 0.69000006
-0.052390184 -0.036769237 0.69230771
-0.047938988 -0.03736506 0.69392318
-0.057616882 -0.032708578 0.69085723
-0.053004395 -0.032574654 0.69369245
-0.049571432 -0.03304762 0.69400001
-0.065057144 -0.025628572 0.69000006
-0.06210988 -0.0270794 0.6904546
-0.058128584 -0.028176194 0.69300008
-0.053537145 -0.029742859 0.69400001
-0.070314288 -0.02037143 0.69000006
-0.066704042 -0.021998391 0.6903078
-0.061998166 -0.022424942 0.69256252
-0.058824766 -0.02445524 0.69400001
-0.10120001 -0.015114287 0.69000006
-0.097160004 -0.015201907 0.69400001
-0.071574293 -0.016921127 0.6906364
-0.067349225 -0.01716649 0.69331253
-0.063640967 -0.017396191 0.6936667
-0.10164001 -0.012538096 0.69300002
-0.097306885 -0.012851852 0.69400007
-0.094516195 -0.011897143 0.69400001
-0.072096959 -0.012389905 0.69200003
-0.067477234 -0.01267827 0.69400007
-0.064112388 -0.013219048 0.69400001
-0.10169225 -0.0082146954 0.69400001
-0.097146191 -0.0076656202 0.69390005
-0.092792585 -0.0072388574 0.69100004
-0.087166429 -0.0062492862 0.69075006
-0.082596861 -0.0069701909 0.69050002
-0.077434704 -0.0076110214 0.6907143
-0.072605297 -0.0079201786 0.69306248
-0.068833485 -0.0082146954 0.69400001
-0.092337623 -0.0046166671 0.6925
-0.087036341 -0.0029176874 0.69157147
-0.082866013 -0.0026304165 0.69056261
-0.077871725 -0.0026382741 0.69293749
-0.072691433 -0.0026429764 0.69387507
-0.069400005 -0.0033047623 0.69400001
-0.11661986 0.0019804765 0.69183338
-0.11284056 0.0025439458 0.69171435
-0.10974286 0.0019714287 0.69000006
-0.086085722 0.0006571429 0.69000006
-0.082618788 0.001222041 0.69085723
-0.078275651 0.0012274829 0.69400001
-0.074026674 0.00066095241 0.69400001
-0.077331431 0.005948572 0.69400001
-0.091339692 -0.046224132 0.69666672
-0.087553628 -0.047165241 0.69749999
-0.082279637 -0.047346599 0.69715387
-0.077302866 -0.046382047 0.6971429
-0.072355792 -0.046752524 0.69700009
-0.067612596 -0.047264449 0.69677776
-0.062794864 -0.048193336 0.69700003
-0.057642229 -0.048365399 0.69566673
-0.052952386 -0.048319049 0.69500005
-0.047691908 -0.048353814 0.69550002
-0.041891243 -0.04732972 0.69600004
-0.037206668 -0.047315385 0.69669241
-0.032573335 -0.047198102 0.69800001
-0.029249527 -0.047862858 0.69800001
-0.087371431 -0.044347622 0.69500005
-0.084061913 -0.044347622 0.69500005
-0.078104764 -0.044347622 0.69500005
-0.074133337 -0.044347622 0.69500005
-0.041729368 -0.042391278 0.69550014
-0.037142441 -0.042447563 0.69643748
-0.032786831 -0.04364207 0.6978333
-0.029914288 -0.044539049 0.69800001
-0.046112701 -0.035522226 0.69500005
-0.042810772 -0.03750601 0.69653851
-0.037615053 -0.038677908 0.69779998
-0.047299813 -0.032328196 0.69560009
-0.043821432 -0.03253318 0.69716668
-0.056923814 -0.025814287 0.69500005
-0.052810919 -0.027347477 0.69515395
-0.048062794 -0.028059937 0.69678581
-0.044539049 -0.029914288 0.69800001
-0.057015646 -0.022541093 0.69614291
-0.052487507 -0.023419883 0.69762498
-0.049413972 -0.024153017 0.69800007
-0.06137944 -0.017101334 0.6960001
-0.058847051 -0.016870288 0.69740003
-0.099506363 -0.011693652 0.69500005
-0.066852383 -0.011252382 0.69500005
-0.061953813 -0.012470381 0.69650006
-0.059163816 -0.012630477 0.69800007
-0.099065088 -0.0083841272 0.69500011
-0.066453442 -0.0077260318 0.69544452
-0.062728256 -0.0085184127 0.69700003
-0.059163813 -0.0099714296 0.69800001
-0.067481734 -0.0027139394 0.69654554
-0.11781906 0.0033095242 0.69500011
-0.076973341 0.0038076192 0.69525009
-0.072589017 0.0028074726 0.69630778
-0.068906784 0.002159643 0.697375
-0.076657623 0.0078393342 0.69749999
-0.072902232 0.0070907949 0.69800007
-0.080652863 0.012612382 0.69700003
-0.077037945 0.012618413 0.69733334
-0.073788576 0.012630477 0.69800007
-0.080320954 0.01526762 0.69700003
-0.078025475 0.015605001 0.69725001
-0.066254608 0.038777784 0.69800007
-0.06201461 0.038759053 0.69766676
-0.059163813 0.038556196 0.69800001
-0.067125246 0.041205242 0.69783342
-0.062099054 0.041053608 0.69685721
-0.070300005 -0.055570479 0.70300001
-0.067031436 -0.056977302 0.70383334
-0.063604765 -0.056240004 0.70300001
-0.091333337 -0.050000004 0.70000005
-0.087777786 -0.050000004 0.70000005
-0.082363635 -0.051575765 0.69999999
-0.077353872 -0.05201447 0.7001875
-0.072083391 -0.052060902 0.70081258
-0.067524761 -0.052149531 0.70200008
-0.062851019 -0.052155416 0.70206261
-0.057560347 -0.051252648 0.70054561
-0.051966589 -0.051360175 0.70200002
-0.047482669 -0.051764961 0.70220011
-0.042959135 -0.051590309 0.70181829
-0.037280403 -0.051748496 0.70108336
-0.03250416 -0.051583298 0.70172739
-0.091333337 -0.048666671 0.70000005
-0.08866667 -0.048222225 0.70000005
-0.076933339 -0.048400003 0.70000005
-0.071777791 -0.048666671 0.70000005
-0.042000003 -0.048666671 0.70000005
-0.029333334 -0.046000004 0.70000005
-0.032108031 -0.041445177 0.70028579
-0.029131591 -0.04269667 0.70050001
-0.041111115 -0.035777781 0.70000005
-0.037174638 -0.036689788 0.70045453
-0.032082919 -0.037614483 0.7028001
-0.028140003 -0.038859528 0.70350003
-0.041391909 -0.032044526 0.70099998
-0.037687011 -0.03242619 0.70307153
-0.034194287 -0.034194287 0.70400006
-0.046000004 -0.026666669 0.70000005
-0.042823076 -0.027607108 0.70176935
-0.037834018 -0.027681092 0.70400012
-0.032853335 -0.027489526 0.70400006
-0.055333339 -0.020666668 0.70000005
-0.051789686 -0.021116033 0.7001667
-0.047272906 -0.022513077 0.7009092
-0.043531537 -0.023589524 0.70322222
-0.036876194 -0.024807621 0.70400006
-0.056596287 -0.01753065 0.70063645
-0.052101076 -0.017367026 0.70137513
-0.047858294 -0.017695049 0.70380002
-0.056720011 -0.012011429 0.70066679
-0.052164998 -0.012037977 0.70225012
-0.048370074 -0.01235592 0.70400012
-0.061733101 -0.0063397624 0.70074999
-0.057447221 -0.0073475405 0.70141673
-0.053068221 -0.0075334529 0.70312506
-0.066000007 -0.0013333334 0.70000005
-0.062793516 -0.0026713694 0.70143759
-0.058060516 -0.0028335536 0.7032308
-0.054308575 -0.0046933335 0.70400006
-0.066880479 0.0031685715 0.70050013
-0.062882319 0.0026764884 0.70243758
-0.059225403 0.0011174604 0.70400012
-0.076000005 0.0086666672 0.70000005
-0.071347632 0.0079065319 0.70014292
-0.067492805 0.0073516411 0.70166671
-0.063372388 0.0072352388 0.70340002
-0.071375169 0.012007382 0.70041674
-0.067130163 0.011925844 0.70346677
-0.063360006 0.011062858 0.70400006
-0.076588094 0.017746763 0.70050013
-0.072082795 0.017354228 0.70081258
-0.068579368 0.015860638 0.70366669
-0.076661438 0.021090478 0.70300007
-0.072565317 0.021321498 0.70271432
-0.072051853 0.0335849 0.70328581
-0.067239322 0.033379458 0.70300001
-0.062488478 0.032915145 0.70250005
-0.057551749 0.032789208 0.7026667
-0.052426156 0.032940261 0.70327282
-0.047592223 0.033515718 0.70383346
-0.044251435 0.033523813 0.70400006
-0.076017864 0.037171192 0.70325005
-0.072137572 0.03740292 0.70131254
-0.067661703 0.036831643 0.7003333
-0.062960111 0.036415145 0.70029992
-0.057070214 0.037158098 0.70028573
-0.052265171 0.037237149 0.70357156
-0.047827303 0.036652703 0.70400012
-0.044921909 0.035535239 0.70400006
-0.076380007 0.041540477 0.70350003
-0.072091557 0.041385356 0.70087504
-0.061013337 0.044921909 0.70400006
-0.057856094 0.041957621 0.70150006
-0.061683811 0.04626286 0.70400006
-0.030342858 -0.061360009 0.70800006
-0.027844448 -0.06175112 0.70733333
-0.024913335 -0.061273336 0.70700002
-0.051895559 -0.057287939 0.7076667
-0.047089703 -0.057133853 0.70727271
-0.042439692 -0.056586992 0.70733333
-0.037964769 -0.056418642 0.70642859
-0.032331195 -0.056580715 0.70725
-0.027645716 -0.056640003 0.708
-0.024351023 -0.058229666 0.70742863
-0.052371431 -0.054050006 0.70500004
-0.04767143 -0.054385718 0.70500004
-0.042971432 -0.054385718 0.70500004
-0.037823811 -0.054385718 0.7050001
-0.031323623 -0.053641718 0.70580006
-0.027626351 -0.052557778 0.70749998
-0.024262544 -0.053243816 0.70766664
-0.026933335 -0.049153335 0.70700002
-0.032900002 -0.035585716 0.70500004
-0.027797146 -0.036391433 0.70500004
-0.036257148 -0.030214287 0.70500004
-0.032142036 -0.032141525 0.70606661
-0.028477779 -0.03273651 0.70633334
-0.037197147 -0.02726 0.70500004
-0.032203294 -0.027561216 0.70581818
-0.02897381 -0.028299525 0.70749998
-0.042108171 -0.021773471 0.70500004
-0.037644763 -0.022694288 0.70500004
-0.033098102 -0.023064157 0.70663637
-0.046328574 -0.016114287 0.70500004
-0.042993695 -0.017465597 0.70537496
-0.038115069 -0.01816944 0.70663637
-0.034388572 -0.019554287 0.708
-0.046191979 -0.011427077 0.70585716
-0.043147709 -0.012790824 0.70690912
-0.039782859 -0.014160001 0.708
-0.05069286 -0.0070500001 0.70500004
-0.047315419 -0.0075285723 0.70699996
-0.055728577 -0.0020142859 0.7050001
-0.052354481 -0.0025561273 0.70659995
-0.048442315 -0.0033704764 0.70785719
-0.057448797 0.0030517222 0.70584613
-0.053247709 0.0022676189 0.70772737
-0.061100002 0.0080571435 0.70500004
-0.057904921 0.0074071432 0.70700002
-0.054617148 0.0080914292 0.708
-0.065128572 0.014100001 0.70500004
-0.061822228 0.012784339 0.70644444
-0.058020886 0.011666595 0.70776933
-0.054617148 0.01281143 0.708
-0.066824257 0.017831136 0.7054615
-0.062079567 0.017372636 0.70700008
-0.058662862 0.016182858 0.708
-0.077386133 0.023746124 0.70657146
-0.072495557 0.024015559 0.70700002
-0.067326494 0.022891967 0.70693737
-0.062969245 0.022922762 0.70790011
-0.080240004 0.028994288 0.708
-0.077494822 0.027628148 0.70755547
-0.072686359 0.027593017 0.70666665
-0.067206353 0.027553333 0.70566666
-0.062313911 0.027455239 0.70660001
-0.058008466 0.02806836 0.70733339
-0.052383728 0.027753592 0.70763642
-0.047166668 0.028299524 0.70749998
-0.042480003 0.028994288 0.70800006
-0.080155008 0.032330714 0.70725
-0.077388816 0.032300238 0.70658326
-0.072784655 0.031128572 0.70544446
-0.067142859 0.030885715 0.70499998
-0.062442861 0.030214287 0.7050001
-0.05774286 0.030214287 0.70500004
-0.051968575 0.030482858 0.70500004
-0.047671434 0.030885717 0.70500004
-0.04255382 0.031802382 0.70550001
-0.038666986 0.032831855 0.70677781
-0.077621914 0.037463494 0.70666671
-0.052371431 0.03961429 0.70500004
-0.047152247 0.038703274 0.70585716
-0.042788316 0.03705065 0.70499998
-0.03961429 0.036257148 0.70500004
-0.074740008 0.04376667 0.70700002
-0.057340004 0.044180002 0.70500004
-0.052641213 0.042249355 0.70618182
-0.047200002 0.041131433 0.708
-0.073290005 0.047692668 0.70730001
-0.057551622 0.046769526 0.70760006
-0.054540005 0.045113336 0.70700002
-0.051810861 -0.060739238 0.71020001
-0.04710817 -0.061041228 0.71100008
-0.042326245 -0.061341062 0.71300012
-0.037191194 -0.061645478 0.71325004
-0.033191431 -0.06164011 0.71122223
-0.02727302 -0.060631748 0.71000004
-0.048009526 -0.058828574 0.71000004
-0.042639367 -0.058883812 0.71066666
-0.037512954 -0.058640957 0.71100003
-0.032469288 -0.05884929 0.71025002
-0.027723813 -0.058017146 0.71000004
-0.023666669 -0.056123812 0.71000004
-0.030879369 -0.0214127 0.71000004
-0.029076193 -0.020961907 0.71000004
-0.036930095 -0.016097715 0.71020001
-0.03270733 -0.017683297 0.71207702
-0.029117145 -0.019637143 0.71100003
-0.041068193 -0.010707811 0.71160007
-0.037506595 -0.012256925 0.71207702
-0.033895925 -0.012917143 0.71385729
-0.045368575 -0.0060942862 0.71100003
-0.042053737 -0.0074611916 0.71225011
-0.037672002 -0.0082960008 0.71400005
-0.034680001 -0.0088400003 0.71400005
-0.046384979 -0.0021805291 0.71044445
-0.042084049 -0.0027152379 0.71275008
-0.038488004 -0.0025840004 0.71400005
-0.051269528 0.0036527624 0.71020001
-0.047427088 0.0027116074 0.71143758
-0.043135349 0.0021910055 0.713889
-0.052373242 0.0073080957 0.7105
-0.048203602 0.007469207 0.71288902
-0.0568 0.014200001 0.71000004
-0.052670285 0.012141907 0.71086669
-0.049047217 0.011946531 0.71385729
-0.060180955 0.019609526 0.71000004
-0.057221532 0.017856764 0.71020001
-0.052843928 0.017614642 0.71137512
-0.048252575 0.018349335 0.7136001
-0.060721911 0.022584764 0.71000004
-0.057511747 0.022327833 0.71044445
-0.052798815 0.022337383 0.71075004
-0.047466032 0.022375878 0.71200013
-0.042095326 0.022404365 0.71291679
-0.03757184 0.022814287 0.71357143
-0.03306286 0.023324445 0.71333349
-0.027840953 0.02376667 0.71300006
-0.080523342 0.027066194 0.7105
-0.060180955 0.02501905 0.71000004
-0.057205714 0.025560005 0.71000004
-0.053148575 0.025289526 0.71000004
-0.047333334 0.02569524 0.71000004
-0.042626459 0.026387516 0.71044445
-0.037938815 0.027098689 0.71137512
-0.032529585 0.027105773 0.71156263
-0.027589964 0.027171796 0.71192318
-0.023783335 0.028539525 0.71350002
-0.036647219 0.031813201 0.71071428
-0.03252548 0.032526907 0.71150011
-0.028354969 0.032226533 0.71128577
-0.076409526 0.043952383 0.71000004
-0.050714288 0.043952383 0.71000004
-0.048387431 0.043238483 0.71160001
-0.041596197 -0.063417152 0.71600002
-0.038868573 -0.063417144 0.71600002
-0.030685715 -0.016365714 0.71600002
-0.028673178 -0.017067146 0.71683335
-0.03175598 -0.011747302 0.71622229
-0.028709764 -0.012303095 0.71775001
-0.03717643 -0.0064802384 0.71625
-0.032790001 -0.0075134295 0.71730012
-0.027904049 -0.0077035716 0.71899998
-0.036747079 -0.0028268031 0.71642864
-0.033431113 -0.0030803175 0.71883333
-0.041044362 0.0034127897 0.71657151
-0.037552148 0.0027321428 0.71691668
-0.0342381 0.0041085719 0.71900004
-0.045687627 0.007500953 0.71600002
-0.042316671 0.0075080963 0.7166667
-0.037649844 0.0075296303 0.71877778
-0.0342381 0.0061628576 0.71900004
-0.046618309 0.012508044 0.71633339
-0.042325538 0.012288394 0.71681249
-0.037625715 0.012314286 0.71833336
-0.0342381 0.014380001 0.71900004
-0.046629053 0.016604288 0.71650004
-0.042315245 0.017744167 0.71662503
-0.03757818 0.017763255 0.7174167
-0.032999303 0.017937336 0.71886665
-0.027431432 0.018269671 0.7186923
-0.023281906 0.018488575 0.71900004
-0.036822863 0.02113905 0.71600002
-0.032283973 0.021598574 0.71616673
-0.027077569 0.022072278 0.7167778
-0.022541273 0.022540849 0.71722221
-0.017774446 0.022560477 0.7178334
-0.013466986 0.022140637 0.71900004
-0.025248097 0.025930002 0.71650004
-0.022338098 0.026242044 0.71700007
-0.018177906 0.026516384 0.71760005
-0.013923492 0.025792701 0.71900004
-0.031499051 0.036292382 0.71900004
-0.029444763 0.036292382 0.71900004
-0.030857146 -0.0061714291 0.72000003
-0.029485716 -0.0061714291 0.72000003
-0.031200003 -0.0017142858 0.72000003
-0.027446903 -0.0027435711 0.72050011
-0.024066668 -0.00068761909 0.72200006
-0.032471433 0.0022869841 0.72033352
-0.027512737 0.0027513099 0.72224998
-0.024100002 0.0027542859 0.72300005
-0.032665715 0.0078234291 0.72060013
-0.027526114 0.0075699217 0.72258347
-0.022919597 0.0071808174 0.72300011
-0.032736741 0.01205592 0.72042876
-0.027508929 0.012378454 0.72212511
-0.022827536 0.012569698 0.72236371
-0.018424762 0.01337799 0.72244453
-0.030857146 0.01577143 0.72000003
-0.027200002 0.01577143 0.72000003
-0.02194286 0.01714286 0.72000003
-0.017868988 0.0178703 0.7216875
-0.013905144 0.018587051 0.72280008
-0.021404764 0.0089761913 0.72500008
-0.020714287 0.010357143 0.72500002
-0.014500001 0.017261906 0.72500002
-0.021493334 0.029813336 0.72800004
-0.018720001 0.029813336 0.72800004
