# .PCD v0.7 - Point Cloud Data file format
VERSION 0.7
FIELDS x y z
SIZE 4 4 4
TYPE F F F
COUNT 1 1 1
WIDTH 604
HEIGHT 1
VIEWPOINT 0 0 0 1 0 0 0
POINTS 604
DATA ascii
-0.14308354 -0.011641362 0.67371428
-0.13800953 -0.010912382 0.67400002
-0.13094857 -0.011554287 0.67400002
-0.14158641 -0.0083294297 0.67270005
-0.13716382 -0.0076933336 0.67299992
-0.13246478 -0.0078402935 0.67292303
-0.12887701 -0.0066767358 0.67228574
-0.14041601 -0.0026880002 0.67200005
-0.13701047 -0.0025602384 0.67224997
-0.13233852 -0.0023793199 0.67314279
-0.12756263 -0.0024845239 0.67349988
-0.12388763 -0.0032095241 0.67400002
-0.14016001 0.0012800001 0.67200005
-0.13758159 0.0014977779 0.67400002
-0.13195729 0.0011921091 0.67400008
-0.12902287 0.0012838097 0.67400002
-0.13544191 0.007060953 0.67400002
-0.092473343 -0.031686667 0.67899996
-0.087770313 -0.031569093 0.67899996
-0.084066674 -0.031040002 0.67900002
-0.092214674 -0.027418671 0.67899996
-0.088431671 -0.028291667 0.67899996
-0.08471334 -0.029100003 0.67900002
-0.14151573 -0.016801432 0.67850006
-0.13704239 -0.017130718 0.67874998
-0.13268572 -0.016689798 0.67771429
-0.1420418 -0.013674168 0.67562509
-0.13758269 -0.012991431 0.6752668
-0.13292319 -0.0132927 0.67533344
-0.12407143 -0.00064285717 0.67500001
-0.13692859 0.0038571432 0.67500007
-0.13266498 0.0036435984 0.67511117
-0.12750509 0.0027928574 0.67616671
-0.12407143 0.00064285717 0.67500001
-0.13679354 0.0065626674 0.67560005
-0.1326859 0.0077314889 0.67631257
-0.12845176 0.0074300002 0.67833328
-0.1358 0.010993334 0.67900002
-0.13256668 0.010993334 0.67900008
-0.12998001 0.010993334 0.67900002
-0.11165487 -0.036089148 0.68400002
-0.10683429 -0.035828575 0.68400002
-0.091425002 -0.036115002 0.68325001
-0.086998284 -0.036964852 0.68309098
-0.082095556 -0.036608994 0.68233335
-0.078171432 -0.035828575 0.68400002
-0.072960004 -0.035828575 0.68400002
-0.06840001 -0.036480002 0.68400002
-0.11660572 -0.031138286 0.68400002
-0.11204571 -0.032571431 0.68400002
-0.10748573 -0.032180574 0.68400002
-0.10201372 -0.031398859 0.68400002
-0.097560883 -0.031870238 0.68291676
-0.091123819 -0.03405048 0.68099999
-0.087428585 -0.034323812 0.68000001
-0.082463503 -0.0328127 0.67999995
-0.077890895 -0.032456372 0.68156248
-0.072899111 -0.032544106 0.68343753
-0.068366356 -0.032554921 0.68366671
-0.063188575 -0.032571428 0.68400002
-0.11701297 -0.027463621 0.6833334
-0.11253239 -0.027320003 0.68300003
-0.10797906 -0.027320005 0.68299991
-0.10295931 -0.027487431 0.68393344
-0.097404025 -0.027438162 0.68273336
-0.092701599 -0.025713652 0.68066669
-0.087037861 -0.026094524 0.68075001
-0.082419597 -0.027093159 0.68143743
-0.077769198 -0.027501976 0.68292868
-0.073595785 -0.028005308 0.6838572
-0.069702864 -0.029314287 0.68400002
-0.14193471 -0.021257143 0.68228585
-0.13800941 -0.020921549 0.68112504
-0.1164218 -0.022958454 0.68387502
-0.11202205 -0.022143541 0.6838572
-0.10760126 -0.022280371 0.68346161
-0.10336001 -0.022257145 0.68400002
-0.096985087 -0.022782117 0.6834445
-0.092249654 -0.022086784 0.68212509
-0.087147392 -0.022111192 0.68287498
-0.08203429 -0.022135716 0.68362498
-0.077401564 -0.022326237 0.68400002
-0.074914292 -0.024102859 0.68400002
-0.14196891 -0.018799368 0.68066669
-0.13794288 -0.018780954 0.68000001
-0.095620006 -0.01886381 0.68300003
-0.092446588 -0.017577225 0.68358344
-0.088333979 -0.018013652 0.68366671
-0.12628572 0.0071238098 0.68000001
-0.13611011 0.013365715 0.68120009
-0.13234001 0.013624923 0.68116665
-0.12887619 0.011009525 0.68000001
-0.13743415 0.01712524 0.68283337
-0.13303256 0.016683336 0.68250006
-0.087273337 -0.040027622 0.68900001
-0.084648579 -0.040027622 0.68900001
-0.076774292 -0.040027626 0.68900001
-0.071524769 -0.040552575 0.68900007
-0.068243816 -0.040683813 0.68900001
-0.11172001 -0.037240002 0.68600005
-0.10722333 -0.036613334 0.68650007
-0.10264695 -0.036652934 0.68900007
-0.098428577 -0.036090478 0.68900001
-0.092749722 -0.037807625 0.6868
-0.088295966 -0.039570238 0.68675005
-0.081745401 -0.038584128 0.68666673
-0.077220537 -0.037774604 0.68777782
-0.07275252 -0.038197689 0.68642867
-0.067309372 -0.037902698 0.68616676
-0.062826201 -0.037304766 0.68716669
-0.058376197 -0.036825448 0.68871433
-0.11718205 -0.033147484 0.68628573
-0.10626268 -0.033852763 0.68620008
-0.10310096 -0.033169288 0.68624997
-0.099960007 -0.03462667 0.68600005
-0.065986671 -0.032666668 0.68600005
-0.062633 -0.032670274 0.68607146
-0.057701427 -0.032785714 0.68850011
-0.10257334 -0.025480002 0.68600005
-0.099960007 -0.025480002 0.68600005
-0.072451629 -0.026808953 0.68659997
-0.067984924 -0.027825875 0.68750012
-0.062925011 -0.028840242 0.68825006
-0.059713338 -0.028872382 0.68900001
-0.11731644 -0.020587381 0.68625003
-0.11433334 -0.020253334 0.68600005
-0.10213779 -0.022431113 0.68600005
-0.099960007 -0.024173334 0.68600005
-0.076113343 -0.021233335 0.68600005
-0.072191745 -0.022403432 0.68786681
-0.11745811 -0.018701429 0.68900001
-0.11212715 -0.018687621 0.68850005
-0.10958382 -0.019029524 0.68900001
-0.09153381 -0.01503762 0.68650007
-0.086993329 -0.01635181 0.6868
-0.082537323 -0.017029108 0.68781263
-0.076955564 -0.01748921 0.68866676
-0.07388705 -0.017454669 0.68900007
-0.091600001 -0.013740001 0.68700004
-0.087886676 -0.013335874 0.68866676
-0.083073728 -0.013255048 0.68900007
-0.075461909 -0.013780001 0.68900001
-0.12533239 -0.0032809526 0.68900001
-0.12336382 -0.0032809526 0.68900001
-0.097774446 -0.046905242 0.6936667
-0.093514435 -0.046710622 0.69357151
-0.061468575 -0.045605719 0.69400001
-0.05684191 -0.045605719 0.69400001
-0.052839052 -0.045572862 0.69349998
-0.047554288 -0.045572862 0.69349998
-0.041925952 -0.046382383 0.69324994
-0.036937505 -0.046505839 0.69262499
-0.032999527 -0.046531431 0.69300002
-0.02840667 -0.045583814 0.6936667
-0.10303383 -0.041610956 0.69350004
-0.097320437 -0.042129967 0.69369239
-0.09246102 -0.042342037 0.69246674
-0.087299317 -0.043022078 0.69300014
-0.082577154 -0.041740268 0.69163638
-0.077799119 -0.042570855 0.69092315
-0.072662748 -0.042867411 0.69011116
-0.066503458 -0.041813217 0.69137508
-0.06218373 -0.041957926 0.69127274
-0.057769213 -0.04198052 0.69086689
-0.05263941 -0.042112026 0.69087505
-0.047344472 -0.042084947 0.69043756
-0.042144105 -0.042144701 0.69143748
-0.037569135 -0.042182937 0.69208336
-0.033117909 -0.042354606 0.69273335
-0.02928794 -0.043821909 0.6936667
-0.10580001 -0.038771432 0.69000006
-0.10229601 -0.038576003 0.69120008
-0.097740963 -0.038288437 0.6914286
-0.093971431 -0.038771432 0.69000006
-0.056908578 -0.038245719 0.69000006
-0.052584451 -0.037466511 0.69016671
-0.047325399 -0.037465874 0.69016671
-0.042242799 -0.037245378 0.69307148
-0.037453972 -0.038555559 0.69400001
-0.052608807 -0.032880004 0.69050014
-0.047613908 -0.033104829 0.69246674
-0.043821909 -0.034132384 0.6936667
-0.066042855 -0.025957143 0.69000006
-0.062473811 -0.026304288 0.69050002
-0.057647698 -0.027458033 0.69121432
-0.052789051 -0.027713338 0.69287503
-0.048506767 -0.028020097 0.69390011
-0.099142864 -0.021150477 0.69400001
-0.070314288 -0.02037143 0.69000006
-0.06715399 -0.022384346 0.69131255
-0.062078528 -0.022453755 0.69343752
-0.057623036 -0.022652643 0.69400007
-0.053008385 -0.023397714 0.69400007
-0.048910476 -0.023794288 0.69400001
-0.11590524 -0.016768573 0.69050002
-0.11224054 -0.016158838 0.69100004
-0.10770199 -0.01728267 0.69266671
-0.10376953 -0.019167621 0.69400001
-0.097160004 -0.017184764 0.69400001
-0.094516195 -0.015201906 0.69400001
-0.078857146 -0.01577143 0.69000006
-0.07159403 -0.016924417 0.69081825
-0.067343339 -0.017164763 0.69325006
-0.062781252 -0.017842954 0.69390005
-0.058824766 -0.019167621 0.69400001
-0.12183601 -0.011748001 0.69300002
-0.11700434 -0.012250689 0.69322228
-0.11269567 -0.012830901 0.69288892
-0.10509144 -0.012558095 0.69400001
-0.10376953 -0.011897143 0.69400001
-0.0958381 -0.01388 0.69400001
-0.092352986 -0.012038214 0.69262499
-0.087071434 -0.011500001 0.69000006
-0.082518376 -0.011922451 0.69000012
-0.077885032 -0.012391516 0.69145459
-0.07265994 -0.012549922 0.69358343
-0.068739057 -0.013219048 0.69400001
-0.1255143 -0.0065714289 0.69000006
-0.12273092 -0.0081490856 0.69084626
-0.11624429 -0.0099071432 0.69350004
-0.11302286 -0.0099142864 0.69400001
-0.09088096 -0.0089228582 0.69400001
-0.087466292 -0.0084415246 0.69259995
-0.082647197 -0.0082569979 0.69169235
-0.07789544 -0.0080572078 0.69353342
-0.073485903 -0.0081116892 0.69400007
-0.1255143 -0.0046000001 0.69000006
-0.12354286 -0.0046000001 0.69000006
-0.076670483 -0.0046266671 0.69400001
-0.073696196 -0.004296191 0.69400001
-0.035232384 -0.05118667 0.69800001
-0.032573335 -0.05118667 0.69800001
-0.10246668 -0.046846192 0.69525009
-0.087283216 -0.046541076 0.69562507
-0.082645245 -0.046633814 0.69700003
-0.077186033 -0.046224132 0.69666672
-0.072048575 -0.046308387 0.69660008
-0.067835987 -0.0467255 0.69755554
-0.06244269 -0.047240268 0.69681823
-0.057533931 -0.047586791 0.69637507
-0.052599248 -0.047301717 0.69560003
-0.047305718 -0.047528576 0.69633341
-0.042587485 -0.048848443 0.6971429
-0.037427079 -0.049177554 0.6964286
-0.032150004 -0.048721429 0.69600004
-0.029144287 -0.047691908 0.69550002
-0.10193335 -0.043023817 0.69500011
-0.099947624 -0.043023817 0.69500005
-0.082738101 -0.044347622 0.69500005
-0.070823811 -0.044347622 0.69500005
-0.067514285 -0.044347622 0.69500005
-0.063542858 -0.044347622 0.69500005
-0.031109527 -0.040376194 0.69500005
-0.029144289 -0.041398101 0.69550002
-0.040376194 -0.035080954 0.69500005
-0.036833335 -0.036170289 0.69560009
-0.032792192 -0.037436958 0.69700003
-0.02987143 -0.039164763 0.69700003
-0.045671433 -0.031109527 0.69500005
-0.042138193 -0.032200288 0.69570011
-0.037388571 -0.032676537 0.69763637
-0.046112701 -0.027358733 0.69500011
-0.043117926 -0.028283294 0.69654554
-0.10193335 -0.02051905 0.69500005
-0.055760004 -0.020578096 0.69700003
-0.052290477 -0.021048574 0.69500011
-0.047537908 -0.022247052 0.69520015
-0.044053338 -0.024130162 0.69733334
-0.10524287 -0.01654762 0.69500005
-0.1020996 -0.016953336 0.69614291
-0.098245591 -0.016925853 0.69500011
-0.061115876 -0.01610635 0.69500011
-0.057335239 -0.017234765 0.69600004
-0.053845719 -0.019278096 0.69800001
-0.10184139 -0.012591427 0.695889
-0.097741283 -0.012576191 0.69500011
-0.094652385 -0.012576192 0.69500005
-0.066875957 -0.012249286 0.69525009
-0.06232255 -0.012595715 0.69616675
-0.058165997 -0.012808981 0.69742864
-0.10089906 -0.0099571431 0.69700003
-0.097229809 -0.0089930622 0.69585723
-0.093263343 -0.007614763 0.69533342
-0.088033341 -0.0059571434 0.69500005
-0.078766674 -0.0059571434 0.69500005
-0.071088575 -0.0075457147 0.69500011
-0.067819811 -0.0080960002 0.69680011
-0.063532256 -0.0088318381 0.69800007
-0.090680957 -0.0033095242 0.69500005
-0.089357145 -0.0046333335 0.69500005
-0.08141429 -0.0026476188 0.69500011
-0.077597916 -0.0022506667 0.69520015
-0.072538339 -0.0020969047 0.69558346
-0.068716384 -0.0029238097 0.69780004
-0.081715517 0.0016140138 0.69757146
-0.07720115 0.0019937146 0.69760001
-0.072838701 0.0014944049 0.69687504
-0.069800004 0.00066476193 0.69800001
-0.071794286 0.039220955 0.69800001
-0.066476196 0.037891433 0.69800007
-0.064481907 0.037891433 0.69800007
-0.072346747 0.042477544 0.69691676
-0.068470478 0.042145904 0.69800001
-0.064481907 0.040550478 0.69800001
-0.071794286 0.045868576 0.69800001
-0.069800004 0.045868576 0.69800001
-0.069059052 -0.055649526 0.70400006
-0.036205716 -0.055649526 0.70400006
-0.032093335 -0.055491433 0.70200002
-0.082368784 -0.051175978 0.70188898
-0.07750012 -0.052112624 0.70150012
-0.072165959 -0.05212203 0.70162517
-0.06749668 -0.051829245 0.70310009
-0.062772468 -0.051623415 0.70241678
-0.057489764 -0.05147564 0.70191669
-0.052455124 -0.051114887 0.70387501
-0.047521379 -0.051538944 0.7027778
-0.042773254 -0.05246675 0.70175004
-0.03758407 -0.052885544 0.70127279
-0.031792819 -0.052440591 0.70107704
-0.028046671 -0.052170757 0.7035715
-0.023466667 -0.05129144 0.70400006
-0.086000003 -0.048666671 0.70000005
-0.082000002 -0.048333336 0.70000005
-0.077111118 -0.048222225 0.70000005
-0.072400011 -0.048400003 0.70000005
-0.066666678 -0.048666671 0.70000005
-0.05222223 -0.048666671 0.70000005
-0.048666671 -0.048666671 0.70000005
-0.027029527 -0.048474606 0.70366669
-0.024807621 -0.048944764 0.70400006
-0.028666668 -0.042000003 0.70000005
-0.031333335 -0.036000002 0.70000005
-0.028339846 -0.03712032 0.7001667
-0.035358574 -0.030688096 0.70050001
-0.032157209 -0.031890288 0.70053339
-0.028082967 -0.032676406 0.70022225
-0.041223239 -0.027081907 0.70040005
-0.037515812 -0.027902609 0.70093346
-0.032083809 -0.027403336 0.70183343
-0.028269527 -0.027196765 0.70340008
-0.046000004 -0.021333335 0.70000005
-0.04235312 -0.022331722 0.70076931
-0.037501968 -0.022768989 0.70318758
-0.032733813 -0.023125878 0.70383334
-0.028160002 -0.024807621 0.70400006
-0.055333339 -0.016666669 0.70000005
-0.051881086 -0.017204512 0.70019996
-0.047411911 -0.017361747 0.70116681
-0.042803101 -0.017387621 0.70225006
-0.038664129 -0.017655874 0.70400006
-0.060666669 -0.010000001 0.70000005
-0.056518529 -0.011333333 0.70000005
-0.052059349 -0.012013157 0.70081252
-0.047445714 -0.012028255 0.70166677
-0.043003559 -0.012190479 0.70333338
-0.039558098 -0.014080001 0.70400006
-0.066000007 -0.0060000005 0.70000005
-0.062010836 -0.0070010722 0.70012498
-0.057387304 -0.0073400005 0.70066679
-0.052216273 -0.007363731 0.70291674
-0.047756199 -0.0077518364 0.70342863
-0.044921909 -0.0087161912 0.70400006
-0.066444457 -0.0022222225 0.70000005
-0.062788218 -0.0026703572 0.70137507
-0.057728894 -0.0028116829 0.7032001
-0.052826006 -0.0033517145 0.70390004
-0.08200001 0.0041333339 0.70000005
-0.077466674 0.0044000004 0.70000005
-0.071525246 0.0038350006 0.70025003
-0.067445084 0.00267254 0.70116681
-0.063227415 0.0024878231 0.70307148
-0.058079917 0.002011342 0.70390916
-0.081906319 0.0071736909 0.70062506
-0.077434376 0.0073430976 0.70091677
-0.072119534 0.0073458739 0.70116681
-0.067169093 0.0074908235 0.70336372
-0.063390486 0.0065672384 0.70360005
-0.059672385 0.0060342862 0.70400006
-0.081667021 0.012050359 0.70287502
-0.077534229 0.012032678 0.70181257
-0.072611876 0.011682932 0.70246166
-0.06770175 0.010725239 0.70383346
-0.081127621 0.016091431 0.70400006
-0.077692382 0.017413931 0.70325005
-0.073686317 0.017417977 0.70337498
-0.07710477 0.021902226 0.70400012
-0.074422859 0.022125717 0.70400006
-0.075763814 0.027489526 0.70400012
-0.073417149 0.027824763 0.70400006
-0.076603025 0.033052541 0.70350003
-0.072318964 0.033078004 0.70310003
-0.067621917 0.032804765 0.70300001
-0.062571578 0.033529662 0.70214295
-0.057470642 0.032742541 0.70166671
-0.052615721 0.032934763 0.70290011
-0.047589909 0.033648193 0.70380002
-0.042220637 0.033284128 0.70366669
-0.075686477 0.036974858 0.7008
-0.072037362 0.037066057 0.70035714
-0.068000004 0.036666669 0.70000005
-0.062225427 0.037191577 0.70023078
-0.057404649 0.037380721 0.7008751
-0.052370161 0.037370797 0.7032001
-0.048676576 0.037144385 0.70400006
-0.070000008 0.04066667 0.70000005
-0.067466669 0.043066669 0.69999999
-0.062922575 0.042686522 0.70115393
-0.057980385 0.041109145 0.70300001
-0.053638101 0.040899049 0.70400006
-0.071384296 0.048034765 0.70050001
-0.066993855 0.047560435 0.7015456
-0.064759053 0.046065718 0.70100003
-0.070400007 0.050285719 0.70400006
-0.062034294 -0.060011432 0.708
-0.04556223 -0.06172223 0.70700002
-0.042756669 -0.061610006 0.70700002
-0.039726671 -0.061273336 0.70700002
-0.070500001 -0.055728573 0.70500004
-0.06646654 -0.056849398 0.70700008
-0.063124768 -0.056664195 0.70660007
-0.057707626 -0.057463817 0.70681816
-0.052294292 -0.057365794 0.70607686
-0.047259241 -0.058030795 0.70686662
-0.042571213 -0.057677723 0.70607692
-0.038768154 -0.057742756 0.70588887
-0.023500001 -0.055728577 0.7050001
-0.066853337 -0.054088574 0.70550001
-0.062442861 -0.054385718 0.70500004
-0.05712413 -0.054437146 0.70566672
-0.05220357 -0.053546432 0.70499998
-0.047671434 -0.054385718 0.7050001
-0.044985719 -0.054385718 0.70500004
-0.026722861 -0.05250572 0.70500004
-0.022157144 -0.053378575 0.70499998
-0.019526668 -0.050500002 0.70700002
-0.026222859 -0.04706572 0.70600003
-0.023190824 -0.047419745 0.70672733
-0.019554287 -0.04922286 0.708
-0.023600001 -0.043828573 0.708
-0.030550001 -0.02182143 0.70500004
-0.028535716 -0.022492858 0.70500004
-0.036161229 -0.01716939 0.70500004
-0.03242578 -0.017624764 0.70640004
-0.028953334 -0.018853335 0.70700002
-0.040957145 -0.010071429 0.70500004
-0.037641298 -0.012097892 0.70578569
-0.034340002 -0.014140001 0.70700002
-0.046371117 -0.0060485722 0.70566672
-0.042651623 -0.0073992386 0.70640004
-0.039080478 -0.0080857147 0.70749998
-0.055728573 -0.00067142863 0.70500004
-0.051500004 -0.0015669842 0.70533335
-0.047132265 -0.0026922624 0.70699996
-0.042464528 -0.004044048 0.70775002
-0.039782859 -0.0033714287 0.708
-0.061100002 0.0040285718 0.70500004
-0.056802858 0.0041628578 0.70500004
-0.052652456 0.0024031973 0.70621425
-0.048773341 0.0015733335 0.70800006
-0.061940383 0.0079278098 0.70540005
-0.057617586 0.0075157583 0.70572728
-0.054046858 0.0071436199 0.7076
-0.070947625 0.013652382 0.7050001
-0.066739999 0.012891429 0.70499998
-0.062559694 0.012108574 0.70633328
-0.058068067 0.011991241 0.70733333
-0.081242859 0.018800002 0.70500004
-0.07124643 0.017476428 0.70574999
-0.067297265 0.017498454 0.70662487
-0.062643819 0.017207621 0.70727265
-0.059084132 0.015950795 0.70766664
-0.081157915 0.022746859 0.70660001
-0.078109525 0.023500003 0.70499998
-0.072283953 0.022942724 0.70557141
-0.067368343 0.022905834 0.70737499
-0.063607626 0.022476193 0.70800006
-0.051920004 0.024948573 0.708
-0.013710476 0.023150479 0.70800006
-0.080957718 0.027884191 0.70719999
-0.078173481 0.027336739 0.70500004
-0.072010718 0.027360715 0.70499998
-0.067268416 0.027579371 0.70633328
-0.062509321 0.027773229 0.70744443
-0.058074098 0.028700003 0.70740002
-0.052383386 0.027753768 0.70763642
-0.047180291 0.027903145 0.70769995
-0.042113338 0.028636668 0.70749998
-0.038182385 0.028524287 0.70749998
-0.033714287 0.028994288 0.708
-0.080800004 0.030300003 0.70700002
-0.077981643 0.031365313 0.70500004
-0.072514296 0.030661907 0.70500004
-0.066471435 0.030885717 0.70500004
-0.062471755 0.030900002 0.70533335
-0.057785239 0.030235715 0.70550007
-0.051723816 0.030900002 0.70533335
-0.047729392 0.031210206 0.70585716
-0.043164182 0.031997588 0.70561534
-0.037619166 0.032245599 0.70537496
-0.032745644 0.032332022 0.70615381
-0.050357144 0.03961429 0.70500004
-0.046696674 0.038131669 0.70550001
-0.042884767 0.037510164 0.70580006
-0.038393099 0.036709767 0.70725
-0.033714287 0.035737146 0.708
-0.061100002 0.04364286 0.70500004
-0.057560004 0.043146946 0.70628577
-0.052766398 0.042387079 0.70642859
-0.048496433 0.041762147 0.70725
-0.062376101 0.047153622 0.70730001
-0.021668572 -0.046045717 0.71100003
-0.019664764 -0.046786666 0.71200007
-0.030428573 -0.015552382 0.71000004
-0.028439049 -0.016250953 0.71100003
-0.035838097 -0.010142858 0.71000004
-0.032336831 -0.012041206 0.71033347
-0.027794447 -0.012203651 0.71183336
-0.037209645 -0.0071034525 0.71037501
-0.032517463 -0.007451429 0.71133339
-0.028195515 -0.0076529258 0.712143
-0.042600002 -0.0020285717 0.71000004
-0.037755366 -0.0026613974 0.71046674
-0.03257804 -0.0027149408 0.71268767
-0.027863896 -0.0027175397 0.71358341
-0.051390477 0.0047333338 0.71000004
-0.047024544 0.0029698904 0.71084625
-0.042331703 0.0029078913 0.71200013
-0.038285907 0.0020377147 0.71280009
-0.026690001 0.0022100001 0.71400011
-0.051700957 0.0076348307 0.71028578
-0.04745413 0.0074579371 0.71183342
-0.042124689 0.0074740481 0.71341681
-0.038760003 0.0068000006 0.71400005
-0.056123812 0.014200001 0.71000004
-0.05278375 0.012181252 0.71056259
-0.047456548 0.012203453 0.71187508
-0.042133633 0.012232321 0.71356255
-0.038488004 0.012648001 0.71400005
-0.060857147 0.018933335 0.71000004
-0.057237722 0.017862096 0.71040004
-0.052817143 0.017605713 0.71100014
-0.047507495 0.017645119 0.71262515
-0.042103309 0.01763016 0.71380007
-0.038073219 0.017677264 0.71387506
-0.018334286 0.019692382 0.71300006
-0.061171435 0.022516193 0.71028578
-0.057557147 0.022345716 0.71100003
-0.052805081 0.022340162 0.71083343
-0.047443815 0.022366032 0.71166676
-0.042109847 0.022413019 0.71316683
-0.037550364 0.022597503 0.71362507
-0.033297148 0.022763334 0.71350008
-0.027172145 0.023775002 0.71325004
-0.022231668 0.022569288 0.71275008
-0.017630398 0.022374049 0.7119168
-0.061262857 0.025560005 0.71000004
-0.057307146 0.026202384 0.71000004
-0.053419054 0.025357146 0.71000004
-0.047333337 0.025469845 0.71000004
-0.042814523 0.026229763 0.71074998
-0.037643336 0.026133239 0.71090001
-0.0323162 0.026798645 0.71114296
-0.027128454 0.027127501 0.71212512
-0.02237159 0.027117942 0.71183336
-0.017665654 0.027179228 0.71343762
-0.014000381 0.026777908 0.7136001
-0.03044286 0.032247942 0.71033335
-0.027330002 0.032275036 0.71235728
-0.022611566 0.031540275 0.7132858
-0.019720001 0.031280003 0.71400005
-0.031280003 0.036040001 0.71400005
-0.051260959 0.043584134 0.71133339
-0.047178335 0.042427383 0.71275002
-0.04401429 0.041305717 0.71100003
-0.036481909 0.0037504763 0.71600002
-0.032757327 0.0027305358 0.71656251
-0.02815293 0.0036043543 0.71600002
-0.037115104 0.0076957829 0.71600002
-0.0327731 0.0075107152 0.71691674
-0.027296035 0.0075065093 0.71650004
-0.036725447 0.011982042 0.71600002
-0.033178389 0.011936045 0.71776927
-0.02701634 0.011954799 0.71884614
-0.022819242 0.013801715 0.71740001
-0.042960003 0.01841143 0.71600002
-0.036140956 0.017729525 0.71600002
-0.033255022 0.017915387 0.71715385
-0.026705718 0.018945081 0.71900004
-0.022553731 0.017767541 0.71758336
-0.019338414 0.018883176 0.7166667
-0.036140956 0.02113905 0.71600002
-0.031367622 0.021820953 0.71600002
-0.027280597 0.021824883 0.71612507
-0.023866668 0.02113905 0.71600002
-0.025912382 0.034777146 0.71600002
-0.022254098 0.034270477 0.71680003
-0.018224604 0.032119527 0.71750009
-0.036241904 0.038292386 0.71800005
-0.028021907 0.03622508 0.71766675
-0.031314291 0.013942858 0.72000003
-0.029028572 0.013942858 0.72000003
-0.030857146 0.017142858 0.72000003
-0.027856002 0.017152382 0.72040015
