# .PCD v0.7 - Point Cloud Data file format
VERSION 0.7
FIELDS x y z
SIZE 4 4 4
TYPE F F F
COUNT 1 1 1
WIDTH 650
HEIGHT 1
VIEWPOINT 0 0 0 1 0 0 0
POINTS 650
DATA ascii
-0.043962859 -0.022937145 0.66900003
0.0089200009 -0.00063714292 0.66900003
0.0057342863 0.0044600004 0.66900003
-0.0532781 -0.030169526 0.67400002
-0.031611159 -0.031060414 0.6734286
-0.027505716 -0.030065082 0.67166674
-0.056701593 -0.02610413 0.67400002
-0.052404329 -0.0274568 0.67327267
-0.047431272 -0.027562542 0.67300004
-0.042646073 -0.027096076 0.67337501
-0.03851429 -0.025034288 0.67400002
-0.031774286 -0.027066989 0.67399997
-0.027143406 -0.026684904 0.67399997
-0.022466671 -0.025890162 0.67400002
-0.01989905 -0.025676193 0.67400002
-0.05736972 -0.022460004 0.67379993
-0.052480008 -0.02304 0.67199999
-0.047259826 -0.02299054 0.67056251
-0.041914634 -0.02301218 0.67121434
-0.03851429 -0.023750478 0.67400002
-0.032095239 -0.022466673 0.67399997
-0.02713507 -0.022349963 0.67399997
-0.023171159 -0.022986671 0.67314285
-0.055845719 -0.01989905 0.67400002
-0.052547727 -0.019036615 0.67377782
-0.047574028 -0.018689699 0.67254543
-0.043690797 -0.019392384 0.67133331
-0.031453334 -0.019578097 0.67400002
-0.026639052 -0.01829429 0.67399997
-0.023726985 -0.018598098 0.67333335
-0.00064190483 -0.016047619 0.67400002
0.0019257145 -0.016689524 0.67400002
0.008344762 -0.016689524 0.67400002
-0.0057771434 -0.012838096 0.67400002
-0.0025676191 -0.012562996 0.67399997
0.002567024 -0.012831789 0.67362493
0.0076848818 -0.012811787 0.67262495
-0.0025673811 -0.0077004763 0.67374986
0.0025606549 -0.007680655 0.67206246
0.007686072 -0.007686072 0.67262495
-0.0057771434 -0.0019257144 0.67400002
-0.0025664289 -0.002564762 0.6732499
0.0025619047 -0.0025634523 0.67249995
0.0073380228 -0.0029079858 0.67215377
-0.0016042858 0.001924762 0.67349994
0.002559107 0.0025597024 0.67193747
0.0063809529 0.0019142861 0.67000002
0.0032043292 0.0072858883 0.67309088
0.0019257144 0.010912382 0.67400002
-0.081156671 -0.031363335 0.67900002
-0.0772755 -0.031674284 0.67872727
-0.07234659 -0.031652141 0.67825001
-0.067203343 -0.031663653 0.67850006
-0.062942237 -0.031255558 0.67900002
-0.057329845 -0.03027397 0.67633337
-0.052162863 -0.030784572 0.67620003
-0.047790658 -0.031491078 0.6772728
-0.042682674 -0.031337526 0.67699999
-0.037722226 -0.030393338 0.67900008
-0.034273334 -0.031040002 0.67900002
-0.025108574 -0.03025905 0.67600006
-0.023785716 -0.030214287 0.67500001
-0.081264451 -0.028668892 0.67900008
-0.077440709 -0.027191941 0.67873341
-0.072294526 -0.027109647 0.67775005
-0.067054763 -0.02708048 0.67700011
-0.062293634 -0.027209088 0.6764617
-0.058386672 -0.027370162 0.67533338
-0.05464286 -0.028928574 0.67500001
-0.041785717 -0.028607145 0.67500001
-0.03716157 -0.027320618 0.67607147
-0.033107143 -0.026678573 0.67500001
-0.025752384 -0.02897143 0.67600006
-0.022505239 -0.028078577 0.67516673
-0.019928573 -0.027642859 0.67500001
-0.076468334 -0.022471666 0.67899996
-0.072360732 -0.021966072 0.67837507
-0.067141555 -0.02194988 0.6778751
-0.062246293 -0.022682859 0.6766001
-0.05978572 -0.021214288 0.67500001
-0.037028573 -0.022242863 0.67500013
-0.0011571429 -0.022242859 0.67500001
0.0014142859 -0.022242859 0.67500001
0.0070714294 -0.021214288 0.67500007
-0.080833338 -0.016166668 0.67900002
-0.071595244 -0.017829526 0.67900002
-0.067237154 -0.017455399 0.67883337
-0.062350925 -0.017904911 0.67707705
-0.057924431 -0.018019799 0.67578578
-0.052828982 -0.016629253 0.67528576
-0.047185719 -0.016328571 0.67500001
-0.042081114 -0.017820952 0.67633343
-0.037427623 -0.018342724 0.67757154
-0.032461267 -0.017518096 0.6771667
-0.028971432 -0.017380955 0.67600006
-0.0061071431 -0.017035715 0.67500001
-0.0027006988 -0.018134348 0.67520016
0.0029571431 -0.01877143 0.67500013
0.0067500002 -0.018642858 0.67500007
-0.08059524 -0.014185715 0.67700005
-0.079247147 -0.014175715 0.67650002
-0.066597059 -0.01357781 0.67889994
-0.062045604 -0.012925595 0.67862499
-0.057518017 -0.012924525 0.67858332
-0.052882146 -0.012896191 0.67712504
-0.04758846 -0.01286155 0.67524999
-0.043778814 -0.012875715 0.67600006
-0.0062142862 -0.013500001 0.67500007
-0.0025714287 -0.014785715 0.67500001
-0.062343955 -0.0091436747 0.67885715
-0.057553336 -0.0097000003 0.67900008
-0.05293889 -0.0088223815 0.67783332
-0.047597501 -0.00900512 0.67537504
-0.043779049 -0.0090133343 0.67600006
-0.0061176196 -0.0086928569 0.676
-0.0066428576 -0.0010714286 0.67500007
-0.0069613857 0.0027501299 0.67563647
-0.0035357145 0.0032142857 0.67500007
-0.0069106128 0.0067283004 0.67728579
-0.0024515558 0.0076133343 0.67719996
0.0011580953 0.0086281905 0.67600006
-0.00064666668 0.010993334 0.67900002
-0.042017147 -0.041365717 0.68400002
-0.039737146 -0.041040003 0.68400002
-0.096411437 -0.035828575 0.68400002
-0.092285722 -0.035828575 0.68400002
-0.086755365 -0.036623217 0.68362504
-0.082004413 -0.036446787 0.68337506
-0.077954292 -0.036262862 0.68400002
-0.072934046 -0.035815481 0.68375003
-0.06724827 -0.036227942 0.6833334
-0.062491432 -0.036453813 0.68350005
-0.057731435 -0.036245402 0.68366671
-0.050811432 -0.035828575 0.68400002
-0.047033146 -0.03661029 0.68400002
-0.042985581 -0.037589259 0.6838572
-0.038859211 -0.037339848 0.68383336
-0.10159826 -0.031912223 0.68383336
-0.097432151 -0.032390855 0.68293333
-0.092384644 -0.03253036 0.68312496
-0.087332942 -0.032668982 0.68214297
-0.08293429 -0.032716624 0.6808182
-0.078237861 -0.033764526 0.68175006
-0.07280048 -0.034450002 0.6825
-0.06755048 -0.034424763 0.68200004
-0.061806958 -0.033112098 0.68170005
-0.05721397 -0.033158731 0.68266672
-0.052497506 -0.033644404 0.68262506
-0.047414765 -0.034100953 0.68200004
-0.042652704 -0.033993017 0.68200004
-0.037763335 -0.032786988 0.68166673
-0.10126024 -0.028326429 0.68375003
-0.097585797 -0.027441273 0.68279999
-0.092367388 -0.027319647 0.68299997
-0.087244019 -0.027173653 0.68260008
-0.0827903 -0.026948763 0.68019998
-0.079657145 -0.026552383 0.68000001
-0.099017151 -0.024102859 0.68400002
-0.092285722 -0.023234289 0.68400002
-0.086863309 -0.02247839 0.68338472
-0.082389213 -0.022054762 0.68116665
-0.078847624 -0.021533333 0.67999995
0.004546667 -0.022083811 0.68200004
0.0058457148 -0.023382857 0.68200004
-0.085337147 -0.01889143 0.68400002
-0.082547203 -0.017869102 0.68366671
-0.077600874 -0.017382339 0.68054551
-0.073699057 -0.016967621 0.68000001
-0.036914289 -0.016190477 0.68000001
-0.082872577 -0.013921715 0.68300003
-0.077564105 -0.013511333 0.6821
-0.072653159 -0.013124256 0.68233335
-0.068965405 -0.012754604 0.68099999
-0.040800001 -0.014895239 0.68000001
-0.039504763 -0.014895239 0.68000001
-0.06083937 -0.0075765084 0.68200004
-0.057779055 -0.0077888891 0.68166673
-0.053104766 -0.0097142868 0.68000001
-0.0071300003 0.0090728579 0.68050003
-0.0045333337 0.0097142868 0.68000001
-0.0063466677 0.012045714 0.68000001
-0.0028680277 0.011749661 0.68000001
0.00064761908 0.011009525 0.68000001
-0.10630286 -0.040027622 0.68900001
-0.10258445 -0.040027626 0.68900001
-0.088060774 -0.040815052 0.68900007
-0.084648579 -0.041340001 0.68900001
-0.073493332 -0.040027622 0.68900001
-0.066931427 -0.040027622 0.68900001
-0.062249526 -0.040623814 0.68800002
-0.057535332 -0.04215334 0.68863648
-0.05237953 -0.042559519 0.68750018
-0.047489148 -0.041469719 0.68680012
-0.11155239 -0.03674667 0.68900001
-0.10758874 -0.037394132 0.68883342
-0.10234165 -0.037449352 0.68763649
-0.098215818 -0.036749907 0.68660003
-0.092757307 -0.037322383 0.6875
-0.087849528 -0.038802542 0.68666673
-0.082380004 -0.03922905 0.68650007
-0.077138938 -0.037834167 0.68787503
-0.072267219 -0.038050342 0.68714297
-0.068156958 -0.038068954 0.68680012
-0.062345721 -0.038819622 0.68620008
-0.057475984 -0.038729735 0.68666673
-0.052497286 -0.038205855 0.68657154
-0.047693335 -0.038873337 0.68599999
-0.041160002 -0.03854667 0.68600005
-0.038285337 -0.038024005 0.68600005
-0.11208929 -0.032630567 0.68900013
-0.10736108 -0.032733217 0.68737513
-0.10327715 -0.033336513 0.68633342
-0.099960007 -0.03462667 0.68600005
-0.11202111 -0.028403677 0.68900007
-0.10738251 -0.027498811 0.68750012
-0.10313881 -0.026969288 0.68650001
-0.097346671 -0.025480002 0.68600005
-0.10210942 -0.022617025 0.68837512
-0.09768223 -0.022238731 0.68683338
-0.093092524 -0.020821773 0.68628585
-0.089157462 -0.020708574 0.68666673
-0.10072525 -0.016076667 0.68900001
-0.097247437 -0.016667238 0.68900007
-0.092085406 -0.018592063 0.68900001
-0.087283202 -0.017195413 0.68718177
-0.10630286 -0.011155238 0.68900001
-0.10197201 -0.012336382 0.68900007
-0.09777239 -0.01224889 0.68900007
-0.087086201 -0.013750001 0.6875
-0.1108962 -0.0065619051 0.68900001
-0.10746332 -0.0078291437 0.68886679
-0.10291255 -0.0082023824 0.68900007
-0.11155239 -0.0039371429 0.68900001
-0.10748401 -0.0043308577 0.68900007
-0.096829526 -0.045936197 0.69400001
-0.092745148 -0.046901342 0.69360012
-0.087412007 -0.045750674 0.69220006
-0.082459688 -0.0455181 0.69266671
-0.077331431 -0.046046358 0.69400001
-0.072704762 -0.045605719 0.69400001
-0.068959378 -0.046046358 0.69400001
-0.062701911 -0.045540005 0.69300002
-0.059800003 -0.045342859 0.69000006
-0.11566667 -0.040318098 0.69400001
-0.11184917 -0.041739643 0.69287503
-0.10767877 -0.041862767 0.69110006
-0.10248026 -0.042464849 0.69125003
-0.097618401 -0.042215183 0.69256246
-0.092283763 -0.042259753 0.69113332
-0.087463342 -0.043403339 0.69050002
-0.082729355 -0.042891089 0.69090909
-0.077731736 -0.042163152 0.69168758
-0.072314501 -0.042468917 0.69207156
-0.067449927 -0.042186111 0.69208336
-0.062767312 -0.042700429 0.69211113
-0.057828575 -0.044028573 0.69000006
-0.1166775 -0.037131552 0.69312501
-0.11289715 -0.037982862 0.69000006
-0.097257152 -0.038771432 0.69000006
-0.09331429 -0.038771432 0.69000006
-0.1161862 -0.03382365 0.69183338
-0.11368572 -0.034828573 0.69000006
-0.11553106 -0.027795432 0.69160002
-0.11263429 -0.026417146 0.69000006
-0.11566667 -0.023133336 0.69400001
-0.11239062 -0.022395756 0.69323081
-0.10759015 -0.022550274 0.69064295
-0.10396001 -0.021422861 0.69000006
-0.099228576 -0.02037143 0.69000006
-0.11155187 -0.017120173 0.69381827
-0.10755478 -0.017156828 0.69283336
-0.10309976 -0.017420717 0.6902501
-0.097197406 -0.017264936 0.69000006
-0.092188179 -0.016551193 0.69058341
-0.088714294 -0.015114287 0.69000006
-0.1119177 -0.012729389 0.69300008
-0.1079143 -0.012640213 0.69044447
-0.10448572 -0.013142858 0.69000006
-0.096600011 -0.012704764 0.69000006
-0.092276484 -0.012750573 0.69010007
-0.11184572 -0.0080171442 0.69000006
-0.10974286 -0.0085428581 0.69000006
-0.10087144 -0.0069000004 0.69000006
-0.097536132 -0.0081732664 0.69064295
-0.094016835 -0.0085463505 0.69033337
-0.11149524 -0.0015333336 0.69000006
-0.10783119 -0.0018519486 0.69000006
-0.10260584 -0.0026296428 0.69062507
-0.098959647 -0.0029734524 0.69387507
-0.11105715 0.0013142858 0.69000006
-0.1076208 0.0018526409 0.69018191
-0.1030254 0.0016793652 0.69000006
-0.11218382 -0.051113337 0.69700003
-0.096390486 -0.05118667 0.69800001
-0.11710814 -0.047595132 0.69733334
-0.11285105 -0.047471706 0.69642872
-0.1077925 -0.046703387 0.69722223
-0.10217489 -0.047643155 0.69700009
-0.097928576 -0.048266355 0.69633341
-0.092801914 -0.048390482 0.69600004
-0.086709529 -0.047657143 0.69500011
-0.082076199 -0.047657143 0.69500011
-0.078104764 -0.046333335 0.69500005
-0.066703051 -0.046546862 0.69620007
-0.063542858 -0.046995241 0.69500005
-0.12076509 -0.040993653 0.69800007
-0.11760036 -0.042660613 0.69690913
-0.11379112 -0.043528259 0.69600004
-0.10789049 -0.044347625 0.69500005
-0.066190481 -0.044347622 0.69500005
-0.12101581 -0.038124766 0.69740003
-0.11914286 -0.037066668 0.69500005
-0.11980477 -0.033757146 0.69500005
-0.11627462 -0.02140159 0.69500005
-0.11450953 -0.02051905 0.69500005
-0.11384763 -0.018533334 0.69500005
-0.11933334 -0.050000004 0.70000005
-0.11066668 -0.050666671 0.70000005
-0.10714287 -0.050952386 0.70000011
-0.10293334 -0.051600005 0.69999999
-0.098444454 -0.052444454 0.70000005
-0.12268135 -0.04733881 0.70008326
-0.11933334 -0.048000004 0.70000005
-0.10733335 -0.048666671 0.70000005
-0.126 -0.044000003 0.70000005
-0.1230666 -0.043039639 0.70023078
-0.1237112 -0.038013574 0.70025003
-0.082133338 0.039222859 0.70400006
-0.07751482 0.038645402 0.70366669
-0.072349332 0.038452007 0.70340008
-0.067015879 0.038868893 0.70366669
-0.062686265 0.038951296 0.70342863
-0.057486005 0.038457435 0.70350003
-0.053251274 0.038321115 0.70183337
-0.08231508 0.042711429 0.7037273
-0.077610955 0.042819053 0.70250005
-0.072205484 0.042788573 0.70200008
-0.067477308 0.04275699 0.70150012
-0.062728986 0.042707566 0.70068759
-0.057358991 0.042684946 0.7003125
-0.05345035 0.042397555 0.70028579
-0.081127621 0.04626286 0.70400006
-0.077329539 0.046504766 0.70360005
-0.072372742 0.046908695 0.70362502
-0.067537881 0.047476936 0.70211112
-0.06268207 0.04734477 0.70016664
-0.057515156 0.047212124 0.69999999
-0.1071616 0.034372382 0.70766675
-0.10249144 0.034388572 0.708
-0.099120006 0.034388572 0.708
-0.087626919 0.034376428 0.70775002
-0.082035057 0.034079999 0.70719999
-0.077937625 0.033465236 0.70749998
-0.072336011 0.034079999 0.70719999
-0.067814611 0.033906668 0.70733333
-0.062403627 0.032885905 0.70760006
-0.057767622 0.032864131 0.70666671
-0.052803624 0.033271238 0.70719999
-0.0491881 0.033690002 0.70749998
-0.10731436 0.037671432 0.7073077
-0.10231119 0.037692856 0.70674992
-0.097947098 0.038236406 0.70711118
-0.092230998 0.037933856 0.70781821
-0.087511018 0.037696015 0.70681238
-0.082753576 0.036760718 0.70499998
-0.078173481 0.036161229 0.70500004
-0.072547622 0.036050163 0.70533341
-0.067409001 0.036503393 0.70544446
-0.062473021 0.036273971 0.70533341
-0.057966672 0.03603334 0.70500004
-0.052444763 0.036083817 0.70600003
-0.10626255 0.041561596 0.70766664
-0.10229418 0.041724645 0.70662498
-0.097241633 0.042157054 0.70709991
-0.092261389 0.042426884 0.70711118
-0.087411121 0.042360641 0.70599997
-0.083928578 0.044985719 0.70500004
-0.092595056 0.045691054 0.70760006
-0.087298244 0.045718376 0.70742863
-0.082030483 0.047403336 0.70599997
-0.077995241 0.04841239 0.70600003
-0.072619051 0.049083814 0.70600003
-0.072148576 0.050571434 0.70800006
-0.067017287 0.051056746 0.70671427
-0.10593143 0.0047533335 0.71300006
-0.11178191 0.0084942859 0.71350008
-0.10714477 0.0075961915 0.71327287
-0.11189657 0.010741143 0.71380007
-0.10763324 0.011254604 0.7137779
-0.10132001 0.029240001 0.71400005
-0.096333347 0.02878667 0.71400011
-0.092415243 0.028539525 0.71350002
-0.087918296 0.028671429 0.71340007
-0.082900956 0.029219523 0.71350002
-0.077728741 0.028779842 0.71383345
-0.072342589 0.02845116 0.71371442
-0.067407742 0.028354406 0.71312511
-0.062214963 0.0274234 0.71228582
-0.057273343 0.026938643 0.71228582
-0.052710775 0.027475167 0.71169239
-0.049071431 0.028266352 0.71233338
-0.12036001 0.034000002 0.71400005
-0.11737567 0.033688031 0.71357149
-0.11272319 0.033272229 0.71300018
-0.1072512 0.032581668 0.71275008
-0.10252107 0.031909 0.71288896
-0.097556517 0.032425847 0.71233344
-0.092353687 0.032298986 0.71078581
-0.08759696 0.031951051 0.71079999
-0.082703911 0.031713251 0.71127278
-0.076740429 0.03155249 0.71166676
-0.072636783 0.031660598 0.71112502
-0.067396104 0.031532098 0.7105
-0.062252387 0.030450001 0.7105
-0.0568 0.030428573 0.71000004
-0.052292064 0.030879369 0.71000004
-0.049361907 0.031104764 0.71000004
-0.12104001 0.036720004 0.71400005
-0.11742139 0.037329946 0.71266681
-0.11248675 0.037849054 0.71150011
-0.096115664 0.037190482 0.7100001
-0.093990482 0.035838097 0.71000004
-0.11691929 0.040785957 0.71375
-0.11316153 0.041161906 0.71320003
-0.10856922 0.042209208 0.71100008
-0.1017162 0.044076193 0.71200001
-0.096086197 0.043983337 0.7105
-0.09574572 0.045496192 0.71300006
-0.10202953 -0.00068476197 0.71900004
-0.10298415 0.0030793655 0.71850002
-0.10278612 0.0072441916 0.71760005
-0.098605722 0.0061628576 0.71900004
-0.11524191 0.011592382 0.71600002
-0.11273131 0.013348709 0.71614295
-0.10761961 0.01356245 0.71714288
-0.10421556 0.011859683 0.71833342
-0.11580553 0.018186096 0.71780008
-0.11233263 0.017925398 0.71833336
-0.10810064 0.017246032 0.71788889
-0.1175923 0.022721648 0.71899998
-0.11230096 0.022597147 0.71899998
-0.10778153 0.022871051 0.71900004
-0.10271429 0.023966668 0.71900004
-0.097236194 0.023966668 0.71900004
-0.093127623 0.023966668 0.71900004
-0.087193012 0.023510162 0.71900004
-0.082348891 0.022582332 0.71855557
-0.077952959 0.022838477 0.71799999
-0.072995625 0.023692762 0.71900004
-0.067106672 0.023966668 0.71900004
-0.062170796 0.023911115 0.71733344
-0.057142574 0.022828098 0.7177
-0.052604452 0.022542858 0.71733338
-0.049941272 0.022574922 0.71833342
-0.12086572 0.027314287 0.71700001
-0.11751251 0.027327502 0.71737504
-0.11241484 0.027149936 0.71785718
-0.1076845 0.0275298 0.7175715
-0.10256972 0.027201083 0.71766669
-0.097982109 0.026789313 0.71722227
-0.092835486 0.025938813 0.71675003
-0.087121055 0.026353816 0.71690005
-0.082587302 0.026618415 0.7166667
-0.077621914 0.026328763 0.71620005
-0.072357148 0.025939286 0.71675003
-0.067837916 0.025797144 0.71660006
-0.06418857 0.025265716 0.71700001
-0.05114286 0.025230478 0.71600002
-0.049531113 0.026249211 0.71900004
-0.11779746 0.031154606 0.71633339
-0.11251429 0.030685715 0.71600002
-0.10774097 0.030685715 0.71600002
-0.12086572 0.038922861 0.71700001
-0.10122 -0.00068857148 0.72300005
-0.099154294 -0.00068857148 0.72300005
-0.10080001 0.002057143 0.72000003
-0.099193469 0.0024579596 0.72257155
-0.10217144 0.0089142863 0.72000003
-0.10289031 0.012776001 0.72120005
-0.10615431 0.018302223 0.72066677
-0.10285641 0.017880071 0.72207153
-0.09831576 0.018461216 0.72281826
-0.092268571 0.019968573 0.72300005
-0.088825718 0.019968573 0.72300005
-0.082301363 0.01937048 0.72271436
-0.076960005 0.018723389 0.72222227
-0.072650068 0.019366533 0.72257155
-0.067381635 0.01937837 0.72300011
-0.062384583 0.019417716 0.72300005
-0.057820242 0.018584527 0.72275007
-0.05229054 0.017888037 0.72243756
-0.047635622 0.018310668 0.72280008
-0.1073143 0.022285715 0.72000003
-0.10291354 0.022366097 0.72040004
-0.097506672 0.021972382 0.72100008
-0.092152625 0.022136431 0.72075009
-0.087908573 0.021805717 0.72000003
-0.08434286 0.021257143 0.72000003
-0.076114289 0.021257143 0.72000003
-0.072391845 0.021844901 0.72000003
-0.067292862 0.021972857 0.72100008
-0.062428262 0.021952702 0.72033346
-0.058971431 0.021257143 0.72000003
-0.04738646 0.022663917 0.72111118
-0.044571433 0.021257143 0.72000003
-0.047443815 0.025441907 0.72200006
-0.10011905 -0.0062142862 0.72500002
-0.097267821 -0.0067809531 0.72640008
-0.094725721 -0.0062228576 0.72600001
-0.10018811 -0.0034557148 0.72549999
-0.097255848 -0.0029510825 0.72518176
-0.094638735 -0.0025326987 0.72533339
-0.097028695 0.0027627381 0.72512496
-0.094595246 0.00069047621 0.72500002
-0.10057937 0.0085158739 0.72500008
-0.098233342 0.0078988587 0.7274
-0.063180007 0.0090257153 0.72900003
-0.10110128 0.012511641 0.72544444
-0.097771518 0.01279472 0.728091
-0.09309601 0.014290287 0.72840005
-0.087063439 0.014302286 0.72900003
-0.082563341 0.013875715 0.72850007
-0.077706195 0.014570001 0.72850001
-0.07280001 0.014560001 0.72800004
-0.067260861 0.013173431 0.7281
-0.062400598 0.012478096 0.72799999
-0.057514213 0.01247024 0.72758335
-0.052594729 0.012946228 0.72738469
-0.047508571 0.013697144 0.72825003
-0.043740004 0.014580001 0.72900003
-0.096804775 0.016709525 0.72500002
-0.092608571 0.017276669 0.72566664
-0.087384678 0.017172905 0.72663641
-0.082739048 0.016902316 0.7265715
-0.077829853 0.016348574 0.72533339
-0.072516672 0.016575081 0.72516668
-0.067754075 0.016804023 0.72511107
-0.062671795 0.016746787 0.72512501
-0.057309531 0.015880954 0.72500008
-0.047708575 0.015902858 0.72600001
-0.04494286 0.015902858 0.72600001
-0.087000005 0.020023812 0.72500002
-0.071935251 -0.011406986 0.73333335
-0.096235566 -0.0086215883 0.73400009
-0.096336201 0.0034885718 0.73300004
-0.096291818 0.0079428582 0.73159999
-0.092210956 0.0083823809 0.7335
-0.087341905 0.0083844457 0.73366666
-0.083420955 0.0085234288 0.73360008
-0.072001912 0.0076895244 0.73400003
-0.067203693 0.007853929 0.73312503
-0.062689647 0.0080094049 0.73137498
-0.057329647 0.0080146436 0.731875
-0.052612111 0.0084537417 0.73100007
-0.047389053 0.0083626201 0.73175001
-0.096074291 0.011139048 0.73100001
-0.092466787 0.011666548 0.73137504
-0.087954037 0.011714026 0.73136365
-0.082116723 0.011397779 0.73277783
-0.077382863 0.012548572 0.73200005
-0.072284579 0.012418096 0.73260003
-0.068458736 0.010906985 0.73100007
-0.053142544 0.010442859 0.73100007
-0.047000598 0.011314882 0.731125
-0.043586433 0.011854049 0.73225003
-0.096497789 -0.010981589 0.73600006
-0.092345715 -0.011790046 0.73609096
-0.087972127 -0.01153456 0.73728579
-0.084815241 -0.011916191 0.73600006
-0.075909525 -0.010542858 0.73800004
-0.072899051 -0.010514286 0.73600006
-0.0929441 -0.0080018109 0.73710006
-0.089383818 -0.0091495244 0.73900002
-0.075103812 -0.0091247624 0.73700005
-0.072035432 -0.0085649537 0.73720002
-0.069677144 -0.0077419053 0.73900002
-0.057367761 -0.0069321101 0.73842865
-0.053344764 -0.0070190481 0.73700005
-0.046388574 -0.0070295245 0.73800004
-0.044220004 -0.0070190481 0.73700005
-0.095483504 -0.0039882543 0.73900002
-0.094757147 -0.0014038096 0.73700005
-0.05751067 -0.0029521906 0.73820013
-0.052770481 -0.0026161906 0.73700005
-0.047324132 -0.0023441273 0.73800009
-0.04265086 -0.00098533335 0.73900002
-0.096030481 0.0042057144 0.73600006
-0.093276963 0.0035062858 0.73640007
-0.087152392 0.0049200002 0.73800004
-0.082020395 0.0043609524 0.73860008
-0.077196553 0.0042105955 0.736875
-0.072132498 0.0036839289 0.73712504
-0.067382865 0.0037887623 0.73699999
-0.062379438 0.0032293338 0.73760003
-0.057546794 0.002806071 0.73687518
-0.052625008 0.0028059524 0.73675007
-0.047745485 0.0028078575 0.73725015
-0.042192265 0.0028115476 0.73837513
-0.038674604 0.0035146035 0.7383334
-0.096030481 0.0063085719 0.73600006
-0.092556432 0.0063107149 0.73625004
-0.087619059 0.0063085719 0.73600006
-0.082075648 0.007114558 0.73657149
-0.077131033 0.0077126203 0.7362501
-0.072198093 0.0077104764 0.73600006
-0.06869334 0.0063085719 0.73600006
-0.061683811 0.0063085719 0.73600006
-0.05771175 0.0063085719 0.73600006
-0.052571431 0.0063085719 0.73600006
-0.047664765 0.0063085719 0.73600006
-0.042299744 0.0075918627 0.73690921
-0.038604766 0.0063171433 0.73700005
-0.077104762 0.010514286 0.73600006
-0.073600002 0.011215239 0.73600006
-0.042057149 0.010514286 0.73600006
-0.085621908 -0.010614286 0.74300003
-0.081376195 -0.011321906 0.74300003
-0.079040959 -0.010585715 0.74100006
-0.091928095 -0.0063642859 0.74250007
-0.087476544 -0.0076474464 0.74236369
-0.082387082 -0.0075816335 0.74300009
-0.077898279 -0.0076407799 0.74172735
-0.073090009 -0.0067080958 0.74150002
-0.067944385 -0.0066384762 0.7416001
-0.062781595 -0.0063485722 0.74066675
-0.050742861 -0.0070476197 0.74000001
-0.048628576 -0.0070476197 0.74000001
-0.042164445 -0.0068311114 0.74200004
-0.092593178 -0.0028274604 0.7421667
-0.087744758 -0.002830476 0.74300003
-0.082773022 -0.0028303172 0.74283338
-0.077766366 -0.0028285119 0.74231243
-0.072786681 -0.0028266669 0.74200004
-0.067840002 -0.0028266667 0.74199992
-0.062823974 -0.0028230161 0.74116677
-0.059904765 -0.00070476194 0.74000001
-0.050507944 -0.004463492 0.74000001
-0.048628576 -0.0042285714 0.74000001
-0.042319056 -0.0035266671 0.74060005
-0.038814288 -0.001412381 0.74100006
-0.091936521 0.0016450796 0.74066675
-0.08755707 0.0021165875 0.74141669
-0.082817696 0.0017140137 0.74142867
-0.077628583 0.0014104763 0.74100006
-0.073090002 0.0010585715 0.74150002
-0.067657143 0.0011746034 0.74000001
-0.063428581 0.00070476194 0.74000001
-0.038761906 0.00070476194 0.74000001
-0.083837152 -0.01136762 0.74600005
-0.08443334 -0.008514287 0.74500006
