# .PCD v0.7 - Point Cloud Data file format
VERSION 0.7
FIELDS x y z
SIZE 4 4 4
TYPE F F F
COUNT 1 1 1
WIDTH 689
HEIGHT 1
VIEWPOINT 0 0 0 1 0 0 0
POINTS 689
DATA ascii
-0.046003178 -0.028457781 0.67400002
-0.042090613 -0.027143408 0.67399997
-0.037345208 -0.027380075 0.67338455
-0.033559367 -0.026292067 0.67333335
-0.022466671 -0.02503429 0.67400002
-0.045575242 -0.023750478 0.67400002
-0.041866459 -0.022751963 0.67400002
-0.037006304 -0.023207622 0.67261535
-0.033674762 -0.023731906 0.6735
-0.023108574 -0.023750478 0.67400002
-0.041081909 -0.01989905 0.67400002
-0.0371021 -0.019128764 0.67400002
-0.033379048 -0.01989905 0.67400002
-0.048500001 -0.035566669 0.67900008
-0.042033337 -0.035566669 0.67900002
-0.035566669 -0.035566669 0.67900002
-0.060140003 -0.031040002 0.67900002
-0.057368584 -0.031317145 0.67900002
-0.053023249 -0.032176252 0.67840016
-0.047651079 -0.032198571 0.67612499
-0.042538214 -0.032229524 0.67675
-0.037437622 -0.032275952 0.67774993
-0.03247381 -0.032013267 0.67807138
-0.027126353 -0.031648412 0.67816675
-0.021978175 -0.031675316 0.67874998
-0.060140003 -0.029100003 0.67900002
-0.05690667 -0.02813 0.67900002
-0.052803475 -0.027416399 0.6785
-0.047968216 -0.026680736 0.67569238
-0.044357147 -0.025714288 0.67500001
-0.031690083 -0.027392622 0.67675006
-0.027082147 -0.027080597 0.67700011
-0.021790551 -0.027551724 0.6776154
-0.047496889 -0.022250131 0.67809093
-0.043928575 -0.02164286 0.67500007
-0.037285715 -0.021214288 0.67500001
-0.032326289 -0.022542289 0.67620003
-0.026774168 -0.023062024 0.67737502
-0.023785716 -0.022500001 0.67500001
-0.045913335 -0.018753335 0.67900002
-0.042617466 -0.018078573 0.67799997
-0.037380259 -0.017489698 0.67563647
-0.033167213 -0.017363947 0.67528576
-0.041245338 -0.013834667 0.67880005
-0.037340645 -0.0130487 0.67833346
-0.033791751 -0.012264764 0.67799997
-0.04169143 -0.041040003 0.68400002
-0.071874291 -0.036262862 0.68400002
-0.067448758 -0.036849719 0.68360007
-0.062461279 -0.037087142 0.68316674
-0.057452954 -0.036786288 0.68240005
-0.052283816 -0.036497694 0.68257153
-0.047116313 -0.037695359 0.68237507
-0.0429 -0.037793592 0.68180001
-0.037963744 -0.037687145 0.68221432
-0.032707412 -0.036608998 0.68233335
-0.027334645 -0.036447026 0.68337506
-0.022948304 -0.036698509 0.68285722
-0.072122455 -0.033595104 0.68400007
-0.067686915 -0.032540955 0.68337494
-0.062523067 -0.032603338 0.68078578
-0.057931811 -0.033825908 0.68040007
-0.052457146 -0.034323812 0.68000001
-0.031085715 -0.034323812 0.68000001
-0.027280003 -0.034424763 0.68200004
-0.023349525 -0.034374289 0.68099999
-0.067314297 -0.02888 0.68400002
-0.062441029 -0.027316125 0.68292862
-0.057705086 -0.026581695 0.68077779
-0.053752385 -0.025257144 0.68000001
-0.060582861 -0.023451431 0.68400002
-0.057134677 -0.022253906 0.6832667
-0.052268509 -0.021908913 0.68235719
-0.04857143 -0.02072381 0.68000001
-0.030851429 -0.021756193 0.68200004
-0.02832159 -0.020969208 0.68099999
-0.05580572 -0.018457144 0.68400002
-0.052095797 -0.017581826 0.68375003
-0.047630243 -0.017393097 0.68275005
-0.044103812 -0.016214287 0.68099999
-0.031873334 -0.016261905 0.68300003
-0.02801143 -0.01889143 0.68400002
-0.051137146 -0.014657144 0.68400002
-0.047417235 -0.013200434 0.68372732
-0.043536022 -0.01258104 0.68227273
-0.039620955 -0.011041906 0.68200004
-0.032998335 -0.013492619 0.68275005
-0.046685718 -0.008034287 0.68400002
-0.042974826 -0.007812798 0.68368757
-0.037918169 -0.0080844229 0.68307149
-0.033342503 -0.0082944054 0.68312508
-0.042994291 -0.0045600003 0.68400002
-0.037652574 -0.0040388573 0.68400002
-0.032413144 -0.0019525717 0.68340009
-0.031920001 0.00065142859 0.68400002
-0.042652383 -0.045277145 0.68900001
-0.081367627 -0.040027622 0.68900001
-0.077299245 -0.040552571 0.68900007
-0.071877338 -0.042365909 0.68860006
-0.067587614 -0.041996192 0.68900007
-0.063912958 -0.041864954 0.68900007
-0.057963498 -0.040465083 0.68900001
-0.052495241 -0.040027622 0.68900001
-0.047147147 -0.041250002 0.6875
-0.0421382 -0.04272275 0.68777782
-0.0373854 -0.041976191 0.6886667
-0.032796904 -0.041817144 0.68875003
-0.027560003 -0.041340001 0.68900001
-0.081830479 -0.037553333 0.68875003
-0.07709077 -0.037512749 0.68730783
-0.072441809 -0.03857553 0.68650001
-0.0681362 -0.039365526 0.68660009
-0.062788337 -0.039896909 0.68675005
-0.057248101 -0.03925667 0.68700004
-0.052382383 -0.038630955 0.68750006
-0.048381433 -0.039882384 0.68650007
-0.035933334 -0.039853334 0.68600005
-0.032682545 -0.039219368 0.68633342
-0.027460003 -0.03922905 0.68650001
-0.080711432 -0.034778096 0.68900001
-0.076619439 -0.033396762 0.68760008
-0.072781339 -0.031229336 0.68600005
-0.075461909 -0.029528573 0.68900001
-0.07211192 -0.027743338 0.68710005
-0.068041272 -0.02664974 0.6862222
-0.064680003 -0.025480002 0.68600005
-0.070212387 -0.024279049 0.68900001
-0.067325145 -0.023754096 0.68900007
-0.062949382 -0.022189524 0.68684626
-0.059453338 -0.020253334 0.68600005
-0.032060001 -0.020282859 0.68700004
-0.060848575 -0.018974287 0.68700004
-0.057924256 -0.016655972 0.68692315
-0.05422667 -0.015026668 0.68600005
-0.031123335 -0.01801762 0.68800008
-0.028986478 -0.017443622 0.68860006
-0.057536025 -0.012579655 0.68863648
-0.052494816 -0.012305542 0.68663651
-0.049000002 -0.011106667 0.68600005
-0.0518931 -0.0081926212 0.68825006
-0.048623972 -0.0076303184 0.68683338
-0.036586668 -0.0058800005 0.68600005
-0.033320002 -0.005880001 0.68600005
-0.051182859 -0.0045933337 0.68900001
-0.046510994 -0.0030360175 0.68781829
-0.042385142 -0.002222667 0.68680012
-0.038012821 -0.0019613854 0.68709099
-0.033901632 -0.0030804086 0.68642867
-0.041996196 0.0006561905 0.68900001
-0.037402861 0.001312381 0.68900001
-0.033822224 0.0015282541 0.68733335
-0.042214923 0.047026988 0.68900001
-0.091211438 -0.045605719 0.69400001
-0.086502239 -0.04556191 0.69333339
-0.082619064 -0.045605719 0.69400001
-0.077712864 -0.04544143 0.69150007
-0.071917467 -0.045825403 0.69066668
-0.067478344 -0.046247624 0.69125003
-0.06275969 -0.045583814 0.6936667
-0.056621592 -0.046046358 0.69400001
-0.052970614 -0.04617225 0.69400001
-0.047970861 -0.045856956 0.69380003
-0.040085718 -0.046000004 0.69000006
-0.037457146 -0.046000004 0.69000006
-0.033855002 -0.045687862 0.69025004
-0.0958381 -0.040318098 0.69400001
-0.092156604 -0.04206939 0.69328576
-0.087422073 -0.042217661 0.69176924
-0.082924403 -0.042348433 0.69061548
-0.077828579 -0.042989913 0.69020003
-0.073600009 -0.044028573 0.69000006
-0.067028582 -0.044028573 0.69000006
-0.061842315 -0.043395784 0.69185716
-0.057583433 -0.042827625 0.69180006
-0.052693412 -0.042813733 0.69158334
-0.047355622 -0.043015055 0.69060004
-0.040085718 -0.044028573 0.69000006
-0.037457146 -0.044028573 0.69000006
-0.032857142 -0.043371432 0.69000006
-0.0958381 -0.038996194 0.69400001
-0.092170566 -0.037504528 0.69291663
-0.087442659 -0.037474819 0.69033337
-0.084442861 -0.037128575 0.69000006
-0.090947628 -0.034132384 0.6936667
-0.087003119 -0.033156537 0.69254547
-0.082767703 -0.032953192 0.69099998
-0.078695402 -0.031784605 0.69050002
-0.085923821 -0.029742859 0.69400001
-0.082272612 -0.028255237 0.69355565
-0.077938363 -0.027560195 0.69233334
-0.073926672 -0.026103813 0.6910001
-0.077652782 -0.023020398 0.69391674
-0.072691366 -0.022293273 0.69260001
-0.067607984 -0.021219168 0.69087505
-0.071162544 -0.017625399 0.69400001
-0.067351252 -0.017166728 0.69331253
-0.062598273 -0.016918965 0.6905455
-0.030885717 -0.015114287 0.69000006
-0.028914288 -0.015114287 0.69000006
-0.06699229 -0.012684858 0.69370002
-0.062551118 -0.012509842 0.69133335
-0.059800003 -0.011171429 0.69000006
-0.030885717 -0.013800001 0.69000006
-0.028975716 -0.013830001 0.69150007
-0.066579178 -0.0087558338 0.69387496
-0.062469825 -0.0077622728 0.69269234
-0.057708327 -0.008018285 0.69013345
-0.054214288 -0.0069000004 0.69000006
-0.061138101 -0.004296191 0.69400001
-0.057285637 -0.0028174028 0.69281816
-0.052835789 -0.0023484353 0.6910001
-0.048774291 -0.001708762 0.69020003
-0.056180958 0.00066095241 0.69400001
-0.052332576 0.0019826668 0.69380009
-0.047456965 0.0026385121 0.6920625
-0.042067789 0.0032866669 0.69016671
-0.037473049 0.0028932381 0.69030005
-0.033976667 0.0035080954 0.69050002
-0.047212023 0.0075727482 0.69369239
-0.042237565 0.007921013 0.69293755
-0.037250072 0.0079236748 0.69314295
-0.033599287 0.0062597627 0.69174999
-0.046046358 0.011676826 0.69400001
-0.042288575 0.012290287 0.69380009
-0.038996194 0.011236191 0.69400001
-0.045605719 0.015201906 0.69400001
-0.042961907 0.015862858 0.69400001
-0.046266671 0.038996194 0.69400001
-0.044283811 0.038996194 0.69400001
-0.056511432 0.043292381 0.69400001
-0.052700806 0.042739347 0.69369239
-0.04741092 0.042392008 0.69333333
-0.04335703 0.042363457 0.69237506
-0.05684191 0.046927623 0.69400001
-0.052839048 0.046893813 0.69350016
-0.047464292 0.04680302 0.69216669
-0.043252766 0.046144575 0.69020003
-0.097008899 -0.046511434 0.69766665
-0.092749409 -0.047289647 0.69687504
-0.087918893 -0.047052544 0.69583344
-0.082371436 -0.047164291 0.69749999
-0.077702865 -0.047153022 0.69733334
-0.073628575 -0.047761433 0.6965
-0.065969847 -0.047877781 0.69500005
-0.062078416 -0.047497887 0.69588894
-0.057751194 -0.047988098 0.69500011
-0.05317302 -0.048319053 0.69500011
-0.047260005 -0.047524761 0.69500011
-0.044347622 -0.046995241 0.69500005
-0.10093524 -0.042499766 0.69725001
-0.097420357 -0.042542428 0.69500017
-0.094652385 -0.043685719 0.69500005
-0.10097143 -0.0385281 0.69749999
-0.097468577 -0.037128955 0.69620007
-0.094211124 -0.035522226 0.69500005
-0.095504135 -0.032573335 0.69800007
-0.092734531 -0.0323481 0.69675004
-0.089001596 -0.031580638 0.69566673
-0.095060959 -0.029914288 0.69800001
-0.09203691 -0.029571192 0.69774997
-0.087481998 -0.027758177 0.69675004
-0.083620653 -0.026255559 0.69500005
-0.086419053 -0.024596192 0.69800001
-0.082495242 -0.022667941 0.69666672
-0.078104764 -0.02051905 0.69500005
-0.080436192 -0.019278096 0.69800001
-0.077344224 -0.017260399 0.69708335
-0.073642015 -0.017140849 0.69522232
-0.07545048 -0.012962857 0.69800001
-0.072287723 -0.012599682 0.69633335
-0.069500007 -0.011914287 0.69500005
-0.02585143 -0.011930477 0.69600004
-0.024237858 -0.012285477 0.69725001
-0.072095446 -0.0084852912 0.69733334
-0.068391666 -0.0071202382 0.69550008
-0.026571907 -0.0099642863 0.69749999
-0.023249526 -0.0092995241 0.69749999
-0.067411706 -0.0028434016 0.69685721
-0.062580802 -0.0020966665 0.69533342
-0.058909528 -0.00066190481 0.69500005
-0.067120008 0.0019938624 0.69777775
-0.062337682 0.0026539881 0.69631267
-0.057803988 0.0028348051 0.69618189
-0.053834926 0.0037507941 0.69500011
-0.061457746 0.0073089288 0.69762498
-0.057396065 0.0081591848 0.69728583
-0.052701499 0.007759592 0.69542861
-0.049201589 0.009487303 0.69500005
-0.035080954 0.009928572 0.69500005
-0.033315878 0.0090460321 0.69500005
-0.060493339 0.011300953 0.69800001
-0.056879718 0.012359524 0.69770002
-0.052449737 0.012615451 0.69711113
-0.048234817 0.012887726 0.69588894
-0.042361908 0.013900001 0.69500005
-0.037128951 0.012598477 0.69620007
-0.033411749 0.011727303 0.69700003
-0.046761908 0.016976872 0.6971429
-0.041988004 0.018014478 0.69540012
-0.038693812 0.016805239 0.69650006
-0.04612134 0.022197144 0.69779998
-0.042571437 0.022415364 0.69626683
-0.039052382 0.02051905 0.69500005
-0.046902645 0.027846137 0.69800001
-0.043381769 0.027244359 0.69771427
-0.05118667 0.033902861 0.69800001
-0.047443718 0.032691713 0.69769996
-0.043703813 0.032810479 0.69740003
-0.068185724 0.038677908 0.69779998
-0.062786311 0.038202979 0.69762498
-0.057149526 0.038542151 0.69774997
-0.052198388 0.037453808 0.69730002
-0.047895651 0.036819324 0.69571435
-0.043644767 0.036826808 0.69585729
-0.066327356 0.04222504 0.69742858
-0.062359706 0.042455655 0.69656253
-0.058155838 0.041916788 0.69587505
-0.053614289 0.040376194 0.69500005
-0.049642861 0.040376194 0.69500005
-0.062045719 0.046797339 0.6960001
-0.058288097 0.047692858 0.69550002
-0.052990954 0.049678575 0.69550002
-0.049642861 0.049642861 0.69500005
-0.08515048 -0.055649526 0.70400006
-0.10392382 -0.054308575 0.70400006
-0.097188793 -0.051610585 0.70377779
-0.092315435 -0.051243432 0.70240009
-0.087068342 -0.050902627 0.70324999
-0.082130097 -0.050779242 0.70340008
-0.077627942 -0.05153079 0.7026667
-0.07234174 -0.051326673 0.70154554
-0.068254933 -0.050468892 0.70033336
-0.10218012 -0.04732798 0.70237505
-0.097817339 -0.048441719 0.70060009
-0.087777786 -0.048666671 0.70000005
-0.082666665 -0.048666671 0.70000005
-0.077333339 -0.048666671 0.70000005
-0.070666671 -0.048666671 0.70000005
-0.10526477 -0.044921909 0.70400006
-0.10340714 -0.044031911 0.70050001
-0.10140572 -0.036025241 0.70050007
-0.099333338 -0.035333335 0.70000005
-0.10102619 -0.033450954 0.70250005
-0.098534778 -0.032085236 0.70190001
-0.096558221 -0.027897025 0.70162505
-0.092849888 -0.02717131 0.70012498
-0.090000004 -0.026666669 0.70000005
-0.095741913 -0.024102859 0.70300001
-0.092512935 -0.022530477 0.7017144
-0.087888896 -0.02255556 0.69999999
-0.083333336 -0.020666668 0.70000005
-0.091830425 -0.017540736 0.70223087
-0.087468825 -0.017358495 0.70108336
-0.0828242 -0.017204765 0.70019996
-0.079333335 -0.015333334 0.70000005
-0.026724286 -0.016034763 0.7015
-0.024684288 -0.016011905 0.70050001
-0.095878102 -0.011398096 0.70400006
-0.091379732 -0.012917417 0.70328581
-0.087562554 -0.012029367 0.70183343
-0.08271911 -0.012007679 0.70043755
-0.077888891 -0.011666667 0.69999999
-0.03017143 -0.012739048 0.70400006
-0.027388001 -0.012958285 0.70139998
-0.086451113 -0.0080419052 0.70366669
-0.082234934 -0.0073528043 0.70200002
-0.077407464 -0.0073400009 0.70066679
-0.073555559 -0.0064444449 0.70000005
-0.026761906 -0.0080271428 0.70250005
-0.024233971 -0.0077812704 0.70033336
-0.081886105 -0.0038864766 0.70360005
-0.077535301 -0.0026719642 0.70181262
-0.072300829 -0.0024764629 0.70014292
-0.077169634 0.001711852 0.70322227
-0.072149709 0.0026737503 0.70143759
-0.067333341 0.004666667 0.70000005
-0.071623981 0.0066938102 0.70283335
-0.067441277 0.0073464555 0.70111114
-0.063866675 0.0078666676 0.70000005
-0.06688422 0.01138762 0.70328581
-0.062925354 0.012071869 0.70115393
-0.058666669 0.014000001 0.70000005
-0.035383813 0.014020001 0.70100003
-0.034048572 0.014020001 0.70100003
-0.061596196 0.015399049 0.70300001
-0.057494108 0.017383393 0.70193762
-0.05200953 0.017336788 0.70012498
-0.048333336 0.018333334 0.70000005
-0.036599368 0.017448256 0.70155567
-0.034097146 0.016716193 0.70200008
-0.056156468 0.022671841 0.70314294
-0.0520381 0.022682859 0.70050001
-0.048095241 0.022952383 0.70000011
-0.04066667 0.024666669 0.70000005
-0.038633745 0.022990208 0.70114291
-0.061460324 0.028383493 0.70400012
-0.05739871 0.027572211 0.70300007
-0.052025404 0.027346035 0.7003333
-0.048222225 0.028222224 0.70000005
-0.041787468 0.027784605 0.7001667
-0.038795561 0.027425714 0.70233339
-0.081740484 0.034170002 0.70350003
-0.077241533 0.03386781 0.70280004
-0.073236436 0.033774048 0.70225
-0.066377148 0.033747308 0.70400012
-0.062556192 0.032446347 0.7025001
-0.05740089 0.032035895 0.70081252
-0.05219049 0.03171429 0.69999999
-0.042023238 0.031751618 0.70040005
-0.039055564 0.030574923 0.70300001
-0.082410641 0.037520003 0.70350003
-0.077479467 0.037402205 0.70131254
-0.072315656 0.037252791 0.70028573
-0.067398109 0.036700528 0.70066667
-0.062333338 0.036333337 0.70000005
-0.057333335 0.035999998 0.70000005
-0.054000005 0.036000002 0.70000005
-0.082200386 0.041435428 0.70400006
-0.077418759 0.042336263 0.70215392
-0.072039165 0.042690121 0.70037496
-0.06840001 0.043066669 0.70000005
-0.075763814 0.04626286 0.70400006
-0.07215634 0.046733476 0.7024287
-0.067763336 0.046399526 0.70100003
-0.1004905 -0.056176193 0.7050001
-0.09674383 -0.056781095 0.70614284
-0.092768259 -0.05697947 0.70755559
-0.08762043 -0.056995027 0.70588887
-0.083928578 -0.055728573 0.70500004
-0.11203486 -0.052444387 0.70779997
-0.10740704 -0.052381106 0.70723081
-0.10205717 -0.052371435 0.70500004
-0.098028585 -0.053378575 0.70500004
-0.092700005 -0.053963818 0.70533335
-0.08728572 -0.05371429 0.70499998
-0.08277756 -0.053426538 0.70500004
-0.07922858 -0.054385718 0.70500004
-0.11125716 -0.047874287 0.70800006
-0.10696032 -0.047761593 0.70633328
-0.10407144 -0.049014289 0.70500004
-0.10300858 -0.031895347 0.70588887
-0.10163929 -0.02860643 0.70674998
-0.098700009 -0.026857145 0.70500004
-0.097880803 -0.023571907 0.70716667
-0.093211852 -0.01084694 0.70557147
-0.030885715 -0.010742858 0.70500004
-0.02887143 -0.010742858 0.70500004
-0.091862723 -0.0075993207 0.70700008
-0.087999374 -0.0067171431 0.70533335
-0.030214287 -0.0073857149 0.7050001
-0.028065717 -0.0068485714 0.70500004
-0.087245859 -0.0028847626 0.70699996
-0.083037429 -0.0018235376 0.70557147
-0.02829024 -0.0040411907 0.70725
-0.085634291 0.0013485715 0.708
-0.082320526 0.0026327278 0.70690912
-0.078370482 0.0038069848 0.70533341
-0.081348687 0.0072422624 0.70737505
-0.077397458 0.0074042329 0.70666665
-0.073220961 0.0080612712 0.70533335
-0.08110106 0.011907409 0.7076667
-0.077194929 0.011605927 0.70755559
-0.072669297 0.01211262 0.70649987
-0.068359375 0.013224129 0.70600003
-0.081588574 0.015508573 0.708
-0.076194294 0.015508573 0.708
-0.073497146 0.015845716 0.708
-0.067005858 0.017495647 0.7065714
-0.062613331 0.017869908 0.70539999
-0.035686668 0.019526668 0.70700002
-0.034388572 0.019554287 0.708
-0.077374294 0.023768572 0.70800006
-0.072814532 0.023597222 0.70791674
-0.067333341 0.022893336 0.7069999
-0.062488105 0.022845238 0.70550001
-0.058861904 0.022903174 0.70499998
-0.03657572 0.02266429 0.70683336
-0.033579431 0.022251431 0.708
-0.10046858 0.027645716 0.708
-0.095074289 0.02697143 0.708
-0.093109675 0.028211977 0.70771432
-0.087625481 0.028984051 0.70774996
-0.081572115 0.02821783 0.70785725
-0.077506147 0.027632277 0.7076667
-0.072797701 0.02763564 0.70775008
-0.06731794 0.027599841 0.7068333
-0.062920645 0.027093336 0.70533341
-0.059757147 0.026185716 0.70500004
-0.037068255 0.027633335 0.70766664
-0.10165391 0.032761145 0.70780003
-0.097679853 0.032334764 0.70733333
-0.092920013 0.03232 0.7069999
-0.087502867 0.032307856 0.70674986
-0.082612731 0.031735156 0.70627278
-0.077972963 0.031591814 0.7058
-0.072349057 0.031743333 0.70666659
-0.067511275 0.031683654 0.70533335
-0.061100002 0.030214287 0.70500004
-0.037463494 0.031182226 0.70666671
-0.096578583 0.036610957 0.70749998
-0.092474073 0.03755964 0.70715386
-0.087364651 0.037633453 0.70562494
-0.090642862 0.040957145 0.70500004
-0.087409526 0.041688576 0.70599997
-0.082663819 0.043236509 0.70566672
-0.077214293 0.044985719 0.70500004
-0.080183342 0.045819528 0.70749998
-0.077901118 0.046920478 0.70716667
-0.09128572 -0.058828574 0.71000004
-0.11739288 -0.05242072 0.7125001
-0.11292382 -0.051255237 0.71000004
-0.11579143 -0.047400005 0.71100003
-0.11245304 -0.047197361 0.71030772
-0.11376001 -0.04401429 0.71100003
-0.10631143 -0.035888575 0.71100003
-0.10495715 -0.035888575 0.71100003
-0.10708393 -0.03253131 0.7116251
-0.10480953 -0.033133335 0.71000004
-0.11628 -0.026520003 0.71400005
-0.11330684 -0.027420476 0.71383345
-0.10756636 -0.028760001 0.71333337
-0.093990482 -0.0074380958 0.71000004
-0.092867866 -0.0027097622 0.71175003
-0.089933336 -0.0013523811 0.71000004
-0.096152864 0.0037380955 0.71350008
-0.092393018 0.0027587304 0.7122668
-0.087742865 0.0028903899 0.71018189
-0.084523812 0.0040571433 0.71000004
-0.096514933 0.0074765086 0.71366668
-0.092329375 0.0074677779 0.71283352
-0.087324552 0.0074464553 0.71077782
-0.084185719 0.007776191 0.71000004
-0.096424773 0.010185715 0.71300006
-0.092015103 0.0118611 0.71323097
-0.087495402 0.012210002 0.71216679
-0.084028989 0.012473878 0.71071428
-0.078663498 0.013749207 0.71000004
-0.032582145 0.013575478 0.71275002
-0.09128996 0.017594287 0.71355563
-0.087648176 0.017666431 0.71341676
-0.082704715 0.017752064 0.71140015
-0.077302791 0.017876262 0.71021438
-0.072085395 0.018115874 0.71033335
-0.069647625 0.017580954 0.71000004
-0.032327503 0.017262738 0.71087503
-0.10540001 0.022440001 0.71400011
-0.10283266 0.022819322 0.71371436
-0.097212777 0.023249334 0.71380007
-0.092383415 0.022416113 0.71325016
-0.08761058 0.022412065 0.71311122
-0.082642615 0.022353573 0.71125001
-0.077491432 0.021232385 0.71000004
-0.072454289 0.02099143 0.71100008
-0.035838097 0.022314288 0.71000004
-0.033832859 0.022330001 0.7105
-0.10682784 0.027102541 0.71344453
-0.10279188 0.027246082 0.71115392
-0.098010115 0.026935972 0.71123087
-0.091735601 0.025895597 0.71087503
-0.087658577 0.026553432 0.71130008
-0.08313895 0.026107199 0.71100003
-0.035838097 0.027047619 0.71000004
-0.034034923 0.026371431 0.71000004
-0.1065108 0.032336831 0.71233338
-0.1040863 0.031537335 0.71060002
-0.035838097 0.030428573 0.71000004
-0.034485716 0.030428573 0.71000004
-0.098047629 0.037190478 0.71000004
-0.14157453 -0.047077384 0.71899998
-0.1374623 -0.047509715 0.71880001
-0.13489811 -0.047248572 0.71900004
-0.1466997 -0.041295242 0.71866673
-0.14285082 -0.042377468 0.71766663
-0.13793714 -0.042337146 0.71700001
-0.13489811 -0.042455241 0.71900004
-0.14725316 -0.037462097 0.71780002
-0.14271715 -0.037557144 0.71700001
-0.13798407 -0.037569769 0.71724999
-0.13489811 -0.039031431 0.71900004
-0.11214572 -0.036241904 0.71800005
-0.10918143 -0.036848575 0.71650004
-0.14759734 -0.03355334 0.71899998
-0.14304921 -0.032852389 0.71866667
-0.13887653 -0.03489048 0.71833342
-0.1159343 -0.032440573 0.71860003
-0.1126981 -0.032785878 0.71716666
-0.10986334 -0.032754287 0.71650004
-0.11747371 -0.028685598 0.717125
-0.11149143 -0.02829905 0.71600002
-0.10978667 -0.027958099 0.71600002
-0.09614858 -0.0013638097 0.71600002
-0.09614858 0.00068190478 0.71600002
-0.030685715 0.0047733337 0.71600002
-0.027294287 0.0047766669 0.71650004
-0.031609207 0.0077317469 0.71633339
-0.027345557 0.0075214296 0.7178334
-0.10066 0.014380001 0.71900004
-0.097634293 0.012973121 0.7168889
-0.094374292 0.013872065 0.71633339
-0.032060239 0.010573097 0.71625006
-0.027390478 0.010271429 0.71900004
-0.10230344 0.01835162 0.71899998
-0.097661048 0.017756112 0.71708339
-0.094219193 0.01783007 0.71614295
-0.027714286 0.018133335 0.71850002
-0.10133334 0.021494765 0.71650004
-0.098140389 0.021975432 0.71660006
-0.10258754 0.037614767 0.71810001
-0.09901429 0.038922861 0.71700001
-0.14508763 -0.057760004 0.72200006
-0.14253393 -0.056910124 0.72212505
-0.13737109 -0.056961738 0.72218192
-0.13329697 -0.057088196 0.7222001
-0.14528859 -0.05095429 0.72300005
-0.14232105 -0.052255165 0.72191679
-0.13750623 -0.052374303 0.72166687
-0.13417858 -0.052296191 0.72250009
-0.14593685 -0.047425084 0.72166675
-0.14422861 -0.047314294 0.72000003
-0.13408574 -0.047445714 0.72200006
-0.14697145 -0.044114288 0.72000003
-0.1339 -0.042571429 0.72100008
-0.13533589 -0.036408894 0.72133344
-0.13417858 -0.038532861 0.72250009
-0.12187716 -0.035117146 0.72300005
-0.11771277 -0.037035432 0.72280008
-0.11483239 -0.036443811 0.72200006
-0.15085715 -0.032228574 0.72000003
-0.14788574 -0.031314291 0.72000003
-0.14057145 -0.032228574 0.72000003
-0.13797687 -0.032570004 0.72150004
-0.12198608 -0.032518692 0.72262508
-0.1183309 -0.032646533 0.72057158
-0.15038002 -0.028839048 0.72100008
-0.14743042 -0.027303468 0.72192872
-0.14261594 -0.027676871 0.72142875
-0.1393874 -0.028565478 0.72275007
-0.14597715 -0.024100002 0.72300005
-0.14236215 -0.022722859 0.72300005
-0.024000002 0.0089142863 0.72000003
-0.030942861 0.013064764 0.72200006
-0.027643004 0.012526962 0.72146171
-0.024050001 0.010995715 0.72150004
-0.10217144 0.019885715 0.72000003
-0.030942859 0.015815239 0.72200006
-0.027924132 0.01625048 0.72100008
-0.13158073 -0.056293096 0.72525001
-0.12864929 -0.056715477 0.72625005
-0.14707144 -0.050404765 0.72500002
-0.13197128 -0.052512705 0.72549999
-0.12927954 -0.053191911 0.72850007
-0.12358287 -0.054848574 0.72900003
-0.13210045 -0.047263384 0.72690916
-0.13232329 -0.042568147 0.72744447
-0.12844287 -0.04096286 0.72900003
-0.13261199 -0.037183672 0.72685724
-0.12757297 -0.03753867 0.72719997
-0.12252458 -0.037710667 0.72519994
-0.11945239 -0.03797619 0.72500008
-0.13602382 -0.032452386 0.72500008
-0.13315699 -0.032675415 0.72718185
-0.12822859 -0.032575876 0.72777778
-0.1249762 -0.032452382 0.72500008
-0.14016667 -0.02554762 0.72500002
-0.13697544 -0.027560702 0.72713339
-0.13360405 -0.02880262 0.72874999
-0.14679524 -0.022509526 0.72500002
-0.1413046 -0.02227943 0.72660005
-0.1382369 -0.022271691 0.72872734
-0.12670667 -0.056391433 0.73100001
-0.12322572 -0.056391433 0.73100007
-0.12719393 -0.05266 0.73139995
-0.12374604 -0.053166356 0.73133337
-0.1303212 -0.047388814 0.73175001
-0.12872465 -0.047834832 0.73400009
-0.13018763 -0.043163814 0.73100001
-0.12831739 -0.043238334 0.73225003
-0.13158001 -0.031328574 0.73100001
-0.13225862 -0.02762815 0.73133332
-0.13610524 -0.022626191 0.73100001
-0.13266209 -0.022881648 0.73209095
-0.12715279 -0.047244191 0.73600006
-0.12985238 -0.030181907 0.73700005
-0.13125619 -0.027374288 0.73700011
-0.12915048 -0.027374286 0.73700005
-0.13107811 -0.024533335 0.73600006
-0.12932001 -0.03038667 0.74200004
-0.13038096 -0.027485715 0.74000001
-0.12884891 -0.028031114 0.74200004
