# .PCD v0.7 - Point Cloud Data file format
VERSION 0.7
FIELDS x y z
SIZE 4 4 4
TYPE F F F
COUNT 1 1 1
WIDTH 291
HEIGHT 1
VIEWPOINT 0 0 0 1 0 0 0
POINTS 291
DATA ascii
-0.076071434 0.018257145 0.63900006
-0.072884195 0.017155813 0.63880002
-0.067701116 0.017228521 0.63850003
-0.062987141 0.017648572 0.63900006
-0.075952396 0.021266669 0.63800001
-0.072964467 0.02188994 0.63843751
-0.06777925 0.021867972 0.6387369
-0.063900001 0.021300003 0.63900006
-0.061606538 0.0083009526 0.6422857
-0.057722867 0.0086455792 0.64185715
-0.053111434 0.0091571435 0.64100003
-0.076602101 0.013316763 0.64140004
-0.071835339 0.013171335 0.64030004
-0.067143105 0.012817699 0.64091671
-0.062322441 0.012219705 0.64156258
-0.057390176 0.012210297 0.64106244
-0.05250578 0.012210299 0.64106244
-0.049154289 0.012354287 0.64400005
-0.080346674 0.017173335 0.64400005
-0.07794591 0.016887048 0.64240009
-0.07497143 0.015238096 0.64000005
-0.065828577 0.015238096 0.64000005
-0.061898574 0.016871905 0.64033329
-0.057306193 0.017069643 0.64012504
-0.05243459 0.017071251 0.6401875
-0.048598237 0.017537009 0.64128578
-0.044564765 0.018924763 0.64100003
-0.07771191 0.021418096 0.64250004
-0.071923815 0.024990479 0.64000005
-0.066194288 0.024502859 0.64000005
-0.061944291 0.022043062 0.6403572
-0.057373222 0.021974526 0.6408751
-0.052566491 0.022007084 0.6418125
-0.048606534 0.021107215 0.64371437
-0.076316193 0.026373336 0.64400005
-0.071625724 0.026478289 0.64060009
-0.067296468 0.027809257 0.64071429
-0.062521778 0.026672522 0.64271432
-0.05781715 0.02594709 0.64355564
-0.053973339 0.025146669 0.64400005
-0.04681778 0.032915559 0.64400005
-0.044364449 0.031688891 0.64400005
-0.047445532 0.012447049 0.64700001
-0.043681908 0.014150477 0.64600003
-0.081700005 0.017200001 0.64500004
-0.046817258 0.016880106 0.64588892
-0.043682721 0.01678694 0.64600003
-0.047089439 0.022622002 0.64550006
-0.043600611 0.022332212 0.64645451
-0.081421643 0.027843948 0.64557153
-0.078014292 0.02816939 0.6450001
-0.072748989 0.028344901 0.6450001
-0.062042862 0.02887143 0.64500004
-0.057491977 0.028351296 0.64514291
-0.052705932 0.027320066 0.64564294
-0.047946729 0.027046606 0.6454376
-0.043185465 0.02694419 0.64593339
-0.081910402 0.031901557 0.6475454
-0.077640012 0.031426989 0.64699996
-0.072891332 0.031004975 0.64677781
-0.067353502 0.031007465 0.64683336
-0.062742978 0.030756311 0.64587504
-0.058147222 0.030701499 0.64657146
-0.052550718 0.030976193 0.64725006
-0.04826295 0.031373419 0.64590907
-0.043307144 0.030407146 0.64500004
-0.048137147 0.035177145 0.648
-0.070897147 -0.0062190481 0.65300006
-0.066989802 -0.0067117149 0.65250003
-0.064056195 -0.0062190481 0.65300006
-0.07027524 -0.0043533337 0.65300006
-0.06731645 -0.0032213856 0.6528182
-0.063434288 -0.0037314289 0.65300006
-0.06592191 0.00062190479 0.65300006
-0.043952383 0.019190477 0.65000004
-0.084532619 0.033132143 0.65025008
-0.078000009 0.034047622 0.65000004
-0.0724831 0.033609524 0.65050006
-0.06724678 0.033383071 0.65044451
-0.062000006 0.033480957 0.65100002
-0.056792386 0.033108767 0.65100002
-0.052453816 0.033660796 0.65050006
-0.082161725 0.035814293 0.65060008
-0.07745599 0.037145115 0.65173686
-0.072262928 0.037020482 0.65250003
-0.0671058 0.036660399 0.65241671
-0.062325463 0.036559567 0.65263635
-0.057279054 0.035966124 0.65271437
-0.051826086 0.036924105 0.65200001
-0.049055241 0.03787937 0.65200007
-0.076494291 0.040838417 0.65300006
-0.072066672 -0.010653334 0.65800005
-0.075673029 -0.0068806354 0.6566667
-0.072973251 -0.0077819056 0.65590918
-0.068514287 -0.0090738107 0.65700001
-0.076231301 -0.0022326533 0.65685719
-0.072590806 -0.0023722544 0.65593344
-0.066997148 -0.00087333343 0.65500003
-0.063753337 -0.0016219048 0.65500003
-0.077080011 0.0006266667 0.65800011
-0.07239943 0.001628762 0.65760005
-0.068265915 0.0013729524 0.65520006
-0.063628577 0.00062380958 0.65500003
-0.071114287 0.039300002 0.65500003
-0.067371435 0.039300002 0.65500003
-0.062006671 0.039050478 0.65500003
-0.057369318 0.038501378 0.65555561
-0.053910799 0.038924128 0.65566671
-0.075538576 0.041828096 0.65550005
-0.072431318 0.042460959 0.65562505
-0.067409761 0.042444166 0.655375
-0.062511079 0.042509764 0.65637505
-0.057622254 0.042322528 0.65764296
-0.052795108 0.041182049 0.65657151
-0.071222864 0.045607623 0.65600002
-0.067369722 0.045871813 0.65620005
-0.062772386 0.04598343 0.65780002
-0.075771436 -0.015785715 0.66300005
-0.073218338 -0.016411193 0.66275007
-0.076249748 -0.012696932 0.66288894
-0.072535723 -0.012387938 0.66133332
-0.068746433 -0.011037857 0.66225004
-0.077472389 -0.0094476203 0.66133344
-0.072285719 -0.0094285719 0.66000003
-0.076476201 0.0023047621 0.66000003
-0.074380964 0.0035619054 0.66000003
-0.069771431 0.0031428575 0.66000003
-0.059714291 0.044628575 0.66000003
-0.058457147 0.045885719 0.66000003
-0.080675244 -0.020962859 0.66700006
-0.077943817 -0.021450479 0.66900009
-0.072634295 -0.021025715 0.66900003
-0.067218579 -0.021822145 0.66900009
-0.060528576 -0.022300001 0.66900003
-0.058829527 -0.021450479 0.66900003
-0.081887282 -0.017741127 0.66745454
-0.077555999 -0.01803109 0.6659286
-0.071849525 -0.018174922 0.6656667
-0.06739042 -0.017802797 0.66756248
-0.063926674 -0.01784 0.66900009
-0.055431433 -0.017840002 0.66900003
-0.081578098 -0.012924976 0.66744447
-0.078764297 -0.01288143 0.66516674
-0.070722237 -0.014144446 0.66500008
-0.066937305 -0.013037365 0.66646153
-0.081521913 -0.02503429 0.67400002
-0.077670485 -0.025034288 0.67400002
-0.07125143 -0.026318097 0.67400002
-0.068041906 -0.025997145 0.67400002
-0.061622862 -0.025034288 0.67400002
-0.085246675 -0.02307524 0.67300004
-0.082566433 -0.02251905 0.67075002
-0.077355795 -0.023290208 0.67128581
-0.072456859 -0.023514766 0.67090005
-0.068363547 -0.024005989 0.67085725
-0.062733091 -0.022342945 0.67027283
-0.061658293 -0.01787143 0.67020005
-0.05788381 -0.017723078 0.67015386
-0.084228575 -0.013400001 0.67000002
-0.062859192 -0.012928638 0.67213333
-0.058549147 -0.014219621 0.67260003
-0.081820004 -0.030892763 0.67860001
-0.077600002 -0.030393336 0.67900002
-0.072426677 -0.030393336 0.67900002
-0.067091674 -0.031201666 0.67899996
-0.06254191 -0.031132381 0.67900002
-0.058817785 -0.031671748 0.67866671
-0.086349882 -0.027068216 0.67662501
-0.082537882 -0.027480884 0.67584628
-0.077310614 -0.027369257 0.67728579
-0.072417811 -0.027963525 0.67650002
-0.066766202 -0.027971715 0.67670006
-0.062461987 -0.027439857 0.67723083
-0.058760002 -0.029057145 0.67800003
-0.086785719 -0.023785716 0.67500001
-0.087214291 -0.014357145 0.67500007
-0.061071433 -0.010928572 0.67500001
-0.057785716 -0.011785714 0.67500007
-0.061642148 -0.0077435724 0.67775005
-0.057588723 -0.0078852754 0.67707694
-0.060916007 -0.0032333338 0.67900002
-0.057984449 -0.0036644449 0.67900002
-0.082691751 -0.035811119 0.68366671
-0.071005717 -0.035828575 0.68400002
-0.067748576 -0.035828575 0.68400002
-0.062840238 -0.036141194 0.68375003
-0.086442962 -0.032282121 0.68244451
-0.082579263 -0.033250585 0.68155557
-0.077720396 -0.032829341 0.68120003
-0.072684377 -0.03309945 0.68141669
-0.067650601 -0.033583693 0.68137497
-0.061913658 -0.033372488 0.6811111
-0.061523814 -0.0029142858 0.68000001
-0.083992392 -0.040027622 0.68900001
-0.070868582 -0.040683813 0.68900001
-0.068900004 -0.041340001 0.68900001
-0.062775567 -0.041340001 0.68900001
-0.086038098 -0.036969047 0.68700004
-0.08243905 -0.037622143 0.68700004
-0.076862708 -0.036466826 0.68783343
-0.072312266 -0.037629168 0.68712509
-0.067946672 -0.037893336 0.68599999
-0.062833227 -0.03842688 0.68644452
-0.086893342 -0.03462667 0.68600005
-0.077746674 -0.03462667 0.68600005
-0.077331431 -0.045605719 0.69400001
-0.072287433 -0.04585696 0.69380003
-0.067381077 -0.046242028 0.69362497
-0.062745243 -0.046233814 0.69350004
-0.059886672 -0.045408573 0.69100004
-0.085736677 -0.04155286 0.6925
-0.08256647 -0.04168836 0.69233334
-0.077789351 -0.042192794 0.69218755
-0.07272961 -0.042464111 0.69084626
-0.066774711 -0.042169258 0.6902858
-0.062091839 -0.042929396 0.69042861
-0.058942862 -0.041998316 0.69022226
-0.080945723 -0.03882762 0.69100004
-0.078019053 -0.038352069 0.69033337
-0.07425715 -0.038771432 0.69000006
-0.08575429 -0.045868576 0.69800001
-0.082269169 -0.04644274 0.69662505
-0.077001907 -0.04713048 0.69700003
-0.072559625 -0.0478861 0.69640011
-0.067561433 -0.048353814 0.69550002
-0.062880963 -0.048319053 0.69500005
-0.087669745 -0.042986564 0.69677782
-0.082738101 -0.044347625 0.69500005
-0.085820958 -0.050285719 0.70400006
-0.082666479 -0.050779242 0.70340008
-0.077254608 -0.050685089 0.70333338
-0.072283581 -0.051536433 0.70275009
-0.067400813 -0.052368131 0.70284629
-0.063760363 -0.052549407 0.70287508
-0.091405146 -0.046707243 0.7026
-0.08768858 -0.047603335 0.70150006
-0.082696915 -0.048684049 0.70025003
-0.077333339 -0.048666671 0.70000005
-0.090000004 -0.04466667 0.70000005
-0.086982869 -0.055965718 0.70800006
-0.084285721 -0.055965718 0.708
-0.071474291 -0.055965718 0.708
-0.067035913 -0.056941241 0.70669997
-0.063563101 -0.056838334 0.70625001
-0.095523819 -0.051920008 0.70800006
-0.09239199 -0.05220294 0.70725006
-0.087646209 -0.052762244 0.70635712
-0.082385041 -0.053354289 0.70657146
-0.077789366 -0.05290778 0.70616674
-0.072619051 -0.054462861 0.70599997
-0.096553974 -0.048613023 0.70566672
-0.093149535 -0.048589848 0.70533341
-0.090440005 -0.060520004 0.71400005
-0.087720007 -0.060860004 0.71400005
-0.08228001 -0.060520004 0.71400011
-0.075480007 -0.061200004 0.71400005
-0.071968578 -0.061673611 0.71385723
-0.067858391 -0.061479717 0.7125001
-0.091760606 -0.057840358 0.71237504
-0.087825589 -0.058003817 0.71171439
-0.082543217 -0.057763122 0.71200013
-0.077348813 -0.057673573 0.71241677
-0.072779596 -0.058050074 0.71228576
-0.069068581 -0.058911432 0.71100003
-0.096695244 -0.052066669 0.71000004
-0.093990482 -0.054771431 0.71000004
-0.081142858 -0.054771431 0.71000004
-0.078438103 -0.054771431 0.71000004
-0.092442863 -0.066421911 0.71900004
-0.086810723 -0.065964051 0.71775007
-0.083769217 -0.065508895 0.71900004
-0.076693341 -0.065052383 0.71900004
-0.073269531 -0.066421911 0.71900004
-0.091545865 -0.063078374 0.71657151
-0.087243654 -0.063185461 0.71618193
-0.082568102 -0.062779531 0.71649998
-0.078212 -0.062242664 0.71660006
-0.073452704 -0.063901909 0.71633339
-0.08434286 -0.070628576 0.72000003
-0.075054288 -0.070922859 0.72300005
-0.073677145 -0.070922859 0.72300005
-0.081723906 -0.067303531 0.72110003
-0.077514648 -0.067376554 0.72187513
-0.074354932 -0.067491435 0.72066677
-0.0823275 -0.072248854 0.72642869
-0.077876329 -0.072135113 0.72728574
-0.080785722 -0.069738097 0.72500002
-0.078096204 -0.069802225 0.7256667
-0.080758102 -0.075884767 0.73100001
-0.080758102 -0.074492387 0.73100001
-0.078027144 -0.074543342 0.73150003
