# .PCD v0.7 - Point Cloud Data file format
VERSION 0.7
FIELDS x y z
SIZE 4 4 4
TYPE F F F
COUNT 1 1 1
WIDTH 656
HEIGHT 1
VIEWPOINT 0 0 0 1 0 0 0
POINTS 656
DATA ascii
-0.013160001 -0.0018800001 0.65800011
-0.013577778 0.002715556 0.65800005
-0.013160001 0.0068933344 0.65800011
-0.013160001 0.010653334 0.65800005
-0.031548098 -0.02082143 0.66250002
-0.029632382 -0.020805717 0.66200006
-0.031565595 -0.017676309 0.66287506
-0.029129528 -0.017405171 0.66285723
-0.031360954 -0.013049524 0.66300011
-0.029045716 -0.01389143 0.66300005
-0.013260001 -0.010734286 0.66300005
-0.015750002 -0.0062995246 0.66150004
-0.012476381 -0.0074366354 0.66166675
-0.0073838779 -0.0072947633 0.66178584
-0.0031521905 -0.0070620961 0.66200012
-0.015980382 -0.0021396193 0.66060007
-0.012429306 -0.0026603667 0.66015387
-0.0075437515 -0.0025147023 0.66006243
-0.0031465876 -0.0025181747 0.6610834
-0.016355714 0.0025161905 0.66049999
-0.011942857 0.0023885719 0.66000003
-0.0075428584 0.002514286 0.65999997
-0.0036248809 0.002049881 0.66212499
-0.01637155 0.0075565488 0.66112506
-0.012426374 0.0076879142 0.66000003
-0.0078243557 0.007376736 0.66114283
-0.016399287 0.012614763 0.66225004
-0.012549081 0.012718859 0.66106671
-0.0081965877 0.012610874 0.66208351
-0.016206667 0.016206667 0.66300005
-0.012663883 0.017225498 0.66230786
-0.0080767963 0.017469008 0.66154557
-0.057980001 -0.021662857 0.66900003
-0.053307623 -0.021450479 0.66900003
-0.049060002 -0.021025715 0.66900003
-0.041414291 -0.021025715 0.66900003
-0.036805145 -0.021522859 0.66860008
-0.033617146 -0.021882858 0.66600001
-0.060528576 -0.01975143 0.66900003
-0.056960572 -0.019496573 0.66900009
-0.053064901 -0.018295104 0.66900009
-0.049060002 -0.019114286 0.66900003
-0.042096354 -0.018131429 0.66799998
-0.037769392 -0.017751567 0.66571426
-0.034206547 -0.01773631 0.66512501
-0.052882861 -0.014017144 0.66900003
-0.040458575 -0.013698573 0.66900003
-0.037384678 -0.012884937 0.6673637
-0.033856671 -0.012426383 0.66569996
-0.029766669 -0.011400001 0.66500002
-0.012458256 -0.012353651 0.66516674
-0.0076076789 -0.012680179 0.6656875
-0.0026652063 -0.012571112 0.66659999
0.0012742858 -0.011468573 0.66900003
-0.033634607 -0.009519048 0.66633338
-0.0088666677 -0.0095000006 0.66500002
-0.0014779366 -0.0084468257 0.66516668
0.0025466071 -0.0076327976 0.66781253
0.0057342863 -0.0082828579 0.66900003
-0.00063619053 -0.0038161909 0.66800004
0.00106127 -0.0040307939 0.66833341
-0.002217381 0.0034850002 0.66525006
-0.0057000006 0.0088666677 0.66500002
-0.0036815242 0.0064754295 0.66640007
-0.01887924 0.013050287 0.6652
-0.005708572 0.010782857 0.66600001
-0.021631431 0.019721907 0.66800004
-0.018104106 0.018104251 0.6660769
-0.012455557 0.019633334 0.66500008
-0.007608572 0.019662857 0.66600001
-0.021439366 0.022501908 0.66866672
-0.017820714 0.022912147 0.66825002
-0.012773336 0.02287556 0.66840005
-0.0090474291 0.022045145 0.66900009
-0.016428763 0.027125144 0.66860002
-0.013362315 0.026815923 0.66814291
-0.066758096 -0.025676193 0.67400002
-0.062954731 -0.027431259 0.67263633
-0.057632025 -0.026896073 0.67237502
-0.052558098 -0.026920956 0.67299998
-0.047500957 -0.026318097 0.67400002
-0.042365719 -0.025034288 0.67400002
-0.037658419 -0.027601909 0.67400002
-0.06682048 -0.022592857 0.67299998
-0.062581085 -0.022988813 0.67049998
-0.057343338 -0.023156397 0.67007148
-0.052119937 -0.023334431 0.67053849
-0.047128767 -0.023118604 0.67053342
-0.042402856 -0.022801589 0.67122227
-0.037884641 -0.023818929 0.67137498
-0.033920001 -0.024960002 0.67200005
-0.067034572 -0.018199146 0.67290002
-0.062748961 -0.017762795 0.67093337
-0.05762624 -0.01711905 0.67027283
-0.05171122 -0.01752032 0.67033333
-0.046960481 -0.017689457 0.6702143
-0.043423336 -0.015964288 0.67050004
-0.066116191 -0.014121906 0.67400002
-0.062272467 -0.01313659 0.67291665
-0.057520773 -0.012781606 0.67106247
-0.052298106 -0.012595241 0.67085719
-0.047394529 -0.01280774 0.67249995
-0.043130267 -0.013001376 0.67144448
0.0038285716 -0.01084762 0.67000002
-0.060980957 -0.0089866668 0.67400002
-0.057442427 -0.0084386151 0.67218184
-0.052536786 -0.0076870243 0.67275
-0.047286987 -0.0096285734 0.67400002
0.0057514291 -0.0074536516 0.671
-0.051352385 -0.0044933334 0.67400002
0.0024865612 -0.0026270901 0.67155552
0.0064147622 -0.0038480954 0.6735
-0.00064000004 0.0044800001 0.67200005
0.0011546668 0.0016674288 0.67320007
-0.002034459 0.0081987893 0.6716364
0.00064095244 0.0089742867 0.67300004
-0.0057514291 0.01341873 0.671
-0.0025629168 0.012823515 0.67318738
0.00064190483 0.010912382 0.67400002
-0.0057542864 0.01726413 0.67133343
-0.0032065611 0.017747516 0.67355561
-0.01212381 0.023609525 0.67000002
-0.01893016 0.026587306 0.67000002
-0.075660005 -0.031040002 0.67900002
-0.07218805 -0.031245397 0.67877775
-0.067154922 -0.031641267 0.67800009
-0.062155247 -0.031754546 0.67790908
-0.057675242 -0.03148514 0.67740005
-0.053129099 -0.031190688 0.67755556
-0.04760693 -0.031524155 0.67800003
-0.042423408 -0.032004487 0.67785716
-0.038188487 -0.032090649 0.67754549
-0.076436006 -0.028065337 0.67900002
-0.072361559 -0.02713548 0.67837495
-0.067841493 -0.027523389 0.67555565
-0.061071433 -0.028928574 0.67500001
-0.057879288 -0.028939288 0.67524999
-0.052714292 -0.028928574 0.67500001
-0.047589526 -0.028296432 0.67525005
-0.042438891 -0.027649842 0.67516679
-0.039214287 -0.028285716 0.67500001
-0.075660005 -0.022633335 0.67900008
-0.072416082 -0.022072064 0.67766678
-0.06878572 -0.023142859 0.67500001
-0.075660005 -0.018106669 0.67900002
-0.072075479 -0.017607914 0.67707705
-0.06878572 -0.016714286 0.67500001
-0.071705312 -0.01411973 0.67828578
-0.067563817 -0.012459395 0.67563647
-0.064500004 -0.012214287 0.67500007
-0.066324905 -0.0087643545 0.67800009
-0.062827408 -0.0076477262 0.67544454
-0.05978572 -0.0070714289 0.67500001
-0.048256382 -0.0074813338 0.67740005
0.0038600003 -0.0012861905 0.67550004
0.0062171435 -0.0015003176 0.67533338
0.0032167968 0.0029828574 0.67545462
0.0057942863 0.00064380956 0.67600006
0.002584524 0.0064545246 0.67774999
-0.0021857144 0.01787143 0.67500001
-0.050013337 -0.040920004 0.68200004
-0.085337147 -0.036480002 0.68400002
-0.082257785 -0.036245402 0.68366671
-0.072308578 -0.035828575 0.68400002
-0.067748576 -0.035828575 0.68400002
-0.062595055 -0.036047246 0.68320006
-0.056975238 -0.036342043 0.68314296
-0.051634099 -0.036935814 0.68280005
-0.047532987 -0.037496109 0.6820001
-0.043308575 -0.036496907 0.68124998
-0.087053433 -0.032088138 0.68330777
-0.082570799 -0.032508891 0.68266678
-0.078073613 -0.03260177 0.68071437
-0.072872385 -0.033797555 0.68057144
-0.067574531 -0.034437384 0.68225002
-0.062331669 -0.034412146 0.68175006
-0.057179287 -0.034437381 0.68225002
-0.052251849 -0.033875786 0.68214291
-0.047957622 -0.034025241 0.68050003
-0.044038098 -0.034323812 0.68000001
-0.090548575 -0.028662859 0.68400002
-0.087051764 -0.027368324 0.68313336
-0.082520247 -0.027288653 0.68225002
-0.078328669 -0.026815586 0.6807273
-0.086597785 -0.024091113 0.68366671
-0.082150578 -0.022782953 0.68350005
-0.07788714 -0.022066953 0.68150002
-0.075771436 -0.014895239 0.68000001
-0.047484767 -0.0058542863 0.68300003
-0.04857143 -0.0045333337 0.68000001
-0.087929532 -0.040027622 0.68900001
-0.07196223 -0.040027626 0.68900001
-0.067587622 -0.040027622 0.68900001
-0.062338099 -0.041121274 0.68900007
-0.058231436 -0.04187429 0.68700004
-0.053413909 -0.040815052 0.68900007
-0.095803812 -0.03674667 0.68900001
-0.092358813 -0.037238814 0.68900007
-0.088042289 -0.03741486 0.6868
-0.083184049 -0.038318336 0.68775004
-0.077070214 -0.036615513 0.68828577
-0.07205072 -0.037990715 0.6877501
-0.067508392 -0.037884384 0.68820012
-0.062566072 -0.038324647 0.68787503
-0.057748366 -0.03900804 0.68644458
-0.052593336 -0.038873333 0.68600005
-0.096340694 -0.032988489 0.68900013
-0.092277154 -0.032724127 0.68716669
-0.088243499 -0.034643494 0.68633342
-0.095585093 -0.029091112 0.68900001
-0.09247648 -0.027206196 0.68670005
-0.089506671 -0.026786668 0.68600005
-0.092207432 -0.023740003 0.68860006
-0.088081069 -0.022327621 0.68733335
-0.082320005 -0.020906668 0.68600005
-0.045646988 -0.0063346042 0.68800008
-0.043964766 -0.0059057148 0.68900001
-0.045865715 -0.0045866668 0.68800002
-0.043964766 -0.0039371429 0.68900001
-0.097113967 -0.045583814 0.6936667
-0.092465721 -0.045572862 0.69349998
-0.081297152 -0.045605719 0.69400001
-0.077478305 -0.046633866 0.69400007
-0.072515413 -0.04680413 0.69216675
-0.067247629 -0.046219051 0.69000006
-0.063742861 -0.046000004 0.69000006
-0.10641335 -0.04097905 0.69400001
-0.10225572 -0.041563716 0.69270003
-0.097345963 -0.042095602 0.69062507
-0.092066199 -0.042088695 0.69050014
-0.087010197 -0.042670846 0.69253856
-0.082702212 -0.042089891 0.69300002
-0.077789582 -0.04219339 0.69218749
-0.072377518 -0.04253649 0.69038469
-0.06694185 -0.042343341 0.69007152
-0.062691435 -0.043502863 0.69000006
-0.10710301 -0.037273336 0.69357145
-0.10258953 -0.037484288 0.69050002
-0.097914286 -0.037785716 0.69000006
-0.093971431 -0.038771432 0.69000006
-0.080828577 -0.038114287 0.69000006
-0.077960193 -0.038519811 0.69020003
-0.067685716 -0.038771432 0.69000006
-0.10672466 -0.032545596 0.69387507
-0.1025232 -0.033032641 0.69093347
-0.098965719 -0.032462861 0.69000006
-0.10575239 -0.029742859 0.69400001
-0.10227974 -0.028560819 0.69285721
-0.097476207 -0.028695241 0.69000006
-0.094516195 -0.020489525 0.69400001
-0.088714294 -0.02037143 0.69000006
-0.04271429 -0.0046000001 0.69000006
-0.10636191 -0.045868576 0.69800001
-0.10215297 -0.046360958 0.69740003
-0.097578101 -0.047131624 0.69700003
-0.092666045 -0.047551118 0.69666672
-0.087487392 -0.047058653 0.69591677
-0.082181178 -0.047842868 0.69546175
-0.078880005 -0.049052384 0.69600004
-0.11124934 -0.042400192 0.69779998
-0.10778733 -0.043010186 0.69690007
-0.10367589 -0.043991432 0.69633341
-0.115447 -0.038777784 0.69800007
-0.11218052 -0.037272818 0.69772726
-0.10921429 -0.037066668 0.69500005
-0.11500382 -0.033902861 0.69800001
-0.11176842 -0.032756038 0.69716668
-0.10921429 -0.032433338 0.69500005
-0.1108562 -0.02987143 0.69700003
-0.10739742 -0.02834082 0.69671434
-0.10314763 -0.026200954 0.69650006
-0.10257079 -0.022485875 0.69783342
-0.097535245 -0.021231748 0.69666672
-0.11101525 -0.015954286 0.69800001
-0.10795416 -0.015856192 0.6978572
-0.095725723 -0.019278096 0.69800001
-0.11168002 -0.012630477 0.69800007
-0.10797634 -0.013010341 0.69800007
-0.10436763 -0.013960001 0.69800001
-0.11145842 -0.0095282551 0.69800007
-0.10719498 -0.0088303406 0.69785714
-0.10311227 -0.0084686913 0.697375
-0.095741913 -0.055570479 0.70300001
-0.092364766 -0.055901911 0.70380002
-0.11193629 -0.05189532 0.7030834
-0.10729265 -0.051669609 0.70290917
-0.10262994 -0.05069552 0.70171434
-0.097654544 -0.052109912 0.7032668
-0.092329055 -0.052186906 0.70250005
-0.087564692 -0.051983573 0.70275009
-0.084666669 -0.050000004 0.70000005
-0.11658049 -0.047570001 0.70350003
-0.1121616 -0.047401592 0.70100015
-0.10761172 -0.047753744 0.70057148
-0.10311111 -0.048222225 0.70000005
-0.098000012 -0.048666671 0.70000005
-0.092666671 -0.048666671 0.70000005
-0.11606227 -0.042690359 0.70037496
-0.11302037 -0.043007977 0.70012498
-0.11685441 -0.036506314 0.70012498
-0.11400001 -0.036666669 0.70000005
-0.11673838 -0.032686397 0.70042872
-0.11370739 -0.031677384 0.70025003
-0.11184338 -0.027681271 0.7013334
-0.10789772 -0.026807431 0.70020002
-0.11599239 -0.020784764 0.70400006
-0.11184682 -0.022574142 0.70192319
-0.10738476 -0.0226781 0.7003333
-0.10466667 -0.020666668 0.70000005
-0.11626942 -0.017375357 0.70162505
-0.11251168 -0.017788973 0.70041668
-0.10718641 -0.018388299 0.70028579
-0.10280305 -0.017357679 0.70093757
-0.097789392 -0.016990844 0.70069242
-0.11583272 -0.012449525 0.70033336
-0.11400001 -0.012000001 0.70000005
-0.10755556 -0.011777779 0.70000005
-0.10237437 -0.012161759 0.70046163
-0.098195635 -0.012692002 0.7014001
-0.1118489 -0.0074857152 0.70044446
-0.10807715 -0.0070042862 0.70050001
-0.08515048 0.039558098 0.70400006
-0.082242861 0.038357146 0.70350003
-0.077561401 0.03798132 0.70346159
-0.072308578 0.038162861 0.70300001
-0.067861192 0.038370952 0.70375001
-0.059001908 0.036876194 0.70400006
-0.086064294 0.042360716 0.70324999
-0.082457885 0.042950477 0.70215398
-0.077582628 0.04280334 0.70225006
-0.072077148 0.042711675 0.70075005
-0.067707971 0.04300788 0.70263642
-0.085029528 0.046197146 0.70300001
-0.081990674 0.046680193 0.70220006
-0.077643432 0.047255624 0.70280004
-0.072102219 0.047401436 0.70100015
-0.067972071 0.047024131 0.70200002
-0.073081911 0.050285719 0.70400012
-0.089300007 -0.055728573 0.70500004
-0.11687025 -0.052389763 0.70525002
-0.1148143 -0.052371431 0.70500004
-0.10103398 -0.05398953 0.70566672
-0.085942864 -0.05371429 0.70500004
-0.11750001 -0.020814287 0.70500004
-0.091702864 0.034388572 0.708
-0.087657154 0.034388572 0.708
-0.082203813 0.034364287 0.70749998
-0.077002704 0.033449054 0.70716667
-0.072779775 0.033019923 0.70758337
-0.067390487 0.033290286 0.70760006
-0.062385716 0.032876574 0.70739996
-0.058313496 0.03386651 0.70649999
-0.095074289 0.039782859 0.708
-0.092042767 0.038002383 0.70749998
-0.087593794 0.03753842 0.70640004
-0.08303953 0.035971906 0.70599997
-0.078557149 0.035585716 0.7050001
-0.072514288 0.035585716 0.70500004
-0.066303574 0.036760718 0.70499998
-0.062457304 0.037609369 0.7051667
-0.058890164 0.037171114 0.70533341
-0.091863029 0.042001113 0.7075001
-0.0888642 0.042617332 0.70580006
-0.065510474 0.041995242 0.70550001
-0.063038737 0.041951753 0.70666665
-0.088206671 0.045113336 0.70700002
-0.081473336 0.049153335 0.70700002
-0.077885717 0.049014289 0.70500004
-0.076536201 0.050949525 0.70700002
-0.069353335 0.050500002 0.70700002
-0.096560009 0.029240001 0.71400005
-0.09189906 0.028746035 0.71300006
-0.087278791 0.028445307 0.71357143
-0.082618378 0.028639592 0.71357149
-0.077749401 0.028633744 0.71342868
-0.072327763 0.028251022 0.71357149
-0.067693852 0.027952209 0.71272737
-0.062413331 0.027813017 0.71233338
-0.058289286 0.02736 0.71375006
-0.11084001 0.034680001 0.71400005
-0.10708451 0.034076333 0.71357149
-0.10228214 0.033137362 0.71333343
-0.097758278 0.03258387 0.71281266
-0.092658013 0.031951871 0.71109092
-0.087776206 0.03192373 0.71045458
-0.082640089 0.031835482 0.71125007
-0.077839874 0.031232247 0.7107144
-0.072523497 0.030500002 0.7116667
-0.067635402 0.030886512 0.71016669
-0.062209524 0.030428573 0.71000004
-0.057466671 0.031700477 0.71200007
-0.1068821 0.036261149 0.71300006
-0.10236643 0.037177857 0.71300006
-0.09755899 0.037648369 0.7113573
-0.093990482 0.03651429 0.71000004
-0.10185715 0.040063813 0.71300006
-0.097349338 0.04141029 0.71280003
-0.093583815 0.043522224 0.71033335
-0.091639772 0.04615929 0.71275002
-0.10667334 -0.0061542862 0.71800005
-0.11161228 -0.002201482 0.71799999
-0.10808276 -0.003873016 0.71777785
-0.057520002 0.019858096 0.71900004
-0.098605722 0.023966668 0.71900004
-0.086690865 0.023418859 0.71900004
-0.082445338 0.022871051 0.71899998
-0.077378102 0.023966668 0.71900004
-0.071843408 0.023165038 0.71842855
-0.067187048 0.022577146 0.71839994
-0.062517151 0.022707433 0.71819997
-0.057386991 0.02254381 0.71733332
-0.052860718 0.022752147 0.71849996
-0.049987622 0.023281906 0.71900004
-0.12120286 0.028075241 0.71900004
-0.11759232 0.028199743 0.71899998
-0.11261753 0.027913714 0.7184
-0.10778676 0.028141562 0.71754545
-0.10244644 0.027316783 0.71712506
-0.097825997 0.026913812 0.7173
-0.093408577 0.027110796 0.71766675
-0.087286942 0.026097555 0.71842867
-0.082399055 0.025901908 0.71842867
-0.077333808 0.026289286 0.71700001
-0.072632663 0.025835378 0.71657151
-0.067508578 0.025230478 0.71600002
-0.062735237 0.025230478 0.71600002
-0.05610643 0.027114525 0.71625006
-0.052639525 0.027345082 0.71783328
-0.049987622 0.026020955 0.71900004
-0.11695733 0.032457717 0.71899998
-0.11275326 0.032577317 0.71672732
-0.10801916 0.03160942 0.71633333
-0.10387683 0.03114032 0.71600002
-0.05525358 0.032743573 0.71625
-0.052619684 0.03211958 0.71755558
-0.11230096 0.036292382 0.71900004
-0.1044443 -0.0061842864 0.72150004
-0.10680299 -0.0012748301 0.72085726
-0.1044443 -0.0041228575 0.72150004
-0.11218389 0.0027524605 0.72191668
-0.10761587 0.0025563946 0.72235721
-0.11223715 0.0067480006 0.72300005
-0.10856478 0.0073447628 0.72300005
-0.08813715 0.019968573 0.72300005
-0.08262857 0.019968573 0.72300005
-0.076625399 0.018582225 0.72266674
-0.07272736 0.018697232 0.72227281
-0.067375071 0.018704418 0.72254556
-0.062621281 0.018579368 0.72255564
-0.058016408 0.018420424 0.72233343
-0.053454295 0.019041274 0.72266674
-0.048888575 0.019968573 0.72300005
-0.12652192 0.022691431 0.72200006
-0.12258583 0.022864977 0.72266674
-0.11768465 0.022882503 0.72262508
-0.11305673 0.022835933 0.72263646
-0.10735772 0.022709716 0.7226001
-0.10265858 0.022811146 0.7215001
-0.09739352 0.022421716 0.7222001
-0.092387103 0.022580177 0.72245467
-0.087957717 0.022091812 0.72040004
-0.080914289 0.021257143 0.72000003
-0.077485725 0.02194286 0.72000003
-0.073645718 0.021805717 0.72000003
-0.067885719 0.021257143 0.72000003
-0.050847147 0.02130143 0.72150004
-0.048544291 0.022378571 0.72300005
-0.12269905 0.027667383 0.72175002
-0.11835428 0.025645716 0.72000003
-0.11245716 0.02537143 0.72000003
-0.1077581 0.025394922 0.72066677
-0.095314294 0.02537143 0.72000003
-0.092828587 0.025441907 0.72200006
-0.089828581 0.02537143 0.72000003
-0.050057147 0.028800001 0.72000003
-0.048418261 0.027536668 0.7228334
-0.12271097 0.031881433 0.72250009
-0.11917716 0.033325717 0.72000003
-0.052183814 0.032957144 0.72100008
-0.12033334 0.035068575 0.72200006
-0.1007181 -0.010832382 0.72600001
-0.097370908 -0.011796509 0.72855562
-0.09372858 -0.01319143 0.72900003
-0.10239913 -0.0077504767 0.72781831
-0.098311752 -0.0080961911 0.72866672
-0.10228429 -0.0025747623 0.72778577
-0.099282861 -0.0041657146 0.72900003
-0.11392858 0.0048333337 0.72500002
-0.10564286 0.0041428572 0.72500002
-0.10269245 0.0026330166 0.7276001
-0.099282861 0.0013885716 0.72900003
-0.11690699 0.0083009526 0.72633338
-0.11310001 0.0081476197 0.72500002
-0.10658779 0.0078274608 0.72516668
-0.10361933 0.007422586 0.72742867
-0.046517145 0.0090257153 0.72900003
-0.042120002 0.0076371431 0.72900003
-0.03772286 0.0081000011 0.72900003
-0.12094458 0.012358286 0.72900003
-0.11721274 0.012638709 0.72578567
-0.11256072 0.012429764 0.72508329
-0.10785125 0.012444821 0.72593749
-0.10304008 0.012860441 0.72838473
-0.097200006 0.014580001 0.72900003
-0.092340015 0.013885716 0.72900003
-0.087480009 0.013885716 0.72900003
-0.08262001 0.013885716 0.72900003
-0.078454301 0.014580002 0.72900003
-0.071380012 0.014090477 0.72766674
-0.067448571 0.013697144 0.72825003
-0.062312964 0.012628002 0.72860003
-0.057507627 0.012468255 0.72750008
-0.05267923 0.012474108 0.72781253
-0.04726243 0.013187794 0.72881824
-0.042197149 0.012882859 0.72900003
-0.038185716 0.010414287 0.72900003
-0.12237906 0.017483812 0.727
-0.11746287 0.017273813 0.72549999
-0.11258171 0.017267197 0.72522217
-0.10782453 0.01727929 0.72574997
-0.10234278 0.017286591 0.72608328
-0.097551323 0.017294606 0.72644448
-0.092747867 0.017301828 0.72675002
-0.087418191 0.017179571 0.72690916
-0.082635149 0.017438574 0.72670001
-0.078179464 0.016702179 0.72642863
-0.072500005 0.015880954 0.72500008
-0.067804769 0.016157145 0.72500002
-0.062142864 0.015880954 0.72500002
-0.056964289 0.016226191 0.72500002
-0.051963173 0.016962541 0.72533333
-0.047056988 0.017301112 0.72666663
-0.04273184 0.017548166 0.72871435
-0.12635715 0.024166668 0.72500002
-0.12247224 0.02117921 0.72516674
-0.11755162 0.020305524 0.7252
-0.11220239 0.020369049 0.72500002
-0.10812857 0.020300001 0.72500002
-0.10219048 0.020023812 0.72500002
-0.097357154 0.020023812 0.72500008
-0.092523813 0.020023812 0.72500002
-0.08630953 0.020023812 0.72500002
-0.079404764 0.020023812 0.72500002
-0.050404765 0.020023812 0.72500002
-0.046677977 0.021954885 0.726125
-0.043678097 0.020799048 0.72800004
-0.12635715 0.02554762 0.72500002
-0.1249762 0.026928574 0.72500008
-0.046613064 0.027612792 0.72742867
-0.048216604 0.032377418 0.72771436
-0.091325723 -0.016034286 0.73200005
-0.089931436 -0.016034286 0.73200005
-0.095842227 -0.012299365 0.73100007
-0.092243098 -0.012430398 0.73191667
-0.089547306 -0.013722541 0.73266673
-0.096328102 -0.0071953973 0.73116672
-0.093543813 -0.0083771432 0.73300004
-0.097406834 -0.0027341393 0.73176932
-0.10094763 0.0048733335 0.73100001
-0.098245844 0.0027867858 0.73162502
-0.055224765 0.0048933337 0.73400003
-0.052079052 0.0045438097 0.73400003
-0.049122542 0.0044228574 0.73333335
-0.10155982 0.0079411436 0.73140001
-0.097852394 0.0079449527 0.73180002
-0.092677467 0.0083615892 0.73166674
-0.087840721 0.008365239 0.73199999
-0.082764134 0.0086022224 0.73233342
-0.070603818 0.0090876194 0.73400003
-0.067290209 0.0080736065 0.73271435
-0.062731795 0.0083636912 0.731875
-0.057348456 0.0078425007 0.73212498
-0.052779049 0.0077916882 0.7318182
-0.047631431 0.0072015873 0.73188889
-0.043860003 0.0083542857 0.73100001
-0.038754605 0.0085863499 0.73100007
-0.10145779 0.010911747 0.73133337
-0.097511113 0.011840001 0.73133337
-0.092614137 0.01114143 0.73116672
-0.087720007 0.011139048 0.73100001
-0.081992067 0.011380848 0.73166662
-0.077920198 0.012682477 0.73180002
-0.072304234 0.012011112 0.73233336
-0.067808956 0.01099981 0.73100001
-0.064745717 0.010442858 0.73100001
-0.047201719 0.01099981 0.73100001
-0.04293175 0.011371112 0.73100007
-0.03751912 0.012838165 0.73150003
-0.041075241 0.016708571 0.73100001
-0.038568955 0.016569335 0.73100001
-0.045252383 0.023670478 0.73100001
-0.044040002 0.024466669 0.73400003
-0.13018763 0.026455238 0.73100001
-0.1283084 0.027445525 0.73140001
-0.045252383 0.028079685 0.73100007
-0.09182477 -0.010514286 0.73600006
-0.088030636 -0.011705874 0.73750007
-0.092060417 -0.0075129257 0.73628581
-0.089262865 -0.0084333336 0.73800004
-0.096030481 -0.00070095243 0.73600006
-0.09428858 -0.0032752384 0.73699999
-0.065454289 -0.00070380955 0.73900002
-0.061231434 -0.00070380955 0.73900002
-0.057576429 -0.001404524 0.73725003
-0.096341774 0.0029063949 0.73685724
-0.093460277 0.0041163266 0.73785716
-0.087272391 0.0049266671 0.73900002
-0.082290009 0.004571429 0.73850006
-0.076881275 0.004453016 0.7383334
-0.072394297 0.0042161904 0.73800009
-0.067315638 0.0029495247 0.73780012
-0.062490728 0.0028064288 0.73725009
-0.057665348 0.0026649523 0.73660022
-0.052971978 0.0021028575 0.73600012
-0.096731439 0.0063085719 0.73600006
-0.092619292 0.0063150004 0.73675001
-0.087659381 0.0063114292 0.73633337
-0.082300797 0.0067801587 0.73650002
-0.077191591 0.0077190488 0.73683345
-0.072385833 0.0075363098 0.73612505
-0.067992389 0.0063085719 0.73600006
-0.062384766 0.0063085719 0.73600006
-0.058880001 0.0063085719 0.73600006
-0.076241553 0.011742739 0.73612505
-0.03448667 0.011964763 0.73900002
-0.043244772 0.023609843 0.73633337
-0.085938096 -0.01106635 0.74166673
-0.091160007 -0.0063600005 0.74200004
-0.087442972 -0.0077771428 0.74244446
-0.076564386 -0.0083499057 0.74300003
-0.073108964 -0.006928762 0.74240011
-0.063428581 -0.0063428576 0.74000001
-0.092264585 -0.0025440005 0.74180001
-0.087886281 -0.0026889525 0.74300009
-0.082899533 -0.0024056192 0.74270004
-0.077824876 -0.0028303573 0.74287504
-0.072819851 -0.0028284132 0.74233341
-0.067897402 -0.0029645718 0.74106663
-0.062867366 -0.0030121214 0.74018174
-0.059904765 -0.0035238098 0.74000001
-0.092302397 0.0019402383 0.74125004
-0.087577388 0.0021170639 0.74158335
-0.082610123 0.0019403573 0.74137497
-0.077932201 0.001834286 0.74120009
-0.07265652 0.001410159 0.74066675
-0.069771431 0.00070476194 0.74000001
-0.033213336 0.012013334 0.74200004
-0.040280003 0.019080002 0.74200004
-0.08334858 -0.010685715 0.74800003
-0.085852385 -0.0063857147 0.74500006
-0.082622007 -0.0075246668 0.74529999
-0.078047618 -0.0070952387 0.74500006
-0.085852385 -0.0049666669 0.74500006
-0.082304768 -0.0049666669 0.74500006
-0.034860004 0.014940001 0.74700004
-0.08214286 -0.0092857145 0.75000006
